-4.365552589297294617e-02 8.879324793815612793e-01 -1.826389878988265991e-02
-1.282587051391601562e-01 -6.584243774414062500e-01 1.148699000477790833e-01
1.642600446939468384e-01 3.147752583026885986e-01 1.989115960896015167e-02
1.575739234685897827e-01 5.395084023475646973e-01 1.001218110322952271e-01
-5.729929730296134949e-02 2.867190539836883545e-01 -5.397056043148040771e-02
1.131390109658241272e-01 -2.910968363285064697e-01 -1.829461008310317993e-01
-1.631960459053516388e-02 7.714214920997619629e-01 2.400493947789072990e-03
-1.130505353212356567e-01 -4.446089863777160645e-01 -2.255987972021102905e-01
9.850700199604034424e-02 -3.084546029567718506e-01 8.598374575376510620e-02
2.946939505636692047e-02 2.097397148609161377e-01 3.439042717218399048e-02
-2.410632520914077759e-01 -2.427622228860855103e-01 -6.397972255945205688e-02
-1.844517290592193604e-01 -5.195529460906982422e-01 2.074739784002304077e-01
6.196720525622367859e-02 4.836931228637695312e-01 -8.221202343702316284e-02
2.298146486282348633e-01 2.929615378379821777e-01 -1.342562288045883179e-01
-1.675029397010803223e-01 2.769753634929656982e-01 3.364297375082969666e-02
3.294415026903152466e-02 -2.756322324275970459e-01 2.384647578001022339e-01
-1.668175905942916870e-01 -3.087674081325531006e-01 -6.048053875565528870e-02
9.083145111799240112e-02 -4.228853881359100342e-01 2.248187214136123657e-01
1.829061508178710938e-01 -6.450469493865966797e-01 -1.394430547952651978e-02
-8.535768836736679077e-02 3.994958698749542236e-01 -8.843465708196163177e-03
2.359514832496643066e-01 -5.594617128372192383e-01 -1.151704601943492889e-02
-3.390680626034736633e-02 4.033210575580596924e-01 1.555558061227202415e-03
1.798784919083118439e-02 -4.210425317287445068e-01 -2.168826609849929810e-01
1.317088603973388672e-01 2.244330495595932007e-01 -2.818711474537849426e-02
6.973298732191324234e-03 5.808493494987487793e-01 -2.111192941665649414e-01
2.614543735980987549e-01 2.634047269821166992e-01 2.614424377679824829e-02
1.512213796377182007e-01 -2.772117257118225098e-01 3.473968058824539185e-02
-2.516664266586303711e-01 3.051961958408355713e-01 4.524980485439300537e-02
-2.797746360301971436e-01 -5.269963145256042480e-01 3.939379379153251648e-02
6.095748394727706909e-02 8.239911198616027832e-01 1.053721457719802856e-02
-1.690633445978164673e-01 -2.440939247608184814e-01 -1.618584394454956055e-01
-1.864078082144260406e-02 -5.074075460433959961e-01 -2.498731464147567749e-01
-6.712304800748825073e-02 3.623327612876892090e-01 -1.235014274716377258e-01
-1.129508912563323975e-01 8.295812606811523438e-01 1.907131969928741455e-01
-1.251456737518310547e-01 -4.539281427860260010e-01 2.540012896060943604e-01
-1.823515295982360840e-01 6.424903869628906250e-01 1.117178946733474731e-01
1.512638330459594727e-01 7.249166965484619141e-01 -6.905933469533920288e-02
-1.955470144748687744e-01 -3.904199898242950439e-01 1.362452059984207153e-01
-1.649946570396423340e-01 -3.081123530864715576e-01 1.109814345836639404e-01
1.029179319739341736e-01 -2.281129062175750732e-01 4.607029631733894348e-02
-7.385612279176712036e-02 5.371465086936950684e-01 1.491027921438217163e-01
8.629057556390762329e-02 3.036253750324249268e-01 8.315230160951614380e-02
2.023810148239135742e-02 2.774519026279449463e-01 -5.693992972373962402e-02
-5.004610866308212280e-02 4.782416522502899170e-01 -6.447271257638931274e-02
-3.840479627251625061e-02 -5.882465839385986328e-01 -2.010853439569473267e-01
1.593301594257354736e-01 -5.910624265670776367e-01 -1.068342104554176331e-01
1.254728715866804123e-02 5.221124887466430664e-01 6.282644346356391907e-03
-9.254319965839385986e-02 -2.772117257118225098e-01 6.769313663244247437e-02
2.174869365990161896e-02 -5.522263050079345703e-01 2.276042550802230835e-01
-1.068067550659179688e-02 -2.387325316667556763e-01 2.237495630979537964e-01
-1.951649338006973267e-01 -6.672046780586242676e-01 4.501976817846298218e-02
3.181590512394905090e-02 4.557910859584808350e-01 -2.489106031134724617e-03
2.567662000656127930e-01 5.449919104576110840e-01 -5.083414167165756226e-02
2.027527056634426117e-02 4.872505962848663330e-01 4.762802273035049438e-02
1.999225169420242310e-01 -6.757189035415649414e-01 2.083399146795272827e-02
-6.289347261190414429e-02 5.206508636474609375e-01 -2.929395809769630432e-02
-6.113205477595329285e-02 -4.613386094570159912e-01 -2.484833896160125732e-01
-9.419736266136169434e-02 3.211416602134704590e-01 -7.815667986869812012e-02
9.193161968141794205e-04 4.815886020660400391e-01 -3.813787922263145447e-02
5.619697272777557373e-02 9.419759511947631836e-01 -7.594442926347255707e-03
3.052607551217079163e-02 -3.442678153514862061e-01 1.716157048940658569e-01
1.561296284198760986e-01 3.427353203296661377e-01 -1.003066524863243103e-01
-1.746127754449844360e-02 2.263220995664596558e-01 3.477970510721206665e-02
2.500407211482524872e-02 1.922889947891235352e-01 -5.441737174987792969e-02
3.854924440383911133e-02 -4.957499504089355469e-01 2.576376497745513916e-01
-5.013196915388107300e-02 6.962305903434753418e-01 -6.373487412929534912e-02
2.453295439481735229e-01 -4.835803210735321045e-01 6.754697859287261963e-02
-5.837902054190635681e-02 -6.343450546264648438e-01 -1.565308719873428345e-01
-4.678691923618316650e-02 -6.765497922897338867e-01 -2.719784155488014221e-02
-1.000543162226676941e-01 2.276360988616943359e-01 -7.949165254831314087e-02
-7.315519452095031738e-02 3.279153108596801758e-01 6.058108806610107422e-02
4.370137304067611694e-02 3.622617125511169434e-01 -4.762728139758110046e-02
-2.211305052042007446e-01 -2.471454143524169922e-01 1.124811917543411255e-01
8.888247422873973846e-03 -6.135632395744323730e-01 2.136974334716796875e-01
4.245217889547348022e-02 5.362090468406677246e-01 1.693760156631469727e-01
-9.202040731906890869e-02 -4.333265125751495361e-01 2.489864975214004517e-01
-2.627231180667877197e-02 3.493235409259796143e-01 -1.894949376583099365e-02
9.560278803110122681e-02 2.014847695827484131e-01 5.381404608488082886e-02
-2.106070369482040405e-01 -2.925897240638732910e-01 3.910612780600786209e-03
-3.856126964092254639e-02 1.823297590017318726e-01 -1.172827836126089096e-02
-3.507984429597854614e-02 -4.125781357288360596e-03 -2.988572046160697937e-02
2.693539485335350037e-02 2.472469508647918701e-01 2.055379375815391541e-02
-2.026031017303466797e-01 -3.861555159091949463e-01 -6.202067062258720398e-02
1.170759946107864380e-01 -4.599055349826812744e-01 -2.481966316699981689e-01
-1.082835197448730469e-01 7.139557003974914551e-01 -4.674864932894706726e-02
9.434215724468231201e-02 7.454429268836975098e-01 -1.136736944317817688e-01
-1.824191212654113770e-01 -4.555838406085968018e-01 1.694548577070236206e-01
-3.514248877763748169e-02 -3.877323567867279053e-01 2.036331593990325928e-01
-2.563875019550323486e-01 3.215125203132629395e-01 2.022469043731689453e-01
5.000214092433452606e-03 -3.183274269104003906e-01 9.476216137409210205e-02
1.619032351300120354e-03 2.371133863925933838e-01 -5.041652917861938477e-02
1.889901012182235718e-01 -5.717855691909790039e-01 8.736134320497512817e-02
-1.338080912828445435e-01 -2.604847252368927002e-01 8.685176260769367218e-03
-2.007844895124435425e-01 2.827283740043640137e-01 -1.557320207357406616e-01
1.820327937602996826e-01 -3.054351806640625000e-01 2.056275960057973862e-03
1.911448687314987183e-01 -4.116384685039520264e-01 8.474624156951904297e-02
-1.757702529430389404e-01 7.525102496147155762e-01 -7.169132679700851440e-02
-2.688647210597991943e-01 -4.200531244277954102e-01 -3.156162425875663757e-02
7.627267856150865555e-03 4.563109576702117920e-01 2.629643380641937256e-01
-3.589592128992080688e-02 6.114839911460876465e-01 -3.937221597880125046e-03
8.587642759084701538e-02 -2.426348775625228882e-01 2.233024984598159790e-01
-1.680427044630050659e-01 -3.606768548488616943e-01 8.290486037731170654e-02
1.777605116367340088e-01 7.543790936470031738e-01 -3.991637006402015686e-02
1.772779226303100586e-01 5.695409178733825684e-01 1.202685311436653137e-01
1.879909890703856945e-03 8.002713322639465332e-01 1.788021251559257507e-02
-3.341135084629058838e-01 6.436842679977416992e-01 -1.585868597030639648e-01
2.154321968555450439e-01 -4.106663465499877930e-01 4.169265180826187134e-02
1.611310057342052460e-02 -1.618798822164535522e-01 8.095108717679977417e-02
1.781485276296734810e-03 -2.146912962198257446e-01 -1.340404897928237915e-01
-4.528669640421867371e-03 3.201583027839660645e-01 -4.227327555418014526e-02
-2.858581207692623138e-02 8.508560061454772949e-01 6.757728755474090576e-02
-1.282179802656173706e-01 -6.765497922897338867e-01 -6.354191899299621582e-02
1.166077237576246262e-02 2.576796337962150574e-03 1.232363842427730560e-02
1.280066817998886108e-01 -3.720173537731170654e-01 -1.264974921941757202e-01
1.940568983554840088e-01 5.166385173797607422e-01 -8.132533729076385498e-02
-1.709018796682357788e-01 2.476697713136672974e-01 -1.256050765514373779e-01
-5.483339726924896240e-02 -3.183274269104003906e-01 -1.553880572319030762e-01
1.581812798976898193e-01 2.091835588216781616e-01 1.093942951411008835e-02
1.916300654411315918e-01 -4.484134018421173096e-01 -1.058023199439048767e-01
-1.291441768407821655e-01 6.646523475646972656e-01 3.482900559902191162e-02
-2.025979012250900269e-01 2.277580946683883667e-01 -1.536794900894165039e-01
-1.581969112157821655e-02 -2.734609842300415039e-01 1.931330859661102295e-01
-1.910333149135112762e-02 -5.409403443336486816e-01 -2.444918304681777954e-01
2.088691145181655884e-01 3.998493552207946777e-01 -1.339079290628433228e-01
1.470487415790557861e-01 2.406741678714752197e-01 -1.050485372543334961e-01
2.441144548356533051e-02 -3.146754801273345947e-01 -1.623202413320541382e-01
-1.132437437772750854e-01 -5.462376475334167480e-01 -2.226651310920715332e-01
-1.987163573503494263e-01 -5.465608239173889160e-01 -1.233350783586502075e-01
1.638225018978118896e-01 -2.378739267587661743e-01 -1.423701941967010498e-01
1.559468060731887817e-01 8.139814734458923340e-01 -1.670456677675247192e-01
-4.132980853319168091e-02 5.446046590805053711e-01 7.496330142021179199e-02
-1.736856549978256226e-01 -2.645534276962280273e-01 -1.265252232551574707e-01
5.750950798392295837e-02 2.296287566423416138e-01 -2.533985674381256104e-01
1.963788866996765137e-01 -3.741617500782012939e-01 -1.215204037725925446e-02
-2.142217159271240234e-01 -3.686487078666687012e-01 -8.589345961809158325e-03
-2.148091495037078857e-01 -4.352257251739501953e-01 1.020946353673934937e-01
-4.340071231126785278e-02 4.957284629344940186e-01 -1.422537118196487427e-02
-3.943128287792205811e-01 2.985594570636749268e-01 1.910592801868915558e-02
-4.271745681762695312e-02 6.678373217582702637e-01 1.288087223656475544e-03
-5.383545532822608948e-02 -5.980734825134277344e-01 2.004508376121520996e-01
-3.945168107748031616e-02 -3.660538494586944580e-01 -1.761404275894165039e-01
2.209884822368621826e-01 -2.740588486194610596e-01 7.383965700864791870e-02
-6.271871924400329590e-02 -2.772117257118225098e-01 9.462786465883255005e-02
2.275680601596832275e-01 -4.216221570968627930e-01 -6.634087115526199341e-02
-4.149503260850906372e-02 5.159557461738586426e-01 -3.001832636073231697e-03
5.893570557236671448e-02 2.760439515113830566e-01 4.958152770996093750e-02
1.159921064972877502e-01 5.098285079002380371e-01 -1.475518196821212769e-02
2.425404498353600502e-03 6.297792196273803711e-01 -2.794555760920047760e-02
1.583727598190307617e-01 -5.947975516319274902e-01 1.587425172328948975e-01
4.220715910196304321e-02 3.961125016212463379e-01 -1.605029776692390442e-02
1.397353261709213257e-01 -5.799437165260314941e-01 -1.563801169395446777e-01
1.737966686487197876e-01 -4.056576192378997803e-01 -1.453827172517776489e-01
2.655503898859024048e-02 -2.832306921482086182e-01 -2.163411676883697510e-01
-1.259947568178176880e-01 -2.772117257118225098e-01 -4.489963501691818237e-02
-1.029075472615659237e-03 -3.183274269104003906e-01 -1.477103773504495621e-02
1.672959625720977783e-01 -2.896603643894195557e-01 1.005524173378944397e-01
3.704532235860824585e-02 5.524534583091735840e-01 7.242077030241489410e-03
-1.173055022954940796e-01 -6.220133900642395020e-01 2.056571096181869507e-01
-1.480857282876968384e-01 -6.051703095436096191e-01 -1.393186748027801514e-01
2.290067821741104126e-02 -3.183274269104003906e-01 -9.210604429244995117e-02
-1.135651916265487671e-01 -3.183274269104003906e-01 -1.139128208160400391e-01
1.914212703704833984e-01 2.311125993728637695e-01 1.838711202144622803e-01
-6.665570288896560669e-02 -9.776089340448379517e-02 -2.790488069877028465e-03
-6.521806120872497559e-02 9.309698343276977539e-01 7.668768055737018585e-03
-2.158029228448867798e-01 -3.991006016731262207e-01 6.485554575920104980e-02
2.934510409832000732e-01 2.521430552005767822e-01 -1.572525799274444580e-01
6.175675243139266968e-02 -5.958892107009887695e-01 2.269665747880935669e-01
-1.439971178770065308e-01 -4.135255217552185059e-01 -2.348997592926025391e-01
1.494010388851165771e-01 -5.454111099243164062e-01 2.192572355270385742e-01
1.316651422530412674e-02 5.616374611854553223e-01 -1.421428099274635315e-02
4.125471040606498718e-02 4.814135730266571045e-01 2.691725734621286392e-03
-3.058714233338832855e-02 -3.235778808593750000e-01 1.686421632766723633e-01
1.057233735918998718e-01 5.775517821311950684e-01 -5.689401924610137939e-02
-2.130953669548034668e-01 -4.268708825111389160e-01 -9.230791777372360229e-02
-1.162022445350885391e-02 2.710170149803161621e-01 -1.624862104654312134e-02
1.472935173660516739e-02 1.357236057519912720e-01 -1.562255062162876129e-02
1.635071337223052979e-01 3.828173577785491943e-01 -9.486730396747589111e-02
1.719932630658149719e-02 2.237179130315780640e-01 -7.495147734880447388e-02
-2.796533107757568359e-01 -5.785427689552307129e-01 4.960236605256795883e-03
9.358403831720352173e-02 -4.471345841884613037e-01 2.526418864727020264e-01
-1.194619983434677124e-01 5.187924504280090332e-01 3.393122926354408264e-02
-1.458425819873809814e-01 -2.678154706954956055e-01 1.667880415916442871e-01
7.145088911056518555e-02 -3.830823302268981934e-01 -2.176156491041183472e-01
3.560608020052313805e-04 3.044173121452331543e-01 -5.653501488268375397e-03
2.548614330589771271e-02 -3.908202648162841797e-01 2.300440669059753418e-01
1.175213307142257690e-01 -6.429710388183593750e-01 9.629399329423904419e-02
-1.826591193675994873e-01 -3.672598600387573242e-01 -6.061586737632751465e-02
-9.916908107697963715e-03 4.267229139804840088e-01 -3.353717736899852753e-03
-1.176555305719375610e-01 -5.151663422584533691e-01 2.373141497373580933e-01
2.487596869468688965e-01 -5.436219573020935059e-01 4.839384555816650391e-02
-1.894413977861404419e-01 4.650374948978424072e-01 3.892333433032035828e-02
1.747419238090515137e-01 3.985280692577362061e-01 1.550047993659973145e-01
5.005808174610137939e-02 -5.179969072341918945e-01 -2.490812391042709351e-01
8.497535437345504761e-02 -4.899241626262664795e-01 2.389672696590423584e-01
1.776366233825683594e-01 -5.141733884811401367e-01 1.449353396892547607e-01
-1.451425105333328247e-01 -5.648109316825866699e-01 -2.365415990352630615e-01
-3.920847922563552856e-02 4.430781900882720947e-01 -5.356810986995697021e-02
2.983918040990829468e-02 -3.581781387329101562e-01 -1.966319680213928223e-01
1.733461320400238037e-01 -5.199783444404602051e-01 -1.430442631244659424e-01
-3.176139295101165771e-02 4.455171525478363037e-01 4.385964199900627136e-02
1.570982635021209717e-01 -3.524268269538879395e-01 5.486596375703811646e-02
-2.414721697568893433e-01 8.417006134986877441e-01 8.949791640043258667e-02
2.300421521067619324e-02 2.102839201688766479e-01 -2.443718910217285156e-02
-1.037799045443534851e-01 -3.054862618446350098e-01 9.007633477449417114e-02
5.670226737856864929e-02 -1.746075153350830078e-01 -9.758523851633071899e-02
2.102510333061218262e-01 -2.706260979175567627e-01 7.922610267996788025e-03
1.085565462708473206e-01 -3.183274269104003906e-01 -5.128502473235130310e-02
2.346518486738204956e-01 -5.589956045150756836e-01 2.124285325407981873e-02
-1.477746814489364624e-01 5.616157650947570801e-01 5.013724416494369507e-02
3.609720617532730103e-02 1.857795566320419312e-01 8.839917369186878204e-03
-1.029169559478759766e-01 -6.765497922897338867e-01 8.206239901483058929e-03
3.693701699376106262e-02 2.975006997585296631e-01 -1.694729737937450409e-02
3.270764835178852081e-03 9.076639078557491302e-03 -4.361899197101593018e-02
-4.521689191460609436e-02 -6.765497922897338867e-01 -1.277468502521514893e-01
4.694254323840141296e-02 4.499566853046417236e-01 -7.374724000692367554e-02
-2.270966321229934692e-01 -2.668329775333404541e-01 3.023397922515869141e-02
-4.948839917778968811e-02 -3.374448418617248535e-01 -1.825371533632278442e-01
-9.432808496057987213e-03 6.634818315505981445e-01 -4.050553217530250549e-02
-6.062667444348335266e-02 -5.100050568580627441e-01 -2.308102846145629883e-01
-1.649712622165679932e-01 -5.672343373298645020e-01 2.150611579418182373e-01
-1.114450693130493164e-01 2.167822718620300293e-01 9.866622835397720337e-02
-1.797782927751541138e-01 -5.761237740516662598e-01 -1.734008044004440308e-01
-3.157941624522209167e-03 4.668136239051818848e-01 8.930678665637969971e-02
4.653628543019294739e-02 5.959093570709228516e-01 -3.618056699633598328e-02
2.220541834831237793e-01 2.489165514707565308e-01 -1.214861422777175903e-01
9.762587398290634155e-02 3.397167325019836426e-01 -8.617542684078216553e-02
-2.584209740161895752e-01 -4.043840169906616211e-01 4.234853014349937439e-02
1.785901375114917755e-02 -2.645170092582702637e-01 2.095836997032165527e-01
-9.998844936490058899e-03 -2.625745534896850586e-01 -2.091092020273208618e-01
3.723948448896408081e-02 -3.862577080726623535e-01 2.023604065179824829e-01
1.669078171253204346e-01 -6.290624737739562988e-01 1.934497244656085968e-02
1.445946190506219864e-02 6.565029025077819824e-01 1.042720582336187363e-02
-1.340515464544296265e-01 2.608929574489593506e-01 3.069239854812622070e-02
4.029931500554084778e-02 -3.422880470752716064e-01 -1.639413088560104370e-01
-2.826125361025333405e-02 2.865778207778930664e-01 -3.066063858568668365e-02
6.849901378154754639e-02 -2.924614846706390381e-01 -1.954623162746429443e-01
-2.182587422430515289e-02 5.735151767730712891e-01 4.188439249992370605e-02
1.454553902149200439e-01 -4.852230250835418701e-01 2.407486140727996826e-01
9.964288026094436646e-02 7.072409987449645996e-01 -5.033136159181594849e-02
-2.549007236957550049e-01 -2.374181747436523438e-01 2.346607111394405365e-02
-2.506778240203857422e-01 2.606252431869506836e-01 9.640952572226524353e-03
2.120878398418426514e-01 -5.924980640411376953e-01 -1.344109233468770981e-02
-9.494643658399581909e-03 1.915391981601715088e-01 5.077414587140083313e-02
-2.023683041334152222e-01 2.289414554834365845e-01 4.011421650648117065e-02
7.192724198102951050e-02 6.050690412521362305e-01 2.319497056305408478e-02
-5.772713571786880493e-02 5.612753033638000488e-01 1.280714571475982666e-01
-2.154663018882274628e-02 1.884292066097259521e-01 4.437034949660301208e-03
-6.828811764717102051e-02 6.085815429687500000e-01 -3.941072896122932434e-02
-1.702425330877304077e-01 -3.798505961894989014e-01 -1.582411676645278931e-01
3.154965862631797791e-02 5.491386055946350098e-01 -6.625569611787796021e-02
2.408735603094100952e-01 -4.214237630367279053e-01 -1.533615519292652607e-03
-1.404214203357696533e-01 5.411710143089294434e-01 8.318461477756500244e-02
3.283792734146118164e-02 -6.765497922897338867e-01 -6.737892329692840576e-02
-4.830253869295120239e-02 2.795979976654052734e-01 4.089321196079254150e-02
-2.154684811830520630e-01 -5.832656025886535645e-01 -1.043415367603302002e-01
-1.110465228557586670e-01 -5.452698469161987305e-01 2.502687871456146240e-01
3.627646341919898987e-02 -4.148382693529129028e-02 -1.063919533044099808e-02
3.149905800819396973e-02 -6.417598128318786621e-01 -1.542677879333496094e-01
1.726980507373809814e-01 4.578791856765747070e-01 1.585735678672790527e-01
6.028497591614723206e-02 -1.454483270645141602e-01 4.144520685076713562e-02
1.853113025426864624e-01 2.996095716953277588e-01 1.952792108058929443e-01
-2.199929058551788330e-01 5.724806785583496094e-01 -1.084171533584594727e-01
-1.470053046941757202e-01 -4.533259868621826172e-01 2.298881113529205322e-01
-1.785549074411392212e-01 4.331638514995574951e-01 1.370041966438293457e-01
-7.564760744571685791e-02 -3.856087625026702881e-01 2.017435133457183838e-01
-1.431236509233713150e-02 3.740102648735046387e-01 -1.972952671349048615e-02
-2.285106331110000610e-01 -2.929518222808837891e-01 -1.632434502243995667e-02
2.729686163365840912e-02 6.181363463401794434e-01 -1.954827271401882172e-02
7.749039679765701294e-02 2.599052488803863525e-01 -5.721424147486686707e-02
4.509240388870239258e-02 4.047428667545318604e-01 9.716559946537017822e-02
4.919296503067016602e-02 4.574987888336181641e-01 1.464749574661254883e-01
2.590760588645935059e-01 3.270618915557861328e-01 2.671057879924774170e-01
-2.524846978485584259e-02 -4.751310348510742188e-01 2.379960268735885620e-01
1.268309503793716431e-01 -3.936213850975036621e-01 -2.145242840051651001e-01
1.782084554433822632e-01 -2.668520212173461914e-01 7.700362801551818848e-02
1.951780319213867188e-01 -4.895421266555786133e-01 1.174119636416435242e-01
2.172221839427947998e-01 -4.619953334331512451e-01 7.390991598367691040e-02
2.006520479917526245e-01 -4.159870147705078125e-01 -1.090808361768722534e-01
-2.406491041183471680e-01 6.176078319549560547e-01 -1.139587461948394775e-01
-2.485005408525466919e-01 -2.646452486515045166e-01 7.150795310735702515e-02
-1.491406466811895370e-02 6.255086660385131836e-01 7.004125043749809265e-03
1.455818861722946167e-01 -6.765134334564208984e-01 1.254046261310577393e-01
1.634920015931129456e-02 6.085624694824218750e-01 2.554997056722640991e-02
1.257219463586807251e-01 -4.579968452453613281e-01 2.307935357093811035e-01
1.898036748170852661e-01 5.365365743637084961e-01 -4.146551713347434998e-02
-2.500899508595466614e-02 2.541557252407073975e-01 4.303299635648727417e-02
3.528857976198196411e-02 8.441569209098815918e-01 2.520193159580230713e-02
-2.270481139421463013e-01 8.402884006500244141e-01 -1.114773303270339966e-01
9.099087119102478027e-02 -2.124594151973724365e-01 -8.375380188226699829e-02
-6.470713764429092407e-02 2.201271504163742065e-01 -1.089915782213211060e-01
5.204451084136962891e-02 7.311444878578186035e-01 1.936442703008651733e-01
-5.797917395830154419e-02 5.797316431999206543e-01 -9.866354055702686310e-03
-1.614596843719482422e-01 2.191872596740722656e-01 -1.181461215019226074e-01
-1.733555644750595093e-01 -6.137165427207946777e-01 -6.457364559173583984e-02
-5.487602204084396362e-02 5.384739041328430176e-01 -5.396154895424842834e-02
-2.684324085712432861e-01 -5.593309402465820312e-01 -3.433388844132423401e-02
6.741045415401458740e-02 -4.142541885375976562e-01 -2.352688461542129517e-01
5.992757901549339294e-02 2.101112157106399536e-01 -4.062327742576599121e-02
6.358257378451526165e-04 2.465434223413467407e-01 1.711287647485733032e-01
-9.269869886338710785e-03 5.978639721870422363e-01 -1.456413790583610535e-02
6.335858255624771118e-02 2.175144106149673462e-01 -1.400283188559114933e-03
7.153425365686416626e-03 3.438140153884887695e-01 -3.998334333300590515e-02
-1.750034838914871216e-01 -6.169015169143676758e-01 6.153085455298423767e-02
-2.001546174287796021e-01 -5.563669204711914062e-01 1.210950911045074463e-01
1.150369085371494293e-02 5.940707921981811523e-01 -2.439291588962078094e-02
-1.123019605875015259e-01 -3.069357872009277344e-01 1.626370400190353394e-01
-1.423561014235019684e-02 -2.772117257118225098e-01 -1.559954136610031128e-01
1.149255558848381042e-01 6.392205357551574707e-01 4.041326642036437988e-01
1.196605116128921509e-01 -2.662853896617889404e-01 -5.260985717177391052e-02
6.368772685527801514e-02 -2.772117257118225098e-01 -7.538563013076782227e-02
-7.285948842763900757e-02 7.481001615524291992e-01 1.536973863840103149e-01
-1.237247586250305176e-01 5.232371091842651367e-01 -5.114223808050155640e-02
-1.555420905351638794e-01 7.490835785865783691e-01 4.917916283011436462e-02
-5.413125082850456238e-02 -3.183274269104003906e-01 6.314207799732685089e-03
-2.696310356259346008e-02 6.737037897109985352e-01 8.074697107076644897e-02
3.381692767143249512e-01 6.360200047492980957e-01 -4.977130889892578125e-02
-1.266826987266540527e-01 7.020034790039062500e-01 3.574905171990394592e-02
-2.120292373001575470e-02 7.448979616165161133e-01 -5.937425885349512100e-03
-2.900628000497817993e-02 -2.772117257118225098e-01 1.359558254480361938e-01
1.664772033691406250e-01 -4.136121869087219238e-01 1.294724494218826294e-01
-1.051678955554962158e-01 -3.377957344055175781e-01 -1.826575845479965210e-01
1.756603270769119263e-01 -3.485487997531890869e-01 -5.634731054306030273e-02
2.437968552112579346e-01 -4.205529987812042236e-01 4.449706152081489563e-02
-1.199688538908958435e-01 2.938505113124847412e-01 6.819959962740540504e-04
3.102660179138183594e-02 -9.455774724483489990e-02 -6.228778883814811707e-02
7.571816910058259964e-03 6.016632318496704102e-01 -2.525867521762847900e-01
-4.081515967845916748e-02 3.772220611572265625e-01 2.240740135312080383e-02
5.963733047246932983e-02 4.679286777973175049e-01 -3.708076849579811096e-02
-4.062706232070922852e-02 2.334119677543640137e-01 -4.610850475728511810e-03
-2.137599140405654907e-01 -6.285530328750610352e-01 3.468154370784759521e-02
-1.895705014467239380e-01 4.022007882595062256e-01 1.671345978975296021e-01
-1.750771254301071167e-01 -6.679766178131103516e-01 -3.083513490855693817e-02
-2.324692755937576294e-01 -5.582894682884216309e-01 1.043412461876869202e-01
9.908837080001831055e-02 3.605704605579376221e-01 -4.042313620448112488e-02
1.043912861496210098e-02 5.110492706298828125e-01 -3.226368129253387451e-02
-9.065110236406326294e-03 -6.765497922897338867e-01 -1.179442405700683594e-01
-1.122560352087020874e-01 -1.782100498676300049e-01 -1.767343841493129730e-02
-3.662882000207901001e-02 -6.388608217239379883e-01 1.619118601083755493e-01
1.382399052381515503e-01 -4.546871185302734375e-01 -2.007872909307479858e-01
-8.682730048894882202e-02 4.741261601448059082e-01 -5.006121471524238586e-02
1.298989355564117432e-01 -2.964158058166503906e-01 -3.490806370973587036e-02
1.630288660526275635e-01 -4.612259864807128906e-01 -1.604661196470260620e-01
2.559829652309417725e-01 4.222011268138885498e-01 2.481802552938461304e-02
8.102883398532867432e-02 5.263345241546630859e-01 -5.091281235218048096e-02
8.537822961807250977e-02 4.004861414432525635e-01 -1.180014689452946186e-03
3.194347023963928223e-03 2.794524431228637695e-01 2.618804574012756348e-01
-9.394575655460357666e-02 -6.079359054565429688e-01 -2.115135043859481812e-01
-6.147628277540206909e-02 -2.772117257118225098e-01 3.736118087545037270e-03
5.992931127548217773e-02 5.363017320632934570e-01 7.848519086837768555e-02
-1.488507688045501709e-01 -2.831778526306152344e-01 -1.161672323942184448e-01
-1.317026913166046143e-01 5.720613002777099609e-01 2.184549123048782349e-01
1.542763561010360718e-01 -3.926865160465240479e-01 -1.175881549715995789e-01
2.529721558094024658e-01 -4.635826051235198975e-01 -5.622570868581533432e-03
1.120429933071136475e-01 -5.954897999763488770e-01 -2.202469557523727417e-01
1.700732856988906860e-02 -5.652571916580200195e-01 -2.148673981428146362e-01
-6.809420883655548096e-02 -1.357739418745040894e-01 3.617480769753456116e-02
1.836781203746795654e-01 4.053796827793121338e-01 -1.108907684683799744e-01
-2.085380405187606812e-01 -2.860864102840423584e-01 8.038601279258728027e-02
-5.293239280581474304e-02 7.907173633575439453e-01 -8.996647782623767853e-03
2.641719393432140350e-02 4.668222963809967041e-01 -1.192767918109893799e-01
-2.598579041659832001e-02 -2.830088734626770020e-01 -2.176494449377059937e-01
3.572222217917442322e-02 3.836283385753631592e-01 1.034506130963563919e-02
3.191779553890228271e-02 -6.081230044364929199e-01 -1.812444627285003662e-01
1.439140439033508301e-01 -3.139095902442932129e-01 1.059319823980331421e-01
3.795526921749114990e-01 3.062835633754730225e-01 -1.883204728364944458e-01
5.898388102650642395e-02 -1.101168319582939148e-01 5.186032503843307495e-03
-1.973179727792739868e-01 -3.665138781070709229e-01 9.677398204803466797e-02
1.615148410201072693e-02 -6.751930117607116699e-01 -1.866569519042968750e-01
6.112496554851531982e-02 -2.056285738945007324e-01 -1.105571985244750977e-01
2.653545700013637543e-02 -2.775045931339263916e-01 -1.429073661565780640e-01
-9.920350462198257446e-02 2.010273933410644531e-01 -5.508723668754100800e-03
-6.985744833946228027e-02 4.075292348861694336e-01 -5.012203752994537354e-02
1.813795268535614014e-01 8.198046684265136719e-01 1.213662773370742798e-01
-2.142615765333175659e-01 2.466179430484771729e-01 -1.024047099053859711e-02
-2.789653837680816650e-01 -5.083701610565185547e-01 -1.068706507794559002e-03
-1.274590045213699341e-01 3.674203157424926758e-01 3.215126693248748779e-02
2.728676497936248779e-01 6.148231625556945801e-01 -4.331245273351669312e-02
-1.180705428123474121e-01 -2.603963613510131836e-01 -2.142687141895294189e-01
7.683192938566207886e-02 4.512796700000762939e-01 -2.734690606594085693e-01
2.082911087200045586e-03 5.601212382316589355e-01 -1.751102507114410400e-01
-2.879020012915134430e-02 -3.183274269104003906e-01 -1.257670968770980835e-01
1.025540307164192200e-01 -5.428767800331115723e-01 2.308221161365509033e-01
-9.583661705255508423e-02 -2.772117257118225098e-01 1.144332364201545715e-01
8.573392406105995178e-03 5.832337141036987305e-01 5.213567055761814117e-03
-5.966062098741531372e-02 -2.772212326526641846e-01 2.370325624942779541e-01
4.366013780236244202e-02 -2.772117257118225098e-01 6.410185247659683228e-02
6.848038733005523682e-02 6.148812174797058105e-01 2.496960908174514771e-01
1.796991564333438873e-02 5.157166719436645508e-01 3.107093647122383118e-02
-3.029754459857940674e-01 6.388505697250366211e-01 -1.469474583864212036e-01
2.366445958614349365e-01 6.596730947494506836e-01 1.642095893621444702e-01
5.467927455902099609e-02 7.883685231208801270e-01 4.022500012069940567e-03
-1.284831017255783081e-01 -6.765497922897338867e-01 4.662064090371131897e-02
2.689298093318939209e-01 -4.703596830368041992e-01 2.493325807154178619e-02
-1.550369560718536377e-01 -5.133693814277648926e-01 2.220635265111923218e-01
3.060717321932315826e-02 3.709717392921447754e-01 7.578015327453613281e-02
-2.100863158702850342e-01 -2.827870845794677734e-01 -9.674049168825149536e-02
1.276019262149930000e-03 3.614698052406311035e-01 1.451068967580795288e-01
-1.091300100088119507e-01 -3.097966909408569336e-01 -1.599869877099990845e-01
1.627472937107086182e-01 5.282077789306640625e-01 -2.309970371425151825e-02
-1.522193849086761475e-01 -2.887307107448577881e-01 -1.604609340429306030e-01
1.472813729196786880e-02 2.327593713998794556e-01 -9.813415817916393280e-03
-2.551905252039432526e-02 -4.062008261680603027e-01 2.163581848144531250e-01
-5.467654671519994736e-03 7.613978981971740723e-01 3.233919292688369751e-02
1.479948461055755615e-01 -6.131005883216857910e-01 -1.425244212150573730e-01
8.174189925193786621e-02 -3.176905810832977295e-01 -1.358166337013244629e-01
5.580621957778930664e-02 -6.765497922897338867e-01 1.475397795438766479e-01
2.919668853282928467e-01 2.731657326221466064e-01 3.473240137100219727e-02
5.120963603258132935e-02 -5.689905881881713867e-01 2.418021708726882935e-01
2.971892431378364563e-02 -3.910516202449798584e-01 -1.989617645740509033e-01
-3.421720564365386963e-01 2.196936011314392090e-01 -2.581387162208557129e-01
-1.857532188296318054e-02 4.727650284767150879e-01 -6.450429093092679977e-03
1.807501167058944702e-02 -6.765497922897338867e-01 6.598577648401260376e-02
4.041931033134460449e-02 -6.380671858787536621e-01 1.831545978784561157e-01
1.252774745225906372e-01 5.281765460968017578e-01 7.054372876882553101e-02
1.784649044275283813e-01 7.646244168281555176e-01 1.095275878906250000e-01
-5.392755940556526184e-02 -5.715741515159606934e-01 2.186645865440368652e-01
1.466900259256362915e-01 -2.836032509803771973e-01 -8.148389309644699097e-02
1.864060759544372559e-02 5.375546216964721680e-01 -4.680037871003150940e-02
2.942555397748947144e-02 7.108452916145324707e-01 -5.199028179049491882e-02
3.061058819293975830e-01 3.084010481834411621e-01 3.431908190250396729e-01
-7.190677523612976074e-02 7.094485759735107422e-01 -8.467566967010498047e-02
-2.495064586400985718e-01 -5.042130947113037109e-01 5.964119732379913330e-02
-1.974106729030609131e-01 -2.375958263874053955e-01 -1.183731183409690857e-01
-4.364071041345596313e-02 -4.275666475296020508e-01 -2.400029301643371582e-01
5.618302151560783386e-02 -3.183274269104003906e-01 5.980955064296722412e-02
4.379183053970336914e-02 7.335392236709594727e-01 2.716022208915092051e-05
-2.072176337242126465e-01 -3.980920612812042236e-01 -1.176522672176361084e-01
-8.003954589366912842e-02 -4.134796261787414551e-01 -2.130487859249114990e-01
-6.718308478593826294e-02 2.244798392057418823e-01 5.869976058602333069e-02
-3.447075560688972473e-02 6.451052427291870117e-01 5.933050438761711121e-02
-4.902902618050575256e-02 4.281386435031890869e-01 -1.378757134079933167e-02
-1.127732843160629272e-01 -3.544889092445373535e-01 1.715602576732635498e-01
-3.690356016159057617e-02 5.108855366706848145e-01 3.348927199840545654e-02
1.519153714179992676e-01 -6.527771353721618652e-01 7.277716696262359619e-02
3.524802997708320618e-02 4.516981840133666992e-01 2.842057682573795319e-02
-3.425610661506652832e-01 3.297729194164276123e-01 -2.448886483907699585e-01
2.361628860235214233e-01 4.771499335765838623e-01 -1.481673717498779297e-01
1.269938498735427856e-01 -2.637805938720703125e-01 -1.742949634790420532e-01
2.193553000688552856e-01 -3.702974915504455566e-01 2.797636203467845917e-02
-1.191336289048194885e-01 -3.967725634574890137e-01 -2.029775977134704590e-01
7.965556532144546509e-02 2.279074788093566895e-01 6.484289467334747314e-02
-9.599681198596954346e-02 5.506703853607177734e-01 -5.034210160374641418e-02
2.145934998989105225e-01 6.155613064765930176e-01 1.409766972064971924e-01
-1.538984924554824829e-01 -3.863842487335205078e-01 -1.957187801599502563e-01
-1.571111679077148438e-01 -4.590469300746917725e-01 -2.076727002859115601e-01
-2.107846587896347046e-01 -4.593648910522460938e-01 -1.535010188817977905e-01
-1.791423410177230835e-01 -5.717933773994445801e-01 1.858942061662673950e-01
3.007081151008605957e-01 4.686703681945800781e-01 -1.573037058115005493e-01
1.279243677854537964e-01 -2.415137290954589844e-01 2.028759121894836426e-01
-8.670270442962646484e-02 -6.765497922897338867e-01 9.713787585496902466e-02
-1.013868674635887146e-01 -2.809719443321228027e-01 -1.066531389951705933e-01
1.186069548130035400e-01 -6.211209297180175781e-01 -1.064945831894874573e-01
3.000782430171966553e-01 3.373384177684783936e-01 3.258954584598541260e-01
-9.870531409978866577e-02 -6.765497922897338867e-01 -7.738722860813140869e-02
2.150180488824844360e-01 6.272354125976562500e-01 -2.160777747631072998e-01
1.103326901793479919e-01 -5.024828314781188965e-01 -2.313041388988494873e-01
-1.326488256454467773e-01 -6.624003648757934570e-01 -1.011713370680809021e-01
2.322172224521636963e-01 -5.598698258399963379e-01 -5.885956436395645142e-02
1.410756707191467285e-01 -2.658192217350006104e-01 1.457099169492721558e-01
1.309412270784378052e-01 2.136533111333847046e-01 -9.695882350206375122e-02
5.885608494281768799e-02 -6.765497922897338867e-01 -1.816885545849800110e-02
1.782058477401733398e-01 -4.850488901138305664e-01 -1.392173022031784058e-01
-1.687808930873870850e-01 -3.846669793128967285e-01 1.745329201221466064e-01
1.818837821483612061e-01 6.116390824317932129e-01 -1.904786974191665649e-01
-1.225854232907295227e-01 6.117733716964721680e-01 7.672800868749618530e-02
5.343120545148849487e-02 -2.357234805822372437e-01 9.676790982484817505e-02
6.170503050088882446e-02 -3.035143315792083740e-01 1.929277479648590088e-01
-1.529255062341690063e-01 3.692692518234252930e-01 -1.096743196249008179e-01
6.007712334394454956e-02 -4.398671388626098633e-01 2.511889040470123291e-01
1.929102279245853424e-02 3.458241224288940430e-01 1.544186379760503769e-02
-2.120565474033355713e-01 3.490592837333679199e-01 -6.218923255801200867e-03
-5.587777122855186462e-02 -5.232560038566589355e-01 2.550288438796997070e-01
-9.890025854110717773e-02 -4.621486663818359375e-01 2.363125681877136230e-01
-1.283643990755081177e-01 -2.932923734188079834e-01 -1.889364868402481079e-01
-9.414502978324890137e-02 6.611849665641784668e-01 -4.745096713304519653e-02
-2.396007329225540161e-01 -5.957774519920349121e-01 1.315613160841166973e-03
1.337423473596572876e-01 -6.760213375091552734e-01 -1.324428170919418335e-01
3.815563023090362549e-02 5.795765519142150879e-01 1.055647432804107666e-02
1.486022174358367920e-01 -5.332362055778503418e-01 1.875984370708465576e-01
-7.660386711359024048e-02 -2.772117257118225098e-01 3.975812345743179321e-02
-8.389448374509811401e-02 -6.752215623855590820e-01 1.654312312602996826e-01
1.185913607478141785e-01 5.415401458740234375e-01 -5.801523849368095398e-02
-6.289564073085784912e-02 3.240554332733154297e-01 -2.380288578569889069e-02
2.283252775669097900e-01 -6.154286265373229980e-01 5.960780195891857147e-03
-8.620070666074752808e-02 -2.418247610330581665e-01 2.233951985836029053e-01
1.261785477399826050e-01 -5.832291841506958008e-01 1.822500675916671753e-01
-8.958483487367630005e-02 8.503223657608032227e-01 1.837065070867538452e-01
3.174650669097900391e-02 -6.857139617204666138e-02 1.996463164687156677e-02
-5.348750576376914978e-02 -4.339390993118286133e-01 2.289264053106307983e-01
-9.654127061367034912e-02 -2.615556418895721436e-01 -2.366065979003906250e-01
1.857553794980049133e-02 -2.948536276817321777e-01 1.996589303016662598e-01
2.181154638528823853e-01 -4.362021684646606445e-01 -9.274978190660476685e-02
1.567894034087657928e-02 7.065868377685546875e-01 4.488985054194927216e-03
-8.804183453321456909e-02 -2.639417052268981934e-01 -2.043404728174209595e-01
1.862349063158035278e-01 -4.575099050998687744e-01 1.644539237022399902e-01
4.329320415854454041e-02 6.807044148445129395e-01 1.082167178392410278e-01
-1.799056529998779297e-01 -5.043274760246276855e-01 -1.731755435466766357e-01
-1.515945885330438614e-02 5.494002103805541992e-01 1.297492254525423050e-02
1.352403759956359863e-01 3.517477810382843018e-01 1.245356202125549316e-01
4.551954567432403564e-02 5.728202462196350098e-01 -6.998596340417861938e-02
-2.439379990100860596e-01 -4.542140960693359375e-01 1.010194048285484314e-01
-5.062900949269533157e-03 4.739771187305450439e-01 3.809114545583724976e-02
-2.200916707515716553e-01 -4.888853430747985840e-01 -1.050000190734863281e-01
-1.008115708827972412e-01 -1.655153334140777588e-01 -4.424922168254852295e-02
-1.663272082805633545e-01 -5.300461053848266602e-01 -2.276686728000640869e-01
-9.530801326036453247e-02 -5.693137645721435547e-01 -2.346372455358505249e-01
1.463335193693637848e-02 -6.765497922897338867e-01 3.211799636483192444e-02
1.022317185997962952e-01 7.696383595466613770e-01 -5.724309757351875305e-02
-2.643229961395263672e-01 -4.834416806697845459e-01 -2.767584286630153656e-02
-5.849477648735046387e-02 3.067297339439392090e-01 -7.832025736570358276e-02
1.788686662912368774e-01 -5.468294024467468262e-01 1.267016530036926270e-01
-1.566580235958099365e-01 -4.038866460323333740e-01 2.181023061275482178e-01
1.542347669601440430e-01 5.967783331871032715e-01 -1.713742762804031372e-01
2.467275410890579224e-02 -1.352898031473159790e-02 -3.227563574910163879e-02
-1.009987145662307739e-01 -2.471281141042709351e-01 7.097736746072769165e-02
-2.255734652280807495e-01 2.934666872024536133e-01 -1.717087179422378540e-01
5.051433667540550232e-02 2.547102570533752441e-01 -2.170013636350631714e-01
7.495163381099700928e-02 -5.161981582641601562e-01 -2.301067560911178589e-01
-5.276283621788024902e-02 -3.183274269104003906e-01 -6.629937887191772461e-02
1.225066855549812317e-01 -3.660451769828796387e-01 -1.806293129920959473e-01
2.895249426364898682e-02 2.175270617008209229e-01 -4.470252618193626404e-02
8.611641824245452881e-02 2.721520066261291504e-01 4.718979075551033020e-02
2.035233229398727417e-01 -3.843620419502258301e-01 -6.909685581922531128e-02
-2.613957785069942474e-02 -3.644829988479614258e-01 2.096296250820159912e-01
-1.856517046689987183e-01 -6.757968664169311523e-01 8.441172540187835693e-02
3.804215230047702789e-03 8.918278813362121582e-01 -7.186166942119598389e-02
1.092895343899726868e-01 6.126467585563659668e-01 -1.759693399071693420e-02
2.222473919391632080e-01 2.502057552337646484e-01 2.378855086863040924e-02
1.088689174503087997e-02 3.074324131011962891e-01 -5.893451347947120667e-02
3.268691152334213257e-02 -4.808077514171600342e-01 -2.313673794269561768e-01
1.081233471632003784e-01 -1.972027271986007690e-01 -2.120858058333396912e-02
-2.237747907638549805e-01 -5.516431927680969238e-01 -1.169755980372428894e-01
1.180619746446609497e-01 -6.736221909523010254e-01 -9.580909460783004761e-02
1.318817492574453354e-02 6.740997433662414551e-01 -1.291942410171031952e-02
-1.441565304994583130e-01 -3.633003830909729004e-01 1.279596835374832153e-01
1.488851290196180344e-02 6.424106955528259277e-01 -4.050327837467193604e-02
7.636492699384689331e-02 2.986253201961517334e-01 -3.531258925795555115e-02
-2.948926985263824463e-01 -5.050716996192932129e-01 1.869880221784114838e-02
-6.603309512138366699e-02 1.893795877695083618e-01 -5.410407483577728271e-02
6.260635703802108765e-02 -2.510971426963806152e-01 2.419451475143432617e-01
-2.048151800408959389e-03 3.692744672298431396e-01 2.023196816444396973e-01
7.584594935178756714e-02 -2.772117257118225098e-01 -1.038780137896537781e-01
1.095780432224273682e-01 -6.227923035621643066e-01 1.976228505373001099e-01
-6.389184296131134033e-02 -6.297530531883239746e-01 1.922458857297897339e-01
5.987579468637704849e-03 -2.772117257118225098e-01 -3.470315784215927124e-02
-1.802348792552947998e-01 -4.838280975818634033e-01 2.181534022092819214e-01
1.519353091716766357e-01 5.427894592285156250e-01 -1.616089195013046265e-01
6.798271834850311279e-02 -6.451621651649475098e-01 -1.538796424865722656e-01
-2.284707874059677124e-01 -5.263508558273315430e-01 8.984621614217758179e-02
-2.262787520885467529e-01 -5.911698937416076660e-01 -7.704576849937438965e-02
-1.120602525770664215e-02 2.079582810401916504e-01 1.415831386111676693e-03
-3.837958350777626038e-02 2.627384662628173828e-01 -2.358420379459857941e-02
1.834095269441604614e-01 -2.995149493217468262e-01 5.104282125830650330e-02
-2.612623386085033417e-02 2.908345162868499756e-01 -6.540623493492603302e-03
1.036474406719207764e-01 -6.736351847648620605e-01 1.277855336666107178e-01
-4.053764790296554565e-02 2.771226465702056885e-01 2.477747574448585510e-02
2.052457630634307861e-01 3.822758793830871582e-01 1.610285043716430664e-02
1.098211016505956650e-02 2.778287827968597412e-01 1.113808155059814453e-02
-1.442551985383033752e-02 -6.765497922897338867e-01 -2.311486564576625824e-02
-2.087373137474060059e-01 -4.856224060058593750e-01 1.690216660499572754e-01
1.793850511312484741e-01 -2.841933071613311768e-01 -9.696143120527267456e-02
8.905183523893356323e-02 -2.795137763023376465e-01 -2.274451404809951782e-01
2.491712123155593872e-01 -2.732028365135192871e-01 -1.916124485433101654e-02
-3.698300942778587341e-02 -2.622573971748352051e-01 2.177522778511047363e-01
-1.478777825832366943e-01 -5.476889014244079590e-01 -2.106132954359054565e-01
1.405124962329864502e-01 -3.945398032665252686e-01 -1.917583942413330078e-01
-2.924060821533203125e-01 3.040906786918640137e-01 2.300587892532348633e-01
6.893014162778854370e-02 -4.813510477542877197e-01 2.572953999042510986e-01
1.957576721906661987e-01 -2.887272238731384277e-01 -4.723314940929412842e-02
-4.998249001801013947e-03 8.378035426139831543e-01 2.127664349973201752e-02
-1.695650070905685425e-01 -4.092471599578857422e-01 -1.505257487297058105e-01
2.089800089597702026e-01 -5.927432775497436523e-01 7.396952062845230103e-02
1.065083518624305725e-01 -2.772117257118225098e-01 7.539764046669006348e-02
-6.011254340410232544e-02 2.042994052171707153e-01 2.971360832452774048e-02
-2.222858369350433350e-02 -7.863652706146240234e-02 3.768808767199516296e-02
1.858918070793151855e-01 4.565648436546325684e-01 -2.977663837373256683e-02
6.084555014967918396e-02 8.824359774589538574e-01 -1.392411906272172928e-02
2.018511593341827393e-01 -4.434635937213897705e-01 9.238126128911972046e-02
1.832343288697302341e-03 2.046089768409729004e-01 -3.064547851681709290e-02
3.356666862964630127e-02 4.211224019527435303e-01 -1.899779657833278179e-03
-9.601561725139617920e-02 -6.403666138648986816e-01 -1.747602224349975586e-01
2.019438594579696655e-01 5.449277758598327637e-01 1.425336301326751709e-01
-1.682497709989547729e-01 6.342707276344299316e-01 -2.203578501939773560e-01
1.193364784121513367e-01 5.567682385444641113e-01 7.459542900323867798e-02
9.599746204912662506e-03 8.625482916831970215e-01 3.888390958309173584e-02
3.770934417843818665e-02 2.364784628152847290e-01 -8.575695753097534180e-02
3.174875676631927490e-02 6.966932415962219238e-01 -1.999256946146488190e-02
2.220758348703384399e-01 -4.480096697807312012e-01 -5.290608108043670654e-02
-1.454899460077285767e-01 -2.611865401268005371e-01 2.436485141515731812e-01
-5.425142496824264526e-02 5.418390631675720215e-01 -3.091445658355951309e-03
-2.188241034746170044e-01 -2.648289203643798828e-01 -4.665888845920562744e-02
-1.196274831891059875e-01 -2.720600366592407227e-01 1.949612349271774292e-01
4.281399399042129517e-02 4.994739592075347900e-01 -1.724811643362045288e-02
1.950688660144805908e-01 -3.467570245265960693e-01 2.721851132810115814e-02
-1.718869805335998535e-01 -3.727936446666717529e-01 -8.980051428079605103e-02
3.095495142042636871e-02 4.934004247188568115e-01 -4.944718256592750549e-02
3.391800075769424438e-02 9.358382821083068848e-01 1.153356488794088364e-02
4.639453813433647156e-02 6.831381916999816895e-01 1.384277045726776123e-01
2.183597832918167114e-01 -5.629966855049133301e-01 8.771050721406936646e-02
-1.397456228733062744e-01 -3.519321680068969727e-01 -1.152488365769386292e-01
-9.374474734067916870e-02 -4.868623018264770508e-01 -2.506572306156158447e-01
-2.630355060100555420e-01 2.233159840106964111e-01 2.054145038127899170e-01
-1.939614862203598022e-01 -4.262540042400360107e-01 -1.250245869159698486e-01
1.453349590301513672e-01 7.947444319725036621e-01 7.885913550853729248e-02
-1.525737494230270386e-01 -4.169825017452239990e-01 1.947983354330062866e-01
1.607276648283004761e-01 -3.727373480796813965e-01 -7.119270414113998413e-02
-1.596636176109313965e-01 -2.384067624807357788e-01 -1.913832426071166992e-01
-1.089298725128173828e-01 6.382657289505004883e-01 2.062696665525436401e-01
-1.562066227197647095e-01 -5.053507089614868164e-01 -2.140884846448898315e-01
2.591930329799652100e-01 -4.776349663734436035e-01 -3.575203940272331238e-02
1.178185194730758667e-01 -5.784188508987426758e-01 -1.964812129735946655e-01
-3.393052145838737488e-03 -2.772117257118225098e-01 -1.282173097133636475e-01
1.102191954851150513e-01 7.082902193069458008e-01 3.823141381144523621e-02
3.709401562809944153e-02 5.704774856567382812e-01 -1.439362764358520508e-02
-1.356414109468460083e-01 -3.058544993400573730e-01 4.557730630040168762e-02
-2.594537436962127686e-01 5.389547348022460938e-01 -1.263319998979568481e-01
1.207088753581047058e-01 7.599943280220031738e-01 -1.341124027967453003e-01
-1.048603206872940063e-01 -6.013745069503784180e-01 2.231170833110809326e-01
-4.578958824276924133e-02 -2.628760337829589844e-01 -2.075981795787811279e-01
1.135284919291734695e-02 2.175588458776473999e-01 3.425202071666717529e-01
1.873205304145812988e-01 -6.048670411109924316e-01 -3.411217406392097473e-02
2.524211406707763672e-01 -2.651780843734741211e-01 2.676554955542087555e-02
1.060196831822395325e-01 5.654730796813964844e-01 -1.380944401025772095e-01
2.057560831308364868e-01 -4.813016057014465332e-01 -1.287891566753387451e-01
2.020270377397537231e-01 -4.746571183204650879e-01 -9.659319370985031128e-02
-2.488734759390354156e-02 4.803322851657867432e-01 -3.280778601765632629e-02
-7.200311869382858276e-02 4.956210553646087646e-01 -1.673034764826297760e-02
