-6.261560320854187012e-01 -3.303690254688262939e-01 1.536393463611602783e-01
-6.261560320854187012e-01 -2.495027333498001099e-01 -9.290271997451782227e-02
-6.261560320854187012e-01 4.971340596675872803e-01 -2.544682286679744720e-02
1.850042939186096191e-01 6.724032759666442871e-01 -5.928790569305419922e-02
-5.573377609252929688e-01 -3.464710116386413574e-01 -5.679341778159141541e-02
5.097404718399047852e-01 -5.123555660247802734e-01 3.492100834846496582e-01
-3.681668639183044434e-01 4.326571524143218994e-01 -1.695781946182250977e-01
-1.926520168781280518e-01 6.522629261016845703e-01 5.799715593457221985e-02
-2.583465278148651123e-01 6.724032759666442871e-01 -7.262934744358062744e-02
2.023928463459014893e-01 -3.789061009883880615e-01 2.812298536300659180e-01
-6.261560320854187012e-01 -1.720640361309051514e-01 1.061711087822914124e-01
5.339075326919555664e-01 -4.502177834510803223e-01 -2.750611305236816406e-01
1.021717488765716553e-01 4.347069561481475830e-01 -2.096714973449707031e-01
-3.905822634696960449e-01 6.724032759666442871e-01 -8.690100908279418945e-02
-5.294848680496215820e-01 -4.434470534324645996e-01 1.820730566978454590e-01
6.066449359059333801e-02 -2.357165515422821045e-01 -5.679341778159141541e-02
-6.261560320854187012e-01 1.916012316942214966e-01 2.681272625923156738e-01
3.892508745193481445e-01 6.724032759666442871e-01 3.063552677631378174e-01
-6.019889116287231445e-01 -5.752565264701843262e-01 -1.608062386512756348e-01
-3.034074008464813232e-01 -3.809189498424530029e-01 2.095666341483592987e-02
6.064126491546630859e-01 -6.781070828437805176e-01 -8.874881314113736153e-04
-4.641864597797393799e-01 -3.589269220829010010e-01 -3.099761009216308594e-01
6.179363727569580078e-01 -6.499133110046386719e-01 4.064258933067321777e-01
2.056709229946136475e-01 -3.589269220829010010e-01 -3.099751472473144531e-01
6.064126491546630859e-01 4.472346901893615723e-01 8.538296073675155640e-02
-5.033019781112670898e-01 -4.922987222671508789e-01 -1.787346601486206055e-01
-2.410657703876495361e-01 6.522629261016845703e-01 3.253479301929473877e-01
3.316398859024047852e-01 3.004243373870849609e-01 -1.695781946182250977e-01
-4.026381075382232666e-01 -3.789061009883880615e-01 -9.271824359893798828e-02
-9.863943606615066528e-02 -4.997161328792572021e-01 -2.984737157821655273e-01
-1.678353548049926758e-01 -3.809189498424530029e-01 -1.265884004533290863e-02
-5.372828841209411621e-01 -6.810064315795898438e-01 -3.954274579882621765e-02
6.296417117118835449e-01 -2.615343034267425537e-01 4.064258933067321777e-01
6.305806636810302734e-01 3.596939891576766968e-02 4.108060523867607117e-02
-6.019889116287231445e-01 3.472971022129058838e-01 1.473837345838546753e-01
-4.250631928443908691e-01 5.024725794792175293e-01 -5.679341778159141541e-02
-6.261560320854187012e-01 3.652867078781127930e-01 2.532613575458526611e-01
2.874800562858581543e-01 5.901396870613098145e-01 -5.679341778159141541e-02
5.079188942909240723e-01 6.724032759666442871e-01 1.051886975765228271e-01
6.305806636810302734e-01 -5.417077541351318359e-01 7.081515341997146606e-02
-6.019889116287231445e-01 -4.810905158519744873e-01 -7.547241449356079102e-02
5.339075326919555664e-01 -3.653898537158966064e-01 2.343473583459854126e-01
-2.040835171937942505e-01 5.653482675552368164e-01 -7.290607690811157227e-02
1.752098798751831055e-01 4.942307770252227783e-01 -1.695781946182250977e-01
6.305806636810302734e-01 6.402516961097717285e-01 -1.936452388763427734e-01
-1.209897696971893311e-01 -1.175106987357139587e-01 -7.293812930583953857e-02
-5.265262126922607422e-01 -3.587657511234283447e-01 4.022020697593688965e-01
-7.315965369343757629e-03 -5.954289436340332031e-01 -2.743057012557983398e-01
-1.808020174503326416e-01 5.299313068389892578e-01 -1.695781946182250977e-01
3.896392583847045898e-01 -3.809189498424530029e-01 -4.099922999739646912e-02
-5.053158402442932129e-01 -5.103970766067504883e-01 3.680182397365570068e-01
6.064126491546630859e-01 5.761758685111999512e-01 2.265260070562362671e-01
6.064126491546630859e-01 -3.385651707649230957e-01 1.361629217863082886e-01
-7.483086735010147095e-02 -3.587657511234283447e-01 -1.369974911212921143e-01
-2.315956652164459229e-01 -3.846475780010223389e-01 -3.241118490695953369e-01
6.305806636810302734e-01 2.001265585422515869e-01 2.930196523666381836e-01
8.580880239605903625e-03 4.143578410148620605e-01 -5.679341778159141541e-02
2.853508852422237396e-02 -3.809189498424530029e-01 1.278507262468338013e-01
-5.053158402442932129e-01 -6.776264309883117676e-01 1.667902022600173950e-01
-4.247709214687347412e-01 -3.809189498424530029e-01 2.124310731887817383e-01
4.988245964050292969e-01 -2.118291407823562622e-01 -2.177793085575103760e-01
-4.023283720016479492e-01 -1.284610945731401443e-02 -5.679341778159141541e-02
-1.374174142256379128e-03 6.378164887428283691e-01 -1.937462389469146729e-01
4.778783023357391357e-01 -3.014254383742809296e-02 -1.937462389469146729e-01
5.518388748168945312e-01 4.571786522865295410e-01 -7.290607690811157227e-02
6.305806636810302734e-01 -5.620508268475532532e-02 3.050279319286346436e-01
-6.019889116287231445e-01 -2.660475075244903564e-01 2.535710930824279785e-01
-3.243973851203918457e-01 -2.134225368499755859e-01 -5.679341778159141541e-02
3.437277674674987793e-01 4.749148190021514893e-01 -5.679341778159141541e-02
4.493961632251739502e-01 -5.614664554595947266e-01 -2.743057012557983398e-01
-5.983884930610656738e-01 -1.415932923555374146e-01 -7.290607690811157227e-02
-4.156193137168884277e-01 -4.393261671066284180e-01 -2.938770353794097900e-01
-6.261560320854187012e-01 1.905185729265213013e-01 -1.038448512554168701e-01
-5.767149329185485840e-01 8.553173393011093140e-02 -7.290607690811157227e-02
-1.198711916804313660e-01 -3.789061009883880615e-01 -4.802145436406135559e-02
-2.937829196453094482e-01 -5.398870706558227539e-01 4.044120311737060547e-01
3.385067582130432129e-01 -4.542668163776397705e-01 -2.743057012557983398e-01
-9.625833481550216675e-03 -3.809189498424530029e-01 3.156001269817352295e-01
6.064126491546630859e-01 -5.416232347488403320e-01 -1.504243761301040649e-01
-3.706283271312713623e-01 3.441617786884307861e-01 -5.679341778159141541e-02
6.305806636810302734e-01 -6.625333428382873535e-01 -1.701656430959701538e-01
9.200265631079673767e-03 5.673769488930702209e-02 -7.290607690811157227e-02
-6.051427125930786133e-01 2.970443069934844971e-01 -1.937462389469146729e-01
4.407283291220664978e-02 6.522629261016845703e-01 2.774138450622558594e-01
-2.783208191394805908e-01 -3.587657511234283447e-01 -1.069326102733612061e-01
1.779538989067077637e-01 2.549896240234375000e-01 -7.293812930583953857e-02
6.064126491546630859e-01 3.591607213020324707e-01 -1.474094539880752563e-01
-5.053158402442932129e-01 -5.476706027984619141e-01 1.272651255130767822e-01
6.305806636810302734e-01 -5.799173116683959961e-01 1.463077664375305176e-01
6.064126491546630859e-01 -3.296407759189605713e-01 2.520359456539154053e-01
-4.972293674945831299e-01 -2.105882018804550171e-01 -2.179132848978042603e-01
-2.442018315196037292e-02 6.724032759666442871e-01 4.022690653800964355e-01
-4.545620083808898926e-01 -5.092627555131912231e-02 -1.695781946182250977e-01
-5.361322760581970215e-01 3.843182027339935303e-01 -1.695781946182250977e-01
6.305806636810302734e-01 2.308954000473022461e-01 1.315641105175018311e-01
4.202867448329925537e-01 -3.789061009883880615e-01 1.466031372547149658e-01
-2.073732465505599976e-01 -5.208797007799148560e-02 -5.679341778159141541e-02
1.408648639917373657e-01 -3.587657511234283447e-01 -2.362514734268188477e-01
6.064126491546630859e-01 4.669439196586608887e-01 2.544323801994323730e-01
6.064126491546630859e-01 -1.540909409523010254e-01 9.261191636323928833e-02
-1.485989987850189209e-01 6.724032759666442871e-01 1.159366569481790066e-03
5.339075326919555664e-01 -4.467795193195343018e-01 3.892965912818908691e-01
-1.601710729300975800e-02 6.724032759666442871e-01 7.868232578039169312e-02
5.330802798271179199e-01 2.423113733530044556e-01 -5.679341778159141541e-02
-4.294132590293884277e-01 -5.735174417495727539e-01 -2.743707597255706787e-01
5.097404718399047852e-01 -5.056226849555969238e-01 -1.683761179447174072e-01
-5.294848680496215820e-01 -4.136394858360290527e-01 -7.649778574705123901e-02
-6.019889116287231445e-01 1.059285253286361694e-01 3.273578882217407227e-01
-6.405322253704071045e-02 6.144835352897644043e-01 -7.290607690811157227e-02
1.961056739091873169e-01 -1.008969992399215698e-01 -5.679341778159141541e-02
-3.182937204837799072e-01 -5.875706672668457031e-01 -2.743057012557983398e-01
-5.684682726860046387e-01 -4.071998596191406250e-01 -1.937462389469146729e-01
-5.053158402442932129e-01 -4.268333613872528076e-01 2.443787008523941040e-01
3.912093639373779297e-01 -3.809189498424530029e-01 7.151814550161361694e-02
-2.531371116638183594e-01 6.724032759666442871e-01 2.244490534067153931e-01
-5.294848680496215820e-01 -5.105067491531372070e-01 -1.242968812584877014e-02
5.477179884910583496e-01 7.330565899610519409e-02 -1.937462389469146729e-01
1.825350522994995117e-01 6.724032759666442871e-01 2.874131202697753906e-01
5.097404718399047852e-01 -5.506525039672851562e-01 1.589445620775222778e-01
-5.568144321441650391e-01 6.724032759666442871e-01 2.747873067855834961e-01
2.309633642435073853e-01 -5.004123449325561523e-01 -2.743057012557983398e-01
-2.744504511356353760e-01 3.924065828323364258e-01 -1.937462389469146729e-01
3.297707140445709229e-01 -4.487234354019165039e-01 4.064258933067321777e-01
-6.019889116287231445e-01 -4.154319465160369873e-01 8.814010024070739746e-02
7.822792232036590576e-02 -3.587657511234283447e-01 -1.263058781623840332e-01
6.305806636810302734e-01 -3.533058464527130127e-01 4.050111472606658936e-01
-3.233096376061439514e-02 -4.858124554157257080e-01 4.044120311737060547e-01
-6.113240718841552734e-01 -6.790440678596496582e-01 4.064258933067321777e-01
3.694027662277221680e-01 -2.862091958522796631e-01 -5.679341778159141541e-02
5.620420575141906738e-01 6.724032759666442871e-01 -1.082211211323738098e-01
3.310378491878509521e-01 5.196416974067687988e-01 -1.937462389469146729e-01
6.064126491546630859e-01 -2.808726131916046143e-01 -1.022990345954895020e-01
-5.745049118995666504e-01 -3.589269220829010010e-01 -2.346241027116775513e-01
-4.558543860912322998e-01 -3.809189498424530029e-01 3.261596560478210449e-01
-3.141660392284393311e-01 -4.311290383338928223e-01 4.044120311737060547e-01
5.342202186584472656e-01 6.872799713164567947e-03 -5.679341778159141541e-02
-2.268067151308059692e-01 -3.085993528366088867e-01 -5.679341778159141541e-02
-2.303265631198883057e-01 -3.809189498424530029e-01 2.649744451045989990e-01
-6.019889116287231445e-01 -6.803151369094848633e-01 4.700968414545059204e-02
1.254581212997436523e-01 -4.202907979488372803e-01 4.044120311737060547e-01
-4.205548763275146484e-01 -3.789061009883880615e-01 -2.247985899448394775e-01
-8.311907202005386353e-02 6.724032759666442871e-01 2.491336613893508911e-01
2.370174974203109741e-01 -3.809189498424530029e-01 -1.071627363562583923e-01
5.108804702758789062e-01 3.982966244220733643e-01 -1.937462389469146729e-01
2.294389158487319946e-01 -5.985215306282043457e-01 -2.984737157821655273e-01
5.097404718399047852e-01 -4.450375437736511230e-01 3.507588058710098267e-02
-6.019889116287231445e-01 6.105334758758544922e-01 2.008431404829025269e-01
-4.105167388916015625e-01 6.078885197639465332e-01 -7.290607690811157227e-02
-5.053158402442932129e-01 -5.789676904678344727e-01 -2.374371327459812164e-02
-6.019889116287231445e-01 8.173893392086029053e-02 -6.469732616096735001e-03
3.777642548084259033e-02 -4.144327938556671143e-01 -2.984737157821655273e-01
-1.842759922146797180e-02 -1.948600560426712036e-01 -7.290607690811157227e-02
-4.066056013107299805e-01 6.724032759666442871e-01 -1.372208259999752045e-02
-6.019889116287231445e-01 2.427065670490264893e-01 -1.141286417841911316e-01
6.305806636810302734e-01 -1.174679771065711975e-01 4.045547842979431152e-01
4.634658694267272949e-01 5.251054763793945312e-01 -1.937462389469146729e-01
6.305806636810302734e-01 2.467410117387771606e-01 -1.991993561387062073e-02
-6.261560320854187012e-01 -1.672313958406448364e-01 -1.292343884706497192e-01
8.536569774150848389e-02 5.226148962974548340e-01 -2.206699401140213013e-01
6.064126491546630859e-01 6.600308418273925781e-01 4.109248984605073929e-03
4.236046075820922852e-01 2.803296446800231934e-01 -7.290607690811157227e-02
1.840255260467529297e-01 -3.809189498424530029e-01 1.215105280280113220e-01
4.571301043033599854e-01 -3.809189498424530029e-01 3.338004052639007568e-01
4.272778928279876709e-01 -3.587657511234283447e-01 -2.341347038745880127e-01
6.305806636810302734e-01 6.343286633491516113e-01 2.843409180641174316e-01
-1.107050031423568726e-01 -4.135744273662567139e-01 4.064258933067321777e-01
2.571704983711242676e-01 4.732874333858489990e-01 -2.166684716939926147e-01
4.802475273609161377e-01 1.326735764741897583e-01 -2.162927091121673584e-01
-2.830223739147186279e-01 6.680677533149719238e-01 -1.695781946182250977e-01
2.562548518180847168e-01 6.724032759666442871e-01 -2.719754120334982872e-03
-2.575619518756866455e-01 -1.843985766172409058e-01 -7.290607690811157227e-02
6.305806636810302734e-01 1.423776745796203613e-01 -1.652378737926483154e-01
-6.019889116287231445e-01 -2.265202701091766357e-01 3.147582411766052246e-01
-6.261560320854187012e-01 4.916101098060607910e-01 3.244070410728454590e-01
-5.388277173042297363e-01 6.724032759666442871e-01 1.086462810635566711e-01
2.244237214326858521e-01 6.522629261016845703e-01 -1.150782853364944458e-01
6.064126491546630859e-01 -4.714194238185882568e-01 3.077913820743560791e-01
4.733690321445465088e-01 -3.106490969657897949e-01 -1.695781946182250977e-01
-1.968418508768081665e-01 -3.809189498424530029e-01 -2.391935884952545166e-01
5.339075326919555664e-01 -4.477514624595642090e-01 3.025150001049041748e-01
5.193076729774475098e-01 -4.081873595714569092e-01 -2.743057012557983398e-01
5.787868499755859375e-01 -3.856156468391418457e-01 -1.695781946182250977e-01
6.064126491546630859e-01 3.969867527484893799e-01 3.089381158351898193e-01
5.097404718399047852e-01 -5.929781198501586914e-01 3.232845664024353027e-01
3.702174723148345947e-01 1.347223669290542603e-01 -5.679341778159141541e-02
5.339075326919555664e-01 -6.576482057571411133e-01 8.524357341229915619e-03
4.697938263416290283e-01 2.539574503898620605e-01 -1.937462389469146729e-01
-1.062588244676589966e-01 6.724032759666442871e-01 1.177615225315093994e-01
-6.159624457359313965e-01 -3.309758901596069336e-01 -1.937462389469146729e-01
5.467712879180908203e-01 -2.407336831092834473e-01 -5.679341778159141541e-02
-6.019889116287231445e-01 1.708676069974899292e-01 5.193718895316123962e-02
2.065690904855728149e-01 6.522629261016845703e-01 1.582954525947570801e-01
-4.837675392627716064e-01 -1.423283219337463379e-01 -7.290607690811157227e-02
1.916303634643554688e-01 4.186816811561584473e-01 -1.695781946182250977e-01
5.097404718399047852e-01 -5.693508982658386230e-01 7.979623042047023773e-03
-1.568155586719512939e-01 3.161204755306243896e-01 -7.290607690811157227e-02
-5.053158402442932129e-01 -6.785517930984497070e-01 -1.008289456367492676e-01
5.339075326919555664e-01 -6.517863273620605469e-01 -2.151129394769668579e-01
-6.261560320854187012e-01 -1.169397532939910889e-01 1.607320755720138550e-01
6.305806636810302734e-01 -2.389557957649230957e-01 2.806259095668792725e-01
-5.803658962249755859e-01 1.248473674058914185e-01 -1.695781946182250977e-01
-3.826249539852142334e-01 6.724032759666442871e-01 1.090977713465690613e-01
-5.505738258361816406e-01 6.522629261016845703e-01 -1.134732291102409363e-01
-4.624153971672058105e-01 6.522629261016845703e-01 2.531700730323791504e-01
3.051385581493377686e-01 -3.809189498424530029e-01 3.357025682926177979e-01
-4.723292291164398193e-01 -4.402369558811187744e-01 4.064258933067321777e-01
6.064126491546630859e-01 2.673241496086120605e-01 2.154566794633865356e-01
-6.051320433616638184e-01 3.142473995685577393e-01 4.064258933067321777e-01
-5.053158402442932129e-01 -5.707501173019409180e-01 -1.510302722454071045e-01
5.097404718399047852e-01 -6.010897755622863770e-01 -1.449130177497863770e-01
4.283654093742370605e-01 -7.273089885711669922e-02 -1.695781946182250977e-01
-4.519150853157043457e-01 2.350852340459823608e-01 -5.679341778159141541e-02
6.305806636810302734e-01 -2.502785623073577881e-01 -1.658796817064285278e-01
-3.904538229107856750e-02 -4.139220714569091797e-01 -2.722918391227722168e-01
3.516481816768646240e-01 6.724032759666442871e-01 5.434262752532958984e-02
-6.019889116287231445e-01 -5.950500443577766418e-02 -5.585251748561859131e-02
2.938138544559478760e-01 -1.721902638673782349e-01 -5.679341778159141541e-02
6.064126491546630859e-01 3.416294455528259277e-01 3.870584666728973389e-01
3.087787926197052002e-01 -3.809189498424530029e-01 2.122698873281478882e-01
3.127356171607971191e-01 6.362017393112182617e-01 -1.937462389469146729e-01
2.887821793556213379e-01 3.190703392028808594e-01 -7.290607690811157227e-02
-4.798524975776672363e-01 -6.810064315795898438e-01 -2.908300459384918213e-01
3.713535070419311523e-01 -5.346699357032775879e-01 -2.984737157821655273e-01
-6.019889116287231445e-01 5.012831091880798340e-01 8.208673447370529175e-02
-3.624681234359741211e-01 1.512690633535385132e-01 -5.679341778159141541e-02
3.197947442531585693e-01 -3.809189498424530029e-01 -9.787712246179580688e-02
-4.229377210140228271e-01 1.520584821701049805e-01 -2.179132848978042603e-01
-4.167009890079498291e-01 -1.805175095796585083e-01 -2.097530663013458252e-01
-6.261560320854187012e-01 -4.288510680198669434e-01 3.691455423831939697e-01
-6.261560320854187012e-01 -4.795990884304046631e-01 1.108296960592269897e-01
-6.019889116287231445e-01 1.901748478412628174e-01 1.580629944801330566e-01
-5.813484787940979004e-01 -6.810064315795898438e-01 2.052952349185943604e-01
-5.908086895942687988e-02 4.862889945507049561e-01 -1.695781946182250977e-01
-2.848565876483917236e-01 1.981447488069534302e-01 -5.679341778159141541e-02
1.044147461652755737e-01 6.724032759666442871e-01 -6.407295167446136475e-02
5.667892694473266602e-01 1.203400045633316040e-01 -7.290607690811157227e-02
5.339075326919555664e-01 -5.112020373344421387e-01 -2.317227572202682495e-01
6.305806636810302734e-01 1.167007237672805786e-01 3.625136911869049072e-01
-5.294848680496215820e-01 -5.830506682395935059e-01 -2.258696109056472778e-01
5.396296381950378418e-01 -6.568374633789062500e-01 1.542488485574722290e-01
-6.019889116287231445e-01 5.031357407569885254e-01 -1.135858595371246338e-01
8.676402270793914795e-02 1.855121254920959473e-01 -7.290607690811157227e-02
-5.013269782066345215e-01 -2.823912501335144043e-01 -1.695781946182250977e-01
7.122609019279479980e-02 -4.850550889968872070e-01 -2.984737157821655273e-01
6.305806636810302734e-01 -8.031087927520275116e-03 -1.189020499587059021e-01
-5.719085335731506348e-01 -6.764107942581176758e-01 -1.937462389469146729e-01
5.600175857543945312e-01 5.346231460571289062e-01 -7.290607690811157227e-02
3.743431866168975830e-01 6.724032759666442871e-01 -1.305753439664840698e-01
-3.273113369941711426e-01 -4.393261671066284180e-01 -2.767904698848724365e-01
-5.052507519721984863e-01 1.693732440471649170e-01 -1.695781946182250977e-01
6.064126491546630859e-01 -5.110784992575645447e-02 1.477726101875305176e-01
-3.733034431934356689e-01 6.566061377525329590e-01 -1.937462389469146729e-01
-3.732150495052337646e-01 6.522629261016845703e-01 2.006500065326690674e-01
6.305806636810302734e-01 -2.614129483699798584e-01 1.022609695792198181e-01
-1.042877063155174255e-01 2.289912849664688110e-01 -5.679341778159141541e-02
-5.992876291275024414e-01 5.216642618179321289e-01 -1.937462389469146729e-01
5.629130601882934570e-01 6.285027265548706055e-01 -7.290607690811157227e-02
6.064126491546630859e-01 4.879367947578430176e-01 -1.070996224880218506e-01
1.881823539733886719e-01 -3.809189498424530029e-01 -1.784977875649929047e-02
-3.250858187675476074e-01 -6.236120462417602539e-01 -2.984737157821655273e-01
-1.767859905958175659e-01 -5.309966802597045898e-01 4.044120311737060547e-01
-6.261560320854187012e-01 -5.662911385297775269e-02 7.289540767669677734e-02
6.064126491546630859e-01 5.116766691207885742e-01 3.947613537311553955e-01
5.339075326919555664e-01 -4.035848379135131836e-01 1.146490350365638733e-01
5.339075326919555664e-01 -3.724237084388732910e-01 4.088659957051277161e-02
6.305806636810302734e-01 4.081774652004241943e-01 1.654943078756332397e-01
-1.490427553653717041e-01 -3.789061009883880615e-01 -1.440905928611755371e-01
6.064126491546630859e-01 1.728979498147964478e-01 1.054315268993377686e-01
-2.257959097623825073e-01 6.724032759666442871e-01 7.894177106209099293e-04
-4.331418573856353760e-01 1.356177963316440582e-02 -1.695781946182250977e-01
-1.827185228466987610e-02 5.699974298477172852e-01 -1.695781946182250977e-01
-2.925128638744354248e-01 5.229508280754089355e-01 -5.679341778159141541e-02
-1.708454489707946777e-01 6.118977665901184082e-01 -1.937462389469146729e-01
-3.135747015476226807e-01 -1.692246645689010620e-02 -7.290607690811157227e-02
-6.019889116287231445e-01 -5.395589470863342285e-01 -1.206585764884948730e-01
-2.032271027565002441e-01 6.724032759666442871e-01 1.480494439601898193e-01
5.502571463584899902e-01 -6.810064315795898438e-01 3.161535859107971191e-01
6.305806636810302734e-01 -3.455097377300262451e-01 -6.922698765993118286e-02
-5.780636668205261230e-01 -6.810064315795898438e-01 3.184062838554382324e-01
6.305806636810302734e-01 5.943122878670692444e-02 1.710470318794250488e-01
6.305806636810302734e-01 -4.098166823387145996e-01 2.497521787881851196e-01
6.305806636810302734e-01 2.870489060878753662e-01 -1.761197745800018311e-01
-1.513003110885620117e-01 -3.587657511234283447e-01 -2.392003834247589111e-01
-2.130263745784759521e-01 6.522629261016845703e-01 3.951711058616638184e-01
3.816890344023704529e-02 -3.789061009883880615e-01 2.162567824125289917e-01
-1.039090231060981750e-01 5.155343413352966309e-01 -7.290607690811157227e-02
-1.591381728649139404e-01 -4.205160737037658691e-01 -2.743057012557983398e-01
6.304680705070495605e-01 -6.810064315795898438e-01 2.183832675218582153e-01
-5.648717284202575684e-01 6.522629261016845703e-01 1.827031187713146210e-02
4.470648169517517090e-01 4.304015636444091797e-01 -5.679341778159141541e-02
6.305806636810302734e-01 -3.669424653053283691e-01 4.887370392680168152e-02
6.305806636810302734e-01 -4.816507995128631592e-01 1.807200610637664795e-01
-7.402154803276062012e-02 6.522629261016845703e-01 -1.462287306785583496e-01
5.733940005302429199e-01 1.315336227416992188e-01 -1.937462389469146729e-01
-2.002335339784622192e-01 -1.468104422092437744e-01 -7.290607690811157227e-02
2.077449560165405273e-01 5.376177430152893066e-01 -5.679341778159141541e-02
-6.019889116287231445e-01 2.667794227600097656e-01 2.589076757431030273e-01
-4.152289927005767822e-01 1.319278478622436523e-01 -7.290607690811157227e-02
-4.690777510404586792e-03 -3.789061009883880615e-01 -1.302131563425064087e-01
-2.375041544437408447e-01 -3.789061009883880615e-01 3.538407385349273682e-01
-6.261560320854187012e-01 1.587789133191108704e-02 -7.381008565425872803e-02
4.592614471912384033e-01 6.724032759666442871e-01 3.252809345722198486e-01
6.279512047767639160e-01 -6.156292557716369629e-02 -1.695781946182250977e-01
6.305806636810302734e-01 4.972049593925476074e-01 2.416716143488883972e-02
3.441919088363647461e-01 -6.444146037101745605e-01 -2.743057012557983398e-01
5.873723626136779785e-01 -6.810064315795898438e-01 5.632200092077255249e-02
-4.450938403606414795e-01 4.640785455703735352e-01 -1.937462389469146729e-01
-4.999015629291534424e-01 6.713373214006423950e-02 -2.179132848978042603e-01
-6.019889116287231445e-01 -3.076001703739166260e-01 7.678316533565521240e-02
6.305806636810302734e-01 -6.085625886917114258e-01 8.068374544382095337e-02
-4.438470900058746338e-01 -4.997278153896331787e-01 -2.984737157821655273e-01
3.731265664100646973e-01 -5.393918752670288086e-01 4.064258933067321777e-01
3.065639734268188477e-01 6.724032759666442871e-01 3.279327154159545898e-01
-4.793038666248321533e-01 -3.809189498424530029e-01 -5.044021084904670715e-02
-5.622684955596923828e-01 3.561428785324096680e-01 -5.679341778159141541e-02
4.369179010391235352e-01 6.522629261016845703e-01 -4.350052028894424438e-02
4.337682574987411499e-02 -1.618210375308990479e-01 -7.290607690811157227e-02
4.777600988745689392e-02 4.959824383258819580e-01 -7.290607690811157227e-02
7.912600040435791016e-02 -6.065215468406677246e-01 -2.779964208602905273e-01
-6.019889116287231445e-01 5.556684732437133789e-01 3.295445442199707031e-02
-8.642992936074733734e-03 6.522629261016845703e-01 -9.694691747426986694e-02
-6.019889116287231445e-01 -2.517127096652984619e-01 1.327593922615051270e-01
-3.232904672622680664e-01 5.272436141967773438e-01 -1.937462389469146729e-01
6.158411502838134766e-02 6.522629261016845703e-01 1.578425765037536621e-01
1.326881200075149536e-01 6.724032759666442871e-01 -1.240949109196662903e-01
-1.761924661695957184e-02 2.456117719411849976e-01 -5.679341778159141541e-02
6.064126491546630859e-01 -9.829551726579666138e-02 2.552858553826808929e-02
-6.305320560932159424e-02 3.932241499423980713e-01 -7.290607690811157227e-02
2.997417449951171875e-01 6.724032759666442871e-01 -6.507016718387603760e-02
5.153336748480796814e-02 4.098378717899322510e-01 -2.114008218050003052e-01
-6.261560320854187012e-01 6.601755619049072266e-01 1.458166390657424927e-01
2.488578259944915771e-01 -3.796887099742889404e-01 -3.315263390541076660e-01
3.087458014488220215e-01 4.005318582057952881e-01 -2.170267850160598755e-01
-2.209545373916625977e-01 4.212314784526824951e-01 -1.937462389469146729e-01
-6.261560320854187012e-01 1.050111185759305954e-02 2.885259091854095459e-01
5.607014149427413940e-02 5.885618329048156738e-01 -1.695781946182250977e-01
-5.640774369239807129e-01 -1.922548860311508179e-01 -1.695781946182250977e-01
-6.019889116287231445e-01 -1.536258459091186523e-01 3.053658306598663330e-01
-6.019889116287231445e-01 3.934309780597686768e-01 -2.573133213445544243e-03
-2.899144887924194336e-01 3.560341298580169678e-01 -5.679341778159141541e-02
-6.019889116287231445e-01 5.852818489074707031e-01 3.635982871055603027e-01
4.158551096916198730e-01 6.724032759666442871e-01 7.987558096647262573e-02
-4.243747591972351074e-01 -3.803344070911407471e-01 4.064258933067321777e-01
-6.261560320854187012e-01 -6.120232343673706055e-01 3.273588791489601135e-02
-6.019889116287231445e-01 4.282274842262268066e-01 -7.988268136978149414e-02
5.106173157691955566e-01 -5.503223538398742676e-01 4.064258933067321777e-01
-4.637039005756378174e-01 6.522629261016845703e-01 -1.143927574157714844e-01
4.090856015682220459e-02 3.222309350967407227e-01 -5.679341778159141541e-02
-4.032080769538879395e-01 5.854556560516357422e-01 -1.937462389469146729e-01
6.305806636810302734e-01 5.731960386037826538e-02 -1.827477961778640747e-01
-6.261560320854187012e-01 2.254075184464454651e-02 1.783155947923660278e-01
4.716319143772125244e-01 5.906504392623901367e-01 -5.679341778159141541e-02
-2.058779150247573853e-01 -5.520138144493103027e-01 -2.743707597255706787e-01
5.301488637924194336e-01 -1.385482400655746460e-01 -1.937462389469146729e-01
-5.664525032043457031e-01 1.846304684877395630e-01 -5.679341778159141541e-02
6.305806636810302734e-01 4.604703187942504883e-01 3.334897160530090332e-01
4.001900851726531982e-01 -1.295898705720901489e-01 -5.679341778159141541e-02
-4.669771194458007812e-01 -2.379847913980484009e-01 -7.290607690811157227e-02
3.512413203716278076e-01 -2.063158303499221802e-01 -7.290607690811157227e-02
4.459238946437835693e-01 6.724032759666442871e-01 -1.748409867286682129e-01
2.648726291954517365e-02 4.808514714241027832e-01 -1.695781946182250977e-01
-5.476773977279663086e-01 2.833224274218082428e-02 -5.679341778159141541e-02
4.929082989692687988e-01 6.724032759666442871e-01 2.709266543388366699e-01
-9.534583240747451782e-02 -5.691441297531127930e-01 -2.743057012557983398e-01
-4.387513101100921631e-01 -3.789061009883880615e-01 1.159959658980369568e-01
-6.261560320854187012e-01 -5.959425568580627441e-01 3.869341909885406494e-01
1.212449818849563599e-01 5.374555587768554688e-01 -1.695781946182250977e-01
-6.261560320854187012e-01 6.100479960441589355e-01 -1.311424076557159424e-01
-8.937218040227890015e-02 4.703637659549713135e-01 -2.179132848978042603e-01
-5.053158402442932129e-01 -3.658462166786193848e-01 4.030031710863113403e-02
-5.676527023315429688e-01 -4.506137594580650330e-02 -1.937462389469146729e-01
-2.177716195583343506e-01 6.579539179801940918e-01 -1.695781946182250977e-01
-1.741322576999664307e-01 1.564532071352005005e-01 -5.679341778159141541e-02
1.101251542568206787e-01 -3.789061009883880615e-01 -6.237079948186874390e-02
4.777579307556152344e-01 9.576901793479919434e-02 -7.290607690811157227e-02
-6.019889116287231445e-01 -3.368164300918579102e-01 2.284145802259445190e-01
5.159742832183837891e-01 -6.117464303970336914e-01 -2.984737157821655273e-01
-3.562819063663482666e-01 -3.587657511234283447e-01 -2.659784555435180664e-01
-6.164683699607849121e-01 3.636904060840606689e-01 -1.937462389469146729e-01
4.444683492183685303e-01 2.990280687808990479e-01 -1.695781946182250977e-01
5.691682100296020508e-01 6.724032759666442871e-01 7.132685929536819458e-02
-2.802812755107879639e-01 -4.050869941711425781e-01 -2.722918391227722168e-01
5.393004417419433594e-01 -3.589269220829010010e-01 -2.250364869832992554e-01
3.555741161108016968e-02 6.724032759666442871e-01 2.914281748235225677e-02
5.151120424270629883e-01 4.868066012859344482e-01 -1.937462389469146729e-01
-2.842982709407806396e-01 -5.107408165931701660e-01 -2.743057012557983398e-01
-5.224975943565368652e-01 6.014731526374816895e-01 -1.695781946182250977e-01
-5.133721828460693359e-01 -1.080745831131935120e-01 -2.080693542957305908e-01
6.064126491546630859e-01 -6.089082360267639160e-01 -1.175853908061981201e-01
-2.188096046447753906e-01 -3.809189498424530029e-01 1.235655322670936584e-01
4.249183833599090576e-01 -4.088476300239562988e-01 4.064258933067321777e-01
6.305806636810302734e-01 2.998602092266082764e-01 3.831201046705245972e-02
3.942155539989471436e-01 6.522629261016845703e-01 2.411482036113739014e-01
-7.800067216157913208e-02 -3.809189498424530029e-01 2.994456887245178223e-01
-5.033019781112670898e-01 -4.481612443923950195e-01 -1.422719061374664307e-01
-6.019889116287231445e-01 4.181505143642425537e-01 1.318754851818084717e-01
-6.261560320854187012e-01 3.449745178222656250e-01 3.301058113574981689e-01
6.305806636810302734e-01 -4.788708388805389404e-01 -1.021494939923286438e-01
5.339075326919555664e-01 -4.389202594757080078e-01 -2.102735191583633423e-01
-1.628366857767105103e-01 -4.817187786102294922e-01 -2.743057012557983398e-01
2.320508807897567749e-01 -5.334822833538055420e-02 -7.290607690811157227e-02
4.555037319660186768e-01 -3.809189498424530029e-01 -8.678448945283889771e-02
-1.153531521558761597e-01 -3.809189498424530029e-01 1.080810949206352234e-01
-5.422087311744689941e-01 6.069408059120178223e-01 -5.679341778159141541e-02
-1.571476310491561890e-01 -2.925837635993957520e-01 -7.290607690811157227e-02
-3.156642615795135498e-01 -3.789061009883880615e-01 2.091471701860427856e-01
5.339075326919555664e-01 -4.063958823680877686e-01 2.624712288379669189e-01
6.305806636810302734e-01 3.714292347431182861e-01 5.142692849040031433e-02
4.647262096405029297e-01 1.931616216897964478e-01 -2.129165679216384888e-01
-6.150478124618530273e-01 -8.547364175319671631e-02 -1.937462389469146729e-01
1.120875328779220581e-01 2.061838097870349884e-02 -5.679341778159141541e-02
-4.172447621822357178e-01 2.764786779880523682e-01 -2.173433303833007812e-01
-6.261560320854187012e-01 3.330050706863403320e-01 6.005440279841423035e-02
2.140923440456390381e-01 6.724032759666442871e-01 1.048704683780670166e-01
-6.019889116287231445e-01 5.874415114521980286e-02 7.109265774488449097e-02
-6.019889116287231445e-01 -4.735226035118103027e-01 2.900901734828948975e-01
-3.959936201572418213e-01 -3.992066383361816406e-01 -2.937294542789459229e-01
-5.294848680496215820e-01 -5.824360251426696777e-01 2.942664325237274170e-01
-5.508874654769897461e-01 4.837897121906280518e-01 -5.679341778159141541e-02
-3.093974888324737549e-01 6.522629261016845703e-01 3.097498714923858643e-01
2.334539592266082764e-01 6.724032759666442871e-01 2.075663805007934570e-01
6.064126491546630859e-01 1.536025479435920715e-02 -5.570299550890922546e-02
6.064126491546630859e-01 6.099955439567565918e-01 -1.111486703157424927e-01
-1.244008690118789673e-01 4.153008759021759033e-02 -7.293812930583953857e-02
1.205623745918273926e-01 3.439491391181945801e-01 -7.290607690811157227e-02
-5.294848680496215820e-01 -4.832995533943176270e-01 3.048337101936340332e-01
2.559781372547149658e-01 2.592687904834747314e-01 -7.290607690811157227e-02
5.809640884399414062e-02 5.857993960380554199e-01 -7.290607690811157227e-02
-4.045509696006774902e-01 -2.077189087867736816e-01 -7.290607690811157227e-02
-6.019889116287231445e-01 -3.285338282585144043e-01 3.076049685478210449e-01
3.195956945419311523e-01 -3.242507874965667725e-01 -5.679341778159141541e-02
6.305806636810302734e-01 -2.067547142505645752e-01 -7.295657694339752197e-02
3.807410895824432373e-01 6.724032759666442871e-01 3.928999602794647217e-01
4.954727292060852051e-01 -4.882049858570098877e-01 -2.984737157821655273e-01
2.112628817558288574e-01 6.522629261016845703e-01 -1.658602654933929443e-01
6.064126491546630859e-01 1.845634728670120239e-01 -4.809525981545448303e-02
-6.261560320854187012e-01 1.130128875374794006e-01 -1.086085438728332520e-01
-6.261560320854187012e-01 -4.241291582584381104e-01 -1.642474383115768433e-01
2.764476537704467773e-01 -4.910558164119720459e-01 -2.984737157821655273e-01
4.636891782283782959e-01 -3.809189498424530029e-01 -1.650882698595523834e-02
-6.019889116287231445e-01 -6.999707221984863281e-02 2.160353958606719971e-01
-4.646030366420745850e-01 -3.296854496002197266e-01 -1.937462389469146729e-01
-3.747870922088623047e-01 3.419003486633300781e-01 -1.695781946182250977e-01
-1.686937212944030762e-01 -3.789061009883880615e-01 3.888431489467620850e-01
-5.146558284759521484e-01 -6.810064315795898438e-01 3.537106513977050781e-01
1.826748847961425781e-01 -4.213142096996307373e-01 -2.743057012557983398e-01
6.305806636810302734e-01 3.133570253849029541e-01 3.011818230152130127e-01
5.777634382247924805e-01 -5.003404617309570312e-01 -1.937462389469146729e-01
-6.261560320854187012e-01 -6.652287840843200684e-01 -3.332644328474998474e-02
3.305387794971466064e-01 -5.163840577006340027e-02 -7.290607690811157227e-02
1.398395001888275146e-01 -5.055478811264038086e-01 -2.984737157821655273e-01
-3.389787971973419189e-01 6.522629261016845703e-01 -1.228559389710426331e-01
-6.019889116287231445e-01 4.288751482963562012e-01 3.331517875194549561e-01
2.906037569046020508e-01 6.724032759666442871e-01 1.851441115140914917e-01
5.899367928504943848e-01 -2.987563908100128174e-01 -1.937462389469146729e-01
-5.273466706275939941e-01 -5.208507776260375977e-01 -2.743057012557983398e-01
-1.686808839440345764e-02 -3.809189498424530029e-01 -3.090867027640342712e-02
4.054518938064575195e-01 -4.065288901329040527e-01 -2.984737157821655273e-01
5.077266693115234375e-01 -4.290112853050231934e-01 -5.435622483491897583e-02
3.428684473037719727e-01 -3.809189498424530029e-01 1.562154889106750488e-01
5.339075326919555664e-01 -3.691446781158447266e-01 1.381857991218566895e-01
6.064126491546630859e-01 -6.179879903793334961e-01 2.043737620115280151e-01
-8.641054481267929077e-02 -4.402350187301635742e-01 -2.743707597255706787e-01
1.654222607612609863e-01 -3.789061009883880615e-01 3.499762117862701416e-01
-1.590039394795894623e-02 6.724032759666442871e-01 -1.320745497941970825e-01
1.184931844472885132e-01 -1.834159195423126221e-01 -5.679341778159141541e-02
-9.867999702692031860e-03 -3.180907964706420898e-01 -7.290607690811157227e-02
-2.399384379386901855e-01 -3.789061009883880615e-01 6.507181376218795776e-02
1.349651217460632324e-01 6.522629261016845703e-01 3.375319540500640869e-01
5.395315289497375488e-01 1.777461171150207520e-01 -5.679341778159141541e-02
-1.380015760660171509e-01 6.522629261016845703e-01 2.925098836421966553e-01
-3.701477050781250000e-01 5.411880612373352051e-01 -7.290607690811157227e-02
3.020265102386474609e-01 -3.589269220829010010e-01 -2.915650904178619385e-01
-1.889729201793670654e-01 6.522629261016845703e-01 -5.445429682731628418e-02
-3.450096249580383301e-01 -3.789061009883880615e-01 -2.103861421346664429e-01
5.886890292167663574e-01 -1.061947420239448547e-01 -7.290607690811157227e-02
-3.616473823785781860e-02 5.712218880653381348e-01 -2.259696274995803833e-01
5.339075326919555664e-01 -5.315239429473876953e-01 2.864751517772674561e-01
6.064126491546630859e-01 3.938669264316558838e-01 -1.033787801861763000e-01
5.339075326919555664e-01 -4.881632626056671143e-01 4.360733553767204285e-03
5.339075326919555664e-01 -4.638515114784240723e-01 1.382160782814025879e-01
-5.053158402442932129e-01 -4.243942201137542725e-01 1.169681251049041748e-01
2.088412195444107056e-01 -3.789061009883880615e-01 2.052942663431167603e-01
2.206989973783493042e-01 -3.789061009883880615e-01 4.940367117524147034e-02
1.090502664446830750e-01 6.696437001228332520e-01 -1.937462389469146729e-01
-6.261560320854187012e-01 -3.158555626869201660e-01 -6.075603887438774109e-02
-3.701564371585845947e-01 6.522629261016845703e-01 4.060646519064903259e-02
-4.793883562088012695e-01 -1.675234921276569366e-02 -7.290607690811157227e-02
-6.261560320854187012e-01 -1.125547513365745544e-01 3.701990842819213867e-01
-4.388853013515472412e-01 -3.587657511234283447e-01 -1.592487692832946777e-01
4.948726594448089600e-01 -2.195145487785339355e-01 -5.679341778159141541e-02
-5.199477672576904297e-01 -3.587657511234283447e-01 3.284686803817749023e-01
6.064126491546630859e-01 -1.046149358153343201e-01 2.097326666116714478e-01
-6.261560320854187012e-01 -2.215070277452468872e-01 -1.605858206748962402e-01
-1.250960975885391235e-01 -3.809189498424530029e-01 2.410569339990615845e-01
4.727767109870910645e-01 6.724032759666442871e-01 2.044562995433807373e-01
6.305806636810302734e-01 -3.040675073862075806e-02 2.919622138142585754e-02
5.310907363891601562e-01 -6.810064315795898438e-01 2.212205082178115845e-01
6.305806636810302734e-01 -1.141199916601181030e-01 1.422223150730133057e-01
4.066433310508728027e-01 -6.096752882003784180e-01 -2.984737157821655273e-01
1.254153847694396973e-01 -3.789061009883880615e-01 -1.688858866691589355e-01
-3.766630589962005615e-01 5.084829926490783691e-01 -1.695781946182250977e-01
5.762809887528419495e-02 -3.809189498424530029e-01 1.164211519062519073e-02
1.543111950159072876e-01 -5.247434973716735840e-01 4.064258933067321777e-01
4.627465829253196716e-02 -2.353930287063121796e-02 -5.679341778159141541e-02
-5.563969016075134277e-01 6.724032759666442871e-01 3.368872106075286865e-01
2.180384695529937744e-01 5.901746749877929688e-01 -1.695781946182250977e-01
6.305806636810302734e-01 5.851245522499084473e-01 1.494709700345993042e-01
-6.107278466224670410e-01 2.389818429946899414e-01 4.064258933067321777e-01
-2.347288280725479126e-02 -3.809189498424530029e-01 -2.285631448030471802e-01
5.414058268070220947e-02 6.522629261016845703e-01 3.531630039215087891e-01
3.768250942230224609e-01 2.700254619121551514e-01 -2.179132848978042603e-01
-6.261560320854187012e-01 -1.968447566032409668e-01 1.595330834388732910e-01
1.780811101198196411e-01 8.779735118150711060e-02 -7.290607690811157227e-02
4.202722012996673584e-01 1.083229929208755493e-01 -1.937462389469146729e-01
6.305806636810302734e-01 -6.104336380958557129e-01 3.421082496643066406e-01
-6.019889116287231445e-01 -3.947177529335021973e-01 -3.982724994421005249e-02
1.451479196548461914e-01 6.724032759666442871e-01 1.502926200628280640e-01
5.532565712928771973e-01 -1.904468834400177002e-01 -1.695781946182250977e-01
-9.446038305759429932e-02 6.679842472076416016e-01 -1.991216540336608887e-01
7.268998771905899048e-03 5.037241578102111816e-01 -2.259696274995803833e-01
-5.704355239868164062e-01 4.491582512855529785e-01 -1.695781946182250977e-01
6.305806636810302734e-01 -6.284213066101074219e-01 -2.336114086210727692e-02
6.305806636810302734e-01 3.958652615547180176e-01 -1.911352276802062988e-01
3.085770830512046814e-02 -3.595939874649047852e-01 -2.743057012557983398e-01
5.339075326919555664e-01 -5.901544690132141113e-01 6.190074607729911804e-02
-5.788744091987609863e-01 -6.810064315795898438e-01 -7.271479815244674683e-02
-3.923164606094360352e-01 7.288900762796401978e-02 -7.290607690811157227e-02
9.539508819580078125e-02 -3.789061009883880615e-01 1.131230592727661133e-01
6.305806636810302734e-01 6.030675172805786133e-01 3.617407679557800293e-01
6.064126491546630859e-01 4.692898690700531006e-01 -3.620348870754241943e-02
-1.274527162313461304e-01 -4.749509394168853760e-01 4.064258933067321777e-01
-5.053158402442932129e-01 -4.278888404369354248e-01 3.776195924729108810e-03
-2.408890426158905029e-01 5.514301061630249023e-01 -1.937462389469146729e-01
1.010026782751083374e-01 -4.049452245235443115e-01 -2.984737157821655273e-01
5.339075326919555664e-01 -5.929004549980163574e-01 1.846180260181427002e-01
6.305806636810302734e-01 3.298707008361816406e-01 -1.686615310609340668e-02
-3.585783243179321289e-01 -5.607149600982666016e-01 -2.886559963226318359e-01
5.830738544464111328e-01 -6.810064315795898438e-01 -1.193661838769912720e-01
2.739482820034027100e-01 4.362129569053649902e-01 -1.695781946182250977e-01
3.839337229728698730e-01 -3.789061009883880615e-01 -2.376953363418579102e-01
6.305806636810302734e-01 -1.255204379558563232e-01 -1.015630140900611877e-01
4.598003625869750977e-01 -1.730544567108154297e-01 -1.695781946182250977e-01
-1.298947483301162720e-01 6.081302762031555176e-01 -5.679341778159141541e-02
-5.044060349464416504e-01 -3.960052728652954102e-01 -2.722918391227722168e-01
-4.512033164501190186e-01 6.522629261016845703e-01 1.418778002262115479e-01
5.323588252067565918e-01 -3.360008001327514648e-01 -1.695781946182250977e-01
-5.044516324996948242e-01 1.201729923486709595e-01 -5.679341778159141541e-02
-3.139261901378631592e-01 4.136179387569427490e-01 -5.679341778159141541e-02
5.450730323791503906e-01 -7.549707591533660889e-02 -7.290607690811157227e-02
-4.629242122173309326e-01 -3.809189498424530029e-01 2.671678960323333740e-01
-4.408971965312957764e-01 -6.170306205749511719e-01 -2.743057012557983398e-01
-6.261560320854187012e-01 5.393043160438537598e-01 2.534604072570800781e-01
5.039358735084533691e-01 6.522629261016845703e-01 -7.204190641641616821e-02
-6.019889116287231445e-01 5.472868680953979492e-01 -5.006540566682815552e-02
6.064126491546630859e-01 5.620770454406738281e-01 1.369122765026986599e-04
8.829285204410552979e-02 -5.439953804016113281e-01 -2.743707597255706787e-01
1.802512854337692261e-01 3.771882057189941406e-01 -5.679341778159141541e-02
-6.019889116287231445e-01 -6.309857368469238281e-01 9.724135696887969971e-02
-7.619977742433547974e-02 -3.789061009883880615e-01 3.801177740097045898e-01
5.782508850097656250e-01 5.373147130012512207e-01 -1.695781946182250977e-01
-5.053158402442932129e-01 -4.217366278171539307e-01 -2.319276332855224609e-01
3.411070704460144043e-01 4.059033691883087158e-01 -5.679341778159141541e-02
1.640560775995254517e-01 -2.563424110412597656e-01 -5.679341778159141541e-02
-6.019889116287231445e-01 -4.570817649364471436e-01 -1.213353779166936874e-02
-2.393063157796859741e-01 -9.652840346097946167e-02 -7.290607690811157227e-02
-4.212083518505096436e-01 2.131961286067962646e-01 -1.937462389469146729e-01
-4.887972772121429443e-01 -1.708736121654510498e-01 -1.695781946182250977e-01
3.100333511829376221e-01 -3.834464550018310547e-01 4.044120311737060547e-01
6.305806636810302734e-01 2.042620182037353516e-01 1.745739579200744629e-02
5.284466743469238281e-01 -8.239209651947021484e-02 -1.937462389469146729e-01
6.064126491546630859e-01 -2.876239418983459473e-01 3.517939150333404541e-01
3.154815733432769775e-01 6.724032759666442871e-01 1.301746964454650879e-01
-6.261560320854187012e-01 2.176015228033065796e-01 1.420495379716157913e-02
-6.019889116287231445e-01 -2.052632719278335571e-01 -7.124860584735870361e-02
1.645347774028778076e-01 6.073728799819946289e-01 -7.290607690811157227e-02
-5.053158402442932129e-01 -5.637075304985046387e-01 3.687649369239807129e-01
-2.295711338520050049e-01 -3.809189498424530029e-01 1.951946616172790527e-01
5.750963464379310608e-02 -4.330943226814270020e-01 4.044120311737060547e-01
4.063561186194419861e-02 1.299004107713699341e-01 -5.679341778159141541e-02
-3.055659234523773193e-01 1.324706226587295532e-01 -5.679341778159141541e-02
5.593446493148803711e-01 -6.810064315795898438e-01 1.051890105009078979e-01
1.770421415567398071e-01 -4.957272708415985107e-01 -2.743057012557983398e-01
1.642978489398956299e-01 -3.789061009883880615e-01 -1.037827059626579285e-01
4.247001186013221741e-02 -3.809189498424530029e-01 3.619126081466674805e-01
-4.840481877326965332e-01 -3.789061009883880615e-01 1.781346946954727173e-01
4.267749190330505371e-01 6.724032759666442871e-01 7.248464971780776978e-03
1.843054033815860748e-02 6.092780232429504395e-01 -2.259696274995803833e-01
-6.019889116287231445e-01 4.034768939018249512e-01 2.057991772890090942e-01
-6.675705313682556152e-02 6.522629261016845703e-01 1.474094539880752563e-01
-6.019889116287231445e-01 6.053367257118225098e-01 1.375441551208496094e-01
-5.588068962097167969e-01 2.696720063686370850e-01 -1.695781946182250977e-01
-5.252240896224975586e-01 -2.808561325073242188e-01 -5.679341778159141541e-02
-2.858576774597167969e-01 -4.789699018001556396e-01 -2.984737157821655273e-01
-5.294848680496215820e-01 -4.709349274635314941e-01 -2.259453386068344116e-01
-4.118868410587310791e-01 -3.664016425609588623e-01 -3.426733314990997314e-01
-3.810519576072692871e-01 -3.789061009883880615e-01 1.534449458122253418e-01
-5.053158402442932129e-01 -6.640675067901611328e-01 9.980550408363342285e-02
6.064126491546630859e-01 1.143548041582107544e-01 1.514371484518051147e-01
2.851972579956054688e-01 3.725886046886444092e-01 -5.679341778159141541e-02
4.345302581787109375e-01 -5.061314702033996582e-01 -2.957685291767120361e-01
6.064126491546630859e-01 -3.882936537265777588e-01 -2.334463037550449371e-02
-5.548666119575500488e-01 6.522629261016845703e-01 1.921711862087249756e-01
3.974091708660125732e-01 5.327141880989074707e-01 -1.937462389469146729e-01
3.710253238677978516e-01 -3.789061009883880615e-01 2.637946903705596924e-01
-5.294848680496215820e-01 -3.658899068832397461e-01 2.464741021394729614e-01
-6.857879925519227982e-03 -3.809189498424530029e-01 2.644928395748138428e-01
3.238127231597900391e-01 -5.042283535003662109e-01 -2.743057012557983398e-01
-3.337985575199127197e-01 6.724032759666442871e-01 -5.718180537223815918e-02
2.894560396671295166e-01 -3.789061009883880615e-01 -1.425418406724929810e-01
3.390825390815734863e-01 5.458905696868896484e-01 -5.679341778159141541e-02
-5.712045431137084961e-01 6.608933210372924805e-02 -1.695781946182250977e-01
-2.712226472795009613e-02 6.522629261016845703e-01 -4.067686572670936584e-02
-3.637439906597137451e-01 -3.789061009883880615e-01 5.851440504193305969e-02
6.305806636810302734e-01 4.381918609142303467e-01 3.406323119997978210e-02
2.604708969593048096e-01 -3.587657511234283447e-01 -2.444787174463272095e-01
6.305806636810302734e-01 6.562420725822448730e-01 7.392776757478713989e-02
-3.713274300098419189e-01 -7.061899453401565552e-02 -7.290607690811157227e-02
-5.043458342552185059e-01 3.250128328800201416e-01 -1.695781946182250977e-01
6.305806636810302734e-01 2.880102097988128662e-01 -7.771638780832290649e-02
-6.019889116287231445e-01 2.331549078226089478e-01 -3.299339860677719116e-02
6.118094325065612793e-01 6.724032759666442871e-01 -1.331067085266113281e-01
-4.807970672845840454e-02 4.438003003597259521e-01 -1.794803887605667114e-01
3.885663449764251709e-01 -4.693415164947509766e-01 -2.977376878261566162e-01
5.339075326919555664e-01 -4.901023209095001221e-01 2.092714607715606689e-01
-4.334892332553863525e-02 -4.851065874099731445e-01 -2.984737157821655273e-01
