-2.539942562580108643e-01 -3.302223682403564453e-01 2.074788212776184082e-01
-2.716212868690490723e-01 5.133496969938278198e-02 2.501530349254608154e-01
2.611143589019775391e-01 6.739408373832702637e-01 1.559571325778961182e-01
3.141869306564331055e-01 -8.180797696113586426e-01 2.501530349254608154e-01
-3.425370752811431885e-01 3.712801635265350342e-01 1.709495633840560913e-01
2.031417191028594971e-01 4.771614670753479004e-01 1.966810971498489380e-01
-3.138210177421569824e-01 -2.134938538074493408e-01 -3.526986837387084961e-01
1.277857124805450439e-01 2.939133644104003906e-01 1.997572481632232666e-01
-3.444214761257171631e-01 -6.496316790580749512e-01 -4.056155383586883545e-01
-1.791750490665435791e-01 1.663092076778411865e-01 1.559571325778961182e-01
-2.630871534347534180e-01 6.531725525856018066e-01 1.624081283807754517e-01
-1.519274264574050903e-01 -1.684509031474590302e-02 -3.021416068077087402e-01
3.140129148960113525e-01 -3.670649230480194092e-01 1.597249507904052734e-01
-8.549573831260204315e-03 4.513420164585113525e-01 1.559571325778961182e-01
3.488574922084808350e-01 3.506921231746673584e-02 -1.096796337515115738e-02
3.671872243285179138e-02 7.178792953491210938e-01 2.287719696760177612e-01
-3.425370752811431885e-01 6.547775268554687500e-01 1.836783736944198608e-01
-1.034462079405784607e-01 3.833246231079101562e-01 2.073285877704620361e-01
-2.539942562580108643e-01 -8.024736046791076660e-01 -4.234862625598907471e-01
2.584303021430969238e-01 -5.488162636756896973e-01 -4.140900969505310059e-01
2.540514767169952393e-01 7.358267903327941895e-02 -2.641420662403106689e-01
2.940040826797485352e-01 -7.980709075927734375e-01 1.597249507904052734e-01
-2.924655675888061523e-01 -7.822577357292175293e-01 1.597249507904052734e-01
2.733356654644012451e-01 5.370807051658630371e-01 1.599539518356323242e-01
-3.403037190437316895e-01 -3.894683718681335449e-01 -3.526986837387084961e-01
5.242925137281417847e-02 3.804326057434082031e-01 1.907266229391098022e-01
2.084302529692649841e-02 3.017622530460357666e-01 1.559571325778961182e-01
7.678556442260742188e-02 -1.684509031474590302e-02 -2.846355140209197998e-01
-1.012760326266288757e-01 6.409521698951721191e-01 2.253211289644241333e-01
-3.444214761257171631e-01 7.281134277582168579e-02 -2.345200031995773315e-01
-2.543185353279113770e-01 -1.684509031474590302e-02 -3.302430212497711182e-01
2.849093377590179443e-01 -7.824638485908508301e-01 2.501530349254608154e-01
-1.230547055602073669e-01 2.386147230863571167e-01 2.501530349254608154e-01
2.726147472858428955e-01 2.298048734664916992e-01 2.011991441249847412e-01
3.116531074047088623e-01 7.358267903327941895e-02 -5.789031460881233215e-02
1.780908405780792236e-01 -1.684509031474590302e-02 1.253356337547302246e-01
-2.778899669647216797e-01 -7.030670642852783203e-01 2.501530349254608154e-01
-2.539942562580108643e-01 -7.524157762527465820e-01 -4.032401740550994873e-01
-1.927997358143329620e-02 -1.684509031474590302e-02 8.123963326215744019e-02
-3.425370752811431885e-01 6.076987981796264648e-01 1.585450619459152222e-01
1.277857124805450439e-01 4.419953525066375732e-01 2.290138155221939087e-01
1.277857124805450439e-01 6.159938573837280273e-01 2.150959521532058716e-01
2.473558932542800903e-01 1.244154572486877441e-01 2.501530349254608154e-01
1.673865616321563721e-01 2.804681956768035889e-01 2.501530349254608154e-01
-1.012137383222579956e-01 -1.089282799512147903e-02 -4.431259036064147949e-01
2.733906507492065430e-01 3.801834285259246826e-01 1.567953526973724365e-01
2.669982910156250000e-01 -5.205737352371215820e-01 -3.526986837387084961e-01
3.124665617942810059e-01 -5.168997123837471008e-02 -3.526986837387084961e-01
-1.355847269296646118e-01 5.120665431022644043e-01 2.501530349254608154e-01
-3.444214761257171631e-01 -1.749950647354125977e-01 2.437909841537475586e-01
2.257219702005386353e-01 -1.684509031474590302e-02 -2.385039925575256348e-01
1.639256477355957031e-01 7.358267903327941895e-02 -6.786825507879257202e-02
-2.915040357038378716e-03 -1.684509031474590302e-02 2.016993314027786255e-01
2.644021511077880859e-01 -4.287485778331756592e-01 1.597249507904052734e-01
-2.638044357299804688e-01 1.382902562618255615e-01 1.940263211727142334e-01
5.685433000326156616e-02 7.358267903327941895e-02 -4.028306603431701660e-01
-2.539942562580108643e-01 -6.716485619544982910e-01 1.719599962234497070e-01
3.195322155952453613e-01 -3.494873642921447754e-01 2.501530349254608154e-01
1.301418542861938477e-01 5.424250960350036621e-01 2.501530349254608154e-01
-2.539942562580108643e-01 -2.450451850891113281e-01 1.680135428905487061e-01
-3.444214761257171631e-01 2.796177938580513000e-02 3.533165156841278076e-02
-3.140766024589538574e-01 -6.540260910987854004e-01 1.597249507904052734e-01
-5.064203217625617981e-02 -1.684509031474590302e-02 2.261126041412353516e-01
-3.444214761257171631e-01 -3.674991428852081299e-01 -4.130686521530151367e-01
-3.370846509933471680e-01 -5.369640588760375977e-01 1.597249507904052734e-01
-2.511104643344879150e-01 7.178792953491210938e-01 2.207233756780624390e-01
-1.348097324371337891e-01 7.358267903327941895e-02 -2.626140713691711426e-01
-9.697324037551879883e-02 7.358267903327941895e-02 -1.279732286930084229e-01
-2.418196499347686768e-01 1.265279352664947510e-01 2.501530349254608154e-01
3.488574922084808350e-01 3.841378912329673767e-02 -2.990874350070953369e-01
-1.778009533882141113e-01 6.056898832321166992e-01 2.173155844211578369e-01
2.979010641574859619e-01 -5.472396612167358398e-01 1.597249507904052734e-01
-3.444214761257171631e-01 -4.627476632595062256e-01 -4.027207493782043457e-01
-1.481385678052902222e-01 6.489806771278381348e-01 2.501530349254608154e-01
3.488574922084808350e-01 -3.933250308036804199e-01 -3.885958492755889893e-01
-1.858220696449279785e-01 7.358267903327941895e-02 -3.970081210136413574e-01
1.961392760276794434e-01 -1.684509031474590302e-02 -2.791683971881866455e-01
3.030979037284851074e-01 7.358267903327941895e-02 -1.375500112771987915e-01
-1.504314988851547241e-01 7.358267903327941895e-02 1.523304916918277740e-02
3.488574922084808350e-01 -3.214454948902130127e-01 1.876357942819595337e-01
-2.539942562580108643e-01 -8.791654556989669800e-02 -4.215625226497650146e-01
2.031417191028594971e-01 1.433973610401153564e-01 2.111486047506332397e-01
5.242925137281417847e-02 2.804636061191558838e-01 2.325306087732315063e-01
3.010111153125762939e-01 -2.965027093887329102e-01 -4.431259036064147949e-01
-3.444214761257171631e-01 1.953969942405819893e-03 -2.940517961978912354e-01
2.258355617523193359e-01 7.358267903327941895e-02 -5.476257205009460449e-02
4.015178978443145752e-02 5.759606361389160156e-01 1.559571325778961182e-01
1.189511269330978394e-01 7.358267903327941895e-02 -2.636052668094635010e-01
-3.444214761257171631e-01 6.903042551130056381e-03 2.112603485584259033e-01
-1.600740551948547363e-01 7.358267903327941895e-02 -9.890807420015335083e-02
-1.152131333947181702e-01 1.088111028075218201e-01 2.501530349254608154e-01
3.432062566280364990e-01 6.572656035423278809e-01 1.894212365150451660e-01
-2.539942562580108643e-01 -5.017081499099731445e-01 -4.397978186607360840e-01
-3.444214761257171631e-01 4.844384267926216125e-02 -1.610840857028961182e-01
-3.439835906028747559e-01 7.358267903327941895e-02 -4.039656817913055420e-01
3.488574922084808350e-01 5.356193706393241882e-02 -4.311408475041389465e-02
-1.866978257894515991e-01 7.358267903327941895e-02 -2.556171417236328125e-01
3.301577270030975342e-01 -1.684509031474590302e-02 -2.894311249256134033e-01
3.432062566280364990e-01 1.445708572864532471e-01 1.846127808094024658e-01
-2.539942562580108643e-01 -1.833624541759490967e-01 -3.535909354686737061e-01
3.488574922084808350e-01 -1.468779146671295166e-01 -4.065984785556793213e-01
2.982775866985321045e-02 2.179087698459625244e-01 2.501530349254608154e-01
1.626504659652709961e-01 6.202407479286193848e-01 2.501530349254608154e-01
-3.444214761257171631e-01 -6.039948463439941406e-01 1.968148499727249146e-01
2.511695027351379395e-01 -1.684509031474590302e-02 -3.068273365497589111e-01
-1.725893653929233551e-02 3.112271130084991455e-01 1.559571325778961182e-01
-2.830685079097747803e-01 -5.801720172166824341e-02 -4.431259036064147949e-01
2.584303021430969238e-01 -3.991704881191253662e-01 -3.998900651931762695e-01
-3.423154056072235107e-01 -3.839243054389953613e-01 1.597249507904052734e-01
1.277857124805450439e-01 4.907248020172119141e-01 1.677149385213851929e-01
-3.444214761257171631e-01 -5.767554640769958496e-01 2.452539354562759399e-01
-3.444214761257171631e-01 -5.863855476491153240e-04 -9.185075759887695312e-02
-1.375707685947418213e-01 7.358267903327941895e-02 -2.024199515581130981e-01
2.676963508129119873e-01 -6.235474348068237305e-01 1.597249507904052734e-01
1.654490679502487183e-01 7.358267903327941895e-02 -1.347918901592493057e-02
2.683183550834655762e-01 -3.245519101619720459e-01 1.597249507904052734e-01
3.464619815349578857e-01 7.358267903327941895e-02 -4.182902574539184570e-01
-3.444214761257171631e-01 -8.402378857135772705e-02 1.608562767505645752e-01
1.300346702337265015e-01 7.178792953491210938e-01 1.588052064180374146e-01
1.495753973722457886e-01 -1.684509031474590302e-02 -4.251085817813873291e-01
3.488574922084808350e-01 -7.585699558258056641e-01 -4.202286899089813232e-01
1.762596219778060913e-01 2.284261733293533325e-01 1.559571325778961182e-01
-3.098910748958587646e-01 -1.684509031474590302e-02 1.296173632144927979e-01
3.214422166347503662e-01 7.358267903327941895e-02 -2.252887636423110962e-01
3.488574922084808350e-01 -6.428078413009643555e-01 2.456075400114059448e-01
-2.292703464627265930e-02 1.886970847845077515e-01 2.278256714344024658e-01
5.242925137281417847e-02 5.792273879051208496e-01 2.347392588853836060e-01
-1.063721328973770142e-01 6.399573683738708496e-01 1.830590963363647461e-01
-2.292703464627265930e-02 2.383197396993637085e-01 1.734046339988708496e-01
-3.216341733932495117e-01 -6.304702162742614746e-01 -4.431259036064147949e-01
-1.464181840419769287e-01 7.358267903327941895e-02 -2.989225387573242188e-01
-2.580725848674774170e-01 -6.041074991226196289e-01 1.597249507904052734e-01
3.488574922084808350e-01 -3.238428533077239990e-01 -4.105696380138397217e-01
2.584303021430969238e-01 -4.050351679325103760e-01 2.379885762929916382e-01
-3.396496474742889404e-01 -2.295681685209274292e-01 1.597249507904052734e-01
-1.678918153047561646e-01 4.619803428649902344e-01 2.472252845764160156e-01
-2.348044067621231079e-01 7.358267903327941895e-02 1.238241195678710938e-01
3.211408555507659912e-01 -8.651687949895858765e-02 -3.526986837387084961e-01
-1.839990913867950439e-01 2.002808004617691040e-01 1.986066699028015137e-01
-3.119009435176849365e-01 -8.074524402618408203e-01 -3.526986837387084961e-01
-3.085096478462219238e-01 2.657487392425537109e-01 1.559571325778961182e-01
-3.384724855422973633e-01 7.358267903327941895e-02 -7.314848899841308594e-02
3.411780595779418945e-01 8.797048032283782959e-02 1.559571325778961182e-01
-3.425370752811431885e-01 6.544853448867797852e-01 2.266897559165954590e-01
-2.582118213176727295e-01 -2.405335307121276855e-01 2.501530349254608154e-01
2.584303021430969238e-01 -8.199265599250793457e-01 -3.751882314682006836e-01
3.488574922084808350e-01 -1.665775477886199951e-02 1.243664398789405823e-01
-2.723340094089508057e-01 1.923815160989761353e-01 2.385968416929244995e-01
-2.982927262783050537e-01 -7.034902572631835938e-01 1.597249507904052734e-01
1.488846689462661743e-01 6.734406352043151855e-01 2.501530349254608154e-01
3.488574922084808350e-01 -2.162842154502868652e-01 -3.888001143932342529e-01
-2.539942562580108643e-01 -7.172808051109313965e-01 -3.905470371246337891e-01
-3.444214761257171631e-01 -2.761558890342712402e-01 -4.258955121040344238e-01
-2.539942562580108643e-01 -3.375558182597160339e-02 -3.723264336585998535e-01
-3.444214761257171631e-01 -7.684149146080017090e-01 -4.339523315429687500e-01
3.432062566280364990e-01 2.887613773345947266e-01 2.377778738737106323e-01
1.931547224521636963e-01 5.700061917304992676e-01 1.559571325778961182e-01
3.445886075496673584e-01 -7.343563437461853027e-01 -3.526986837387084961e-01
1.489405483007431030e-01 6.198194026947021484e-01 1.559571325778961182e-01
-2.806693017482757568e-01 -6.641294360160827637e-01 -4.431259036064147949e-01
4.650969058275222778e-02 -1.684509031474590302e-02 9.814206510782241821e-02
1.666491329669952393e-01 2.803692519664764404e-01 1.559571325778961182e-01
3.169947266578674316e-01 -7.041479945182800293e-01 -3.526986837387084961e-01
2.584303021430969238e-01 -2.295461893081665039e-01 -4.335217773914337158e-01
-2.002877444028854370e-01 6.776179075241088867e-01 1.559571325778961182e-01
-3.052456974983215332e-01 -8.253597617149353027e-01 1.597249507904052734e-01
7.676605135202407837e-02 7.358267903327941895e-02 -3.060138523578643799e-01
-3.101109266281127930e-01 6.997813582420349121e-01 1.559571325778961182e-01
2.173225134611129761e-01 7.358267903327941895e-02 1.516452133655548096e-01
-3.129003942012786865e-01 -4.932976961135864258e-01 1.597249507904052734e-01
-2.539942562580108643e-01 -4.763897955417633057e-01 -3.661933243274688721e-01
2.640238106250762939e-01 -7.148678898811340332e-01 -3.526986837387084961e-01
-3.427065610885620117e-01 -2.652427256107330322e-01 1.597249507904052734e-01
3.062885999679565430e-01 5.932450890541076660e-01 1.559571325778961182e-01
-1.764112710952758789e-01 3.115229904651641846e-01 2.215102761983871460e-01
2.931512296199798584e-01 6.127848625183105469e-01 2.501530349254608154e-01
-3.444214761257171631e-01 -1.754549294710159302e-01 -4.115846455097198486e-01
-1.414951682090759277e-02 -1.684509031474590302e-02 -1.011617258191108704e-01
2.729371786117553711e-01 4.608325064182281494e-01 2.501530349254608154e-01
3.263688683509826660e-01 6.391512155532836914e-01 1.559571325778961182e-01
-1.974772363901138306e-01 5.687227249145507812e-01 1.559571325778961182e-01
1.533954143524169922e-01 7.358267903327941895e-02 -2.573750615119934082e-01
-7.707297801971435547e-02 8.369792997837066650e-02 2.501530349254608154e-01
-3.444214761257171631e-01 -7.754265666007995605e-01 -3.608965873718261719e-01
-1.044291481375694275e-01 2.035759091377258301e-01 1.991709768772125244e-01
-2.716396152973175049e-01 2.900768518447875977e-01 2.066607773303985596e-01
-3.425370752811431885e-01 1.469397991895675659e-01 2.364633232355117798e-01
1.595678925514221191e-01 3.146504759788513184e-01 2.501530349254608154e-01
1.339747011661529541e-01 7.358267903327941895e-02 -4.131428599357604980e-01
2.006436511874198914e-02 3.932255506515502930e-01 1.559571325778961182e-01
2.908298969268798828e-01 -9.252868592739105225e-02 1.597249507904052734e-01
-8.905939757823944092e-02 -1.684509031474590302e-02 1.665386855602264404e-01
-2.292703464627265930e-02 2.990176975727081299e-01 2.262225449085235596e-01
7.145064324140548706e-02 -1.684509031474590302e-02 2.129715830087661743e-01
7.739695161581039429e-02 7.358267903327941895e-02 -6.991329044103622437e-02
-4.652685672044754028e-02 7.358267903327941895e-02 6.721641868352890015e-02
2.008039206266403198e-01 -1.684509031474590302e-02 -6.881097704172134399e-02
3.125087320804595947e-01 3.553274273872375488e-02 -4.431259036064147949e-01
-1.621462106704711914e-01 7.358267903327941895e-02 -6.429401785135269165e-02
2.584303021430969238e-01 -4.419042766094207764e-01 2.390264570713043213e-01
-3.425370752811431885e-01 5.711521506309509277e-01 1.648961752653121948e-01
1.830660402774810791e-01 5.333147644996643066e-01 2.501530349254608154e-01
3.106857240200042725e-01 -5.875000953674316406e-01 -4.431259036064147949e-01
-3.425370752811431885e-01 3.062363266944885254e-01 1.940583735704421997e-01
-2.326287329196929932e-01 -1.684509031474590302e-02 -1.834684610366821289e-01
-3.122939169406890869e-01 -3.768943846225738525e-01 2.501530349254608154e-01
2.031417191028594971e-01 3.904003798961639404e-01 1.957485228776931763e-01
2.683100998401641846e-01 7.358267903327941895e-02 8.308093249797821045e-02
1.798845231533050537e-01 5.164618492126464844e-01 1.559571325778961182e-01
2.395464032888412476e-01 7.358267903327941895e-02 -1.525104790925979614e-01
3.227641284465789795e-01 7.358267903327941895e-02 -3.515114486217498779e-01
3.446390032768249512e-01 7.358267903327941895e-02 -1.997496038675308228e-01
3.430697619915008545e-01 -1.415344625711441040e-01 2.501530349254608154e-01
1.277857124805450439e-01 2.111976295709609985e-01 2.353594303131103516e-01
2.778958678245544434e-01 -2.901589274406433105e-01 -3.526986837387084961e-01
-1.102447044104337692e-03 -1.684509031474590302e-02 6.651292555034160614e-03
-1.547159552574157715e-01 7.178792953491210938e-01 2.347621321678161621e-01
2.584303021430969238e-01 -7.497905939817428589e-02 -4.359338283538818359e-01
-2.539942562580108643e-01 -4.031489789485931396e-01 -4.222908020019531250e-01
2.031417191028594971e-01 5.104020237922668457e-01 1.882797926664352417e-01
3.488574922084808350e-01 -6.109487414360046387e-01 2.354491949081420898e-01
1.256292909383773804e-01 -1.684509031474590302e-02 4.022805020213127136e-02
-3.082394003868103027e-01 5.224371328949928284e-02 2.501530349254608154e-01
2.724315226078033447e-01 -3.299622237682342529e-01 -3.526986837387084961e-01
-3.134554922580718994e-01 7.358267903327941895e-02 -1.375316977500915527e-01
-2.539942562580108643e-01 -4.594022035598754883e-01 2.499387413263320923e-01
-2.539942562580108643e-01 -1.360817402601242065e-01 -4.242575466632843018e-01
-3.248981535434722900e-01 7.113485932350158691e-01 2.501530349254608154e-01
3.488574922084808350e-01 -4.476233124732971191e-01 1.958062350749969482e-01
-3.302415907382965088e-01 6.151977777481079102e-01 2.501530349254608154e-01
2.614642977714538574e-01 -3.240572214126586914e-01 2.501530349254608154e-01
3.488574922084808350e-01 -8.107777833938598633e-01 2.220873981714248657e-01
3.488574922084808350e-01 -7.472940087318420410e-01 2.395880371332168579e-01
2.274258583784103394e-01 7.358267903327941895e-02 -4.351927340030670166e-01
2.808254659175872803e-01 9.090374410152435303e-02 1.559571325778961182e-01
2.985569536685943604e-01 -2.173734158277511597e-01 1.597249507904052734e-01
3.488574922084808350e-01 -5.942258238792419434e-01 -4.012302756309509277e-01
2.031417191028594971e-01 1.556296795606613159e-01 1.689085662364959717e-01
2.131708711385726929e-01 -1.684509031474590302e-02 -3.078835606575012207e-01
-3.100119829177856445e-01 -3.616729378700256348e-01 -3.526986837387084961e-01
-2.705549895763397217e-01 -1.684509031474590302e-02 -8.921640925109386444e-03
-2.143329381942749023e-01 4.698729142546653748e-02 2.501530349254608154e-01
-1.143758520483970642e-01 -1.684509031474590302e-02 -3.070618510246276855e-01
-3.444214761257171631e-01 -1.058971062302589417e-01 1.998681128025054932e-01
2.614505887031555176e-01 -1.437484174966812134e-01 2.501530349254608154e-01
3.246182799339294434e-01 7.358267903327941895e-02 7.869661599397659302e-02
2.724626660346984863e-01 4.047277271747589111e-01 2.098889946937561035e-01
1.096273586153984070e-01 -1.684509031474590302e-02 -3.479085564613342285e-01
-2.539942562580108643e-01 -4.369968771934509277e-01 1.982008367776870728e-01
-3.444214761257171631e-01 -4.150404930114746094e-01 2.467315793037414551e-01
-1.875552684068679810e-01 2.471754103899002075e-01 1.878739744424819946e-01
-1.949378997087478638e-01 6.854952573776245117e-01 2.501530349254608154e-01
2.584303021430969238e-01 -7.682042717933654785e-01 -4.207929968833923340e-01
3.048824071884155273e-01 -5.088526010513305664e-01 2.501530349254608154e-01
-1.402484327554702759e-01 4.610212147235870361e-01 1.559571325778961182e-01
-2.062293738126754761e-01 -1.684509031474590302e-02 -9.395798668265342712e-03
2.918210923671722412e-01 -8.306931853294372559e-01 -4.348757565021514893e-01
1.277857124805450439e-01 5.804722905158996582e-01 1.880525946617126465e-01
-2.141872942447662354e-01 7.358267903327941895e-02 -2.904396690428256989e-02
-2.048992365598678589e-01 -1.684509031474590302e-02 -2.237772345542907715e-01
3.822914138436317444e-02 -1.684509031474590302e-02 1.703376322984695435e-01
2.730022370815277100e-01 -1.684509031474590302e-02 -2.814044952392578125e-01
2.724131941795349121e-01 3.393404185771942139e-01 2.127123326063156128e-01
3.488574922084808350e-01 5.310207232832908630e-02 1.847730875015258789e-01
3.488574922084808350e-01 -1.079728081822395325e-02 -1.943347007036209106e-01
1.922239959239959717e-01 -1.684509031474590302e-02 2.111907303333282471e-01
-3.202628195285797119e-01 2.336926758289337158e-01 2.501530349254608154e-01
-3.297817409038543701e-01 -5.916590690612792969e-01 1.597249507904052734e-01
-2.258314192295074463e-02 6.049707531929016113e-01 2.501530349254608154e-01
-1.442947238683700562e-01 1.251602321863174438e-01 2.501530349254608154e-01
-2.921311855316162109e-01 -1.684509031474590302e-02 2.643934451043605804e-02
-3.244465291500091553e-01 2.801310718059539795e-01 2.501530349254608154e-01
2.786149978637695312e-01 -1.537495255470275879e-01 -4.431259036064147949e-01
-2.292703464627265930e-02 1.647381484508514404e-01 2.025915831327438354e-01
-2.813279926776885986e-01 6.613008975982666016e-01 2.501530349254608154e-01
-2.659379839897155762e-01 -5.832110047340393066e-01 -3.526986837387084961e-01
1.521889418363571167e-01 4.908209666609764099e-03 2.501530349254608154e-01
-3.229029476642608643e-01 7.358267903327941895e-02 -2.832210958003997803e-01
7.144734263420104980e-02 -1.684509031474590302e-02 5.914771929383277893e-03
-2.921028137207031250e-01 7.358267903327941895e-02 -2.401024661958217621e-02
2.584303021430969238e-01 -6.613354086875915527e-01 1.968917846679687500e-01
9.381917119026184082e-02 7.358267903327941895e-02 -1.242332756519317627e-01
-1.850864589214324951e-01 4.798620343208312988e-01 1.953243911266326904e-01
1.376582775264978409e-02 -1.684509031474590302e-02 -3.698053956031799316e-01
3.488574922084808350e-01 -6.852448582649230957e-01 2.230062186717987061e-01
-3.444214761257171631e-01 -3.158583939075469971e-01 1.699620485305786133e-01
-1.777523905038833618e-01 6.015474200248718262e-01 1.559571325778961182e-01
-2.539942562580108643e-01 -3.302406966686248779e-01 -3.595509231090545654e-01
-3.425370752811431885e-01 4.378721415996551514e-01 2.283157706260681152e-01
-4.098637029528617859e-02 7.178792953491210938e-01 2.046655565500259399e-01
2.300943732261657715e-01 7.358267903327941895e-02 -1.981061697006225586e-01
2.584303021430969238e-01 -5.737864971160888672e-01 2.050997763872146606e-01
2.926336526870727539e-01 -4.115053713321685791e-01 2.501530349254608154e-01
1.766507774591445923e-01 -1.684509031474590302e-02 -2.148547023534774780e-01
3.123090267181396484e-01 -2.106980085372924805e-01 -4.431259036064147949e-01
-3.444214761257171631e-01 -5.384600162506103516e-01 -3.854582905769348145e-01
-2.539942562580108643e-01 -1.872007995843887329e-01 1.615167707204818726e-01
2.406804859638214111e-01 1.293198764324188232e-02 2.501530349254608154e-01
9.642260149121284485e-03 -1.684509031474590302e-02 3.902890905737876892e-02
-1.034315451979637146e-01 7.358267903327941895e-02 -5.410199239850044250e-02
-3.444214761257171631e-01 9.082560427486896515e-03 -2.285279929637908936e-01
-3.444214761257171631e-01 -1.764451861381530762e-01 -3.668455779552459717e-01
-1.043164730072021484e-01 4.152268469333648682e-01 2.001108378171920776e-01
1.927095204591751099e-01 2.447432428598403931e-01 2.501530349254608154e-01
-2.194189727306365967e-01 -1.684509031474590302e-02 1.885124891996383667e-01
-1.291969567537307739e-01 7.358267903327941895e-02 -4.029359817504882812e-01
-3.538111224770545959e-02 7.358267903327941895e-02 -3.527838587760925293e-01
-2.637284100055694580e-01 -6.925880908966064453e-01 -4.431259036064147949e-01
2.031417191028594971e-01 5.476852059364318848e-01 1.882843822240829468e-01
1.065392866730690002e-01 6.531725525856018066e-01 1.661044657230377197e-01
1.772581338882446289e-01 7.358267903327941895e-02 -2.789182960987091064e-01
3.488574922084808350e-01 -5.600234270095825195e-01 1.727927029132843018e-01
3.263294696807861328e-01 -5.598219037055969238e-01 2.501530349254608154e-01
1.133832484483718872e-01 -1.684509031474590302e-02 1.602086126804351807e-01
2.584303021430969238e-01 -2.206767946481704712e-01 -3.635807037353515625e-01
2.584303021430969238e-01 -4.867679476737976074e-01 -4.128030240535736084e-01
3.342626690864562988e-01 4.285673424601554871e-02 2.501530349254608154e-01
2.786360681056976318e-01 -6.891849040985107422e-01 2.501530349254608154e-01
-3.425370752811431885e-01 1.114667952060699463e-01 1.841199100017547607e-01
2.226338982582092285e-01 1.147875487804412842e-01 1.559571325778961182e-01
-2.846707105636596680e-01 7.178792953491210938e-01 1.918094158172607422e-01
1.129761803895235062e-03 4.081574976444244385e-01 2.501530349254608154e-01
1.277857124805450439e-01 3.241941034793853760e-01 2.130109667778015137e-01
2.186187505722045898e-01 6.560572981834411621e-01 1.559571325778961182e-01
-2.785806655883789062e-01 -2.098396718502044678e-01 -3.526986837387084961e-01
1.748204827308654785e-01 3.118463754653930664e-01 1.559571325778961182e-01
1.993647813796997070e-01 7.178792953491210938e-01 1.591533273458480835e-01
3.488574922084808350e-01 -4.289668798446655273e-02 1.953766047954559326e-01
-1.528590768575668335e-01 -1.684509031474590302e-02 1.209897920489311218e-01
-2.217045724391937256e-01 7.178792953491210938e-01 2.409025877714157104e-01
-2.706704139709472656e-01 8.697288483381271362e-02 2.501530349254608154e-01
3.488574922084808350e-01 -3.969132900238037109e-01 2.260448187589645386e-01
2.473128437995910645e-01 7.358267903327941895e-02 -7.903845608234405518e-02
-2.100100070238113403e-01 7.358267903327941895e-02 1.806919835507869720e-02
2.031417191028594971e-01 3.364602923393249512e-01 1.971189826726913452e-01
5.095282196998596191e-02 7.358267903327941895e-02 4.237897694110870361e-02
-3.425370752811431885e-01 6.809881925582885742e-01 2.026721984148025513e-01
-2.755558192729949951e-01 -1.974049210548400879e-01 -4.431259036064147949e-01
-3.421651721000671387e-01 -6.381853818893432617e-01 1.597249507904052734e-01
-2.736531496047973633e-01 7.358267903327941895e-02 5.880321934819221497e-02
-2.713629603385925293e-01 5.087008476257324219e-01 1.939475238323211670e-01
-6.227632239460945129e-02 7.358267903327941895e-02 -3.067641258239746094e-01
-3.385869413614273071e-02 7.358267903327941895e-02 1.458080671727657318e-02
2.473320811986923218e-01 -1.684509031474590302e-02 1.059167608618736267e-01
2.677274942398071289e-01 -1.773539334535598755e-01 -3.526986837387084961e-01
-3.444214761257171631e-01 -2.606055736541748047e-01 2.187758088111877441e-01
-3.444214761257171631e-01 -4.637324213981628418e-01 -3.602599203586578369e-01
1.937520056962966919e-01 -1.684509031474590302e-02 -4.215643107891082764e-01
3.025400042533874512e-01 -5.027955174446105957e-01 -4.431259036064147949e-01
-3.224412500858306885e-01 2.064658701419830322e-02 2.501530349254608154e-01
-3.265809714794158936e-01 7.358267903327941895e-02 9.983954578638076782e-02
2.725826501846313477e-01 5.780593752861022949e-01 2.030459493398666382e-01
-3.444214761257171631e-01 -3.676787018775939941e-01 2.001401633024215698e-01
1.475435346364974976e-01 3.443284332752227783e-01 2.501530349254608154e-01
1.531508266925811768e-01 4.134185314178466797e-01 2.501530349254608154e-01
-9.216479212045669556e-02 -1.684509031474590302e-02 -1.689840108156204224e-01
1.857620328664779663e-01 4.193427562713623047e-01 2.501530349254608154e-01
-7.268077880144119263e-02 -1.684509031474590302e-02 1.996326744556427002e-01
1.753719449043273926e-01 7.358267903327941895e-02 1.110311895608901978e-01
3.273445069789886475e-01 -1.259115189313888550e-01 -3.526986837387084961e-01
2.721475362777709961e-01 5.504893064498901367e-01 2.279172837734222412e-01
1.542940586805343628e-01 1.052173525094985962e-01 1.559571325778961182e-01
3.432062566280364990e-01 1.276876479387283325e-01 1.567010134458541870e-01
-2.581193149089813232e-01 -3.146381676197052002e-01 -4.431259036064147949e-01
3.488574922084808350e-01 -4.089696705341339111e-01 1.666660308837890625e-01
-6.956754805287346244e-05 7.358267903327941895e-02 -4.218968003988265991e-02
3.029147088527679443e-01 3.116668164730072021e-01 1.559571325778961182e-01
-1.482741385698318481e-01 7.178792953491210938e-01 1.648924946784973145e-01
-1.907825917005538940e-01 -9.929670952260494232e-03 2.501530349254608154e-01
2.584303021430969238e-01 -8.070374727249145508e-01 1.619006246328353882e-01
-2.539942562580108643e-01 -7.141267657279968262e-01 2.301946133375167847e-01
-4.387446492910385132e-02 -1.684509031474590302e-02 -1.124522387981414795e-01
3.063655495643615723e-01 -5.410057902336120605e-01 -4.431259036064147949e-01
-2.712740898132324219e-01 3.700855970382690430e-01 1.898627728223800659e-01
-1.919230967760086060e-01 1.165143400430679321e-01 1.559571325778961182e-01
-3.123846054077148438e-01 -6.648796796798706055e-01 -4.431259036064147949e-01
2.031417191028594971e-01 4.407054781913757324e-01 1.718711405992507935e-01
-2.935337126255035400e-01 -3.801821470260620117e-01 1.597249507904052734e-01
2.865032851696014404e-01 -9.035109728574752808e-02 2.501530349254608154e-01
-2.539942562580108643e-01 -4.100241065025329590e-01 2.204219847917556763e-01
2.367505580186843872e-01 3.323459625244140625e-02 -4.431259036064147949e-01
3.126781880855560303e-01 7.358267903327941895e-02 7.704778574407100677e-03
3.404223322868347168e-01 -8.306931853294372559e-01 1.651636511087417603e-01
1.647180467844009399e-01 -1.684509031474590302e-02 7.688829302787780762e-02
-3.425370752811431885e-01 4.304977357387542725e-01 1.851633340120315552e-01
-9.002112783491611481e-03 5.305904150009155273e-01 2.501530349254608154e-01
-3.444214761257171631e-01 -1.089676865376532078e-03 -3.193215653300285339e-02
-1.323362998664379120e-02 7.358267903327941895e-02 -2.379332631826400757e-01
-3.440953493118286133e-01 -8.306931853294372559e-01 2.024715691804885864e-01
2.584303021430969238e-01 -1.417527645826339722e-01 1.773153394460678101e-01
2.031417191028594971e-01 2.938016057014465332e-01 1.844854503870010376e-01
1.034311112016439438e-02 7.358267903327941895e-02 -4.103744924068450928e-01
3.090578615665435791e-01 -4.499968588352203369e-01 1.597249507904052734e-01
-2.162017375230789185e-01 6.623122692108154297e-01 2.501530349254608154e-01
2.766555249691009521e-01 3.134959563612937927e-02 -4.431259036064147949e-01
1.508340686559677124e-01 2.299688458442687988e-01 2.501530349254608154e-01
1.544571369886398315e-01 7.358267903327941895e-02 -1.766954809427261353e-01
3.984389826655387878e-02 -1.684509031474590302e-02 1.377932876348495483e-01
3.488574922084808350e-01 1.715965010225772858e-02 -2.382108569145202637e-01
-6.465947628021240234e-02 7.358267903327941895e-02 -1.002443283796310425e-01
-3.149001598358154297e-01 -3.294162452220916748e-01 2.501530349254608154e-01
3.286837637424468994e-01 8.662909269332885742e-03 -4.431259036064147949e-01
3.488574922084808350e-01 -6.384648084640502930e-01 -3.849764168262481689e-01
-3.444214761257171631e-01 -7.471092790365219116e-02 -3.530788719654083252e-01
-2.724384367465972900e-01 -1.605495363473892212e-01 -4.431259036064147949e-01
-1.298904269933700562e-01 8.078024536371231079e-02 1.559571325778961182e-01
2.584303021430969238e-01 -1.928211562335491180e-02 1.876064687967300415e-01
-1.974763274192810059e-01 6.296240687370300293e-01 1.579276174306869507e-01
-2.292703464627265930e-02 6.223999261856079102e-01 1.685366332530975342e-01
-3.061901330947875977e-01 -3.306098878383636475e-01 -3.526986837387084961e-01
3.432062566280364990e-01 3.110118210315704346e-01 2.080852687358856201e-01
-2.539466023445129395e-01 -5.203200504183769226e-03 2.501530349254608154e-01
-5.534037575125694275e-02 -1.684509031474590302e-02 -4.181125760078430176e-01
-3.019643127918243408e-01 -1.684509031474590302e-02 -6.193733215332031250e-02
3.488574922084808350e-01 1.540611032396554947e-02 1.206820011138916016e-01
1.100545842200517654e-02 6.566289663314819336e-01 2.501530349254608154e-01
-2.937095426023006439e-02 1.261239349842071533e-01 1.559571325778961182e-01
-3.032935261726379395e-01 3.228438198566436768e-01 1.559571325778961182e-01
-3.168495595455169678e-01 -1.684509031474590302e-02 -7.876127026975154877e-03
-1.428629159927368164e-01 1.770538091659545898e-01 2.501530349254608154e-01
-3.301866352558135986e-01 3.458124399185180664e-01 2.501530349254608154e-01
2.369126975536346436e-01 7.358267903327941895e-02 -3.628469109535217285e-01
-5.609650537371635437e-02 -1.684509031474590302e-02 -3.341225981712341309e-01
5.985372886061668396e-02 7.071759104728698730e-01 1.559571325778961182e-01
1.277857124805450439e-01 4.380379021167755127e-01 1.916197836399078369e-01
-2.283131182193756104e-01 -1.684509031474590302e-02 -4.217796027660369873e-01
-1.855096407234668732e-02 -1.684509031474590302e-02 -4.410656690597534180e-01
2.584303021430969238e-01 -5.442330837249755859e-01 2.446035146713256836e-01
-2.717137932777404785e-01 5.882726311683654785e-01 2.100905179977416992e-01
1.006322354078292847e-02 7.358267903327941895e-02 1.445493102073669434e-01
-3.117616772651672363e-01 6.679415106773376465e-01 2.501530349254608154e-01
3.433949649333953857e-01 -6.836893558502197266e-01 -3.526986837387084961e-01
-2.539942562580108643e-01 -2.728424668312072754e-01 -3.981596231460571289e-01
-3.002558350563049316e-01 -4.649452865123748779e-01 1.597249507904052734e-01
2.584303021430969238e-01 -4.030482172966003418e-01 -4.364504814147949219e-01
1.277857124805450439e-01 4.162903726100921631e-01 1.624676734209060669e-01
7.522384822368621826e-02 3.988499194383621216e-02 -4.431259036064147949e-01
3.488574922084808350e-01 -4.957353472709655762e-01 -3.986323177814483643e-01
2.584303021430969238e-01 -6.102507114410400391e-01 2.205502390861511230e-01
-3.425370752811431885e-01 1.105479821562767029e-01 2.153964340686798096e-01
-8.094744756817817688e-03 1.115006878972053528e-01 2.501530349254608154e-01
4.747669398784637451e-02 -1.684509031474590302e-02 -3.508454859256744385e-01
-3.056735098361968994e-01 5.202754139900207520e-01 1.559571325778961182e-01
-9.277030825614929199e-02 -1.684509031474590302e-02 -3.913330435752868652e-01
2.899770811200141907e-02 7.358267903327941895e-02 -3.554230332374572754e-01
-3.444214761257171631e-01 -5.472607612609863281e-01 -4.219160974025726318e-01
-2.545337975025177002e-01 7.178792953491210938e-01 1.754071712493896484e-01
1.861522644758224487e-01 9.920518845319747925e-02 2.501530349254608154e-01
2.954844534397125244e-01 -2.649138569831848145e-01 -3.526986837387084961e-01
-2.752544283866882324e-01 -3.309012055397033691e-01 1.597249507904052734e-01
-3.401406705379486084e-01 -3.248862922191619873e-01 -4.431259036064147949e-01
-3.150238394737243652e-01 -1.813351958990097046e-01 2.501530349254608154e-01
2.584303021430969238e-01 -7.214802503585815430e-02 -4.042139351367950439e-01
2.156754136085510254e-01 7.358267903327941895e-02 -1.208162531256675720e-01
5.242925137281417847e-02 1.571933925151824951e-01 2.425221949815750122e-01
-1.652581095695495605e-01 5.815367698669433594e-01 2.501530349254608154e-01
-3.078106641769409180e-01 1.506975442171096802e-01 2.501530349254608154e-01
3.476528823375701904e-01 -1.054686531424522400e-01 2.501530349254608154e-01
7.194312661886215210e-02 7.358267903327941895e-02 -1.708331853151321411e-01
-2.844224572181701660e-01 -4.625452160835266113e-01 2.501530349254608154e-01
-9.093450754880905151e-02 7.358267903327941895e-02 9.583448618650436401e-02
-3.444214761257171631e-01 -3.975426256656646729e-01 -3.818947970867156982e-01
-2.672607898712158203e-01 -7.968846559524536133e-01 2.501530349254608154e-01
3.210739791393280029e-01 -3.694797158241271973e-01 -4.431259036064147949e-01
2.975730895996093750e-01 -7.539593577384948730e-01 1.597249507904052734e-01
-3.233719766139984131e-01 -5.077826380729675293e-01 2.501530349254608154e-01
-2.366053909063339233e-01 6.531725525856018066e-01 1.825076192617416382e-01
-2.763921916484832764e-01 2.493758201599121094e-01 1.559571325778961182e-01
2.728290855884552002e-01 5.012532472610473633e-01 1.889155656099319458e-01
-2.411106079816818237e-01 1.542827859520912170e-02 -4.431259036064147949e-01
3.488574922084808350e-01 5.945868417620658875e-02 2.241229116916656494e-01
-1.754640489816665649e-01 -1.684509031474590302e-02 -4.726828634738922119e-02
2.584303021430969238e-01 -1.009444445371627808e-01 2.120875716209411621e-01
3.414703011512756348e-01 -5.335910916328430176e-01 -4.431259036064147949e-01
2.655289173126220703e-01 -3.624800145626068115e-01 -3.526986837387084961e-01
2.807888388633728027e-01 -1.684509031474590302e-02 -6.611140817403793335e-02
-2.446494102478027344e-01 7.358267903327941895e-02 3.904356807470321655e-02
-5.002368614077568054e-02 -1.684509031474590302e-02 7.525585591793060303e-02
-2.684251070022583008e-01 7.358267903327941895e-02 -4.342573881149291992e-01
-1.762912720441818237e-01 5.650493502616882324e-01 2.218730598688125610e-01
-2.292703464627265930e-02 3.111868202686309814e-01 1.896969676017761230e-01
3.077717125415802002e-01 -6.957375407218933105e-01 1.597249507904052734e-01
-3.444214761257171631e-01 -1.507295202463865280e-02 -3.361901640892028809e-01
-3.444214761257171631e-01 3.057514503598213196e-02 -1.034336909651756287e-01
-2.536342442035675049e-01 7.358267903327941895e-02 -2.640633285045623779e-01
1.991311758756637573e-01 7.358267903327941895e-02 7.075520604848861694e-02
2.584303021430969238e-01 -4.424401819705963135e-01 -3.601252734661102295e-01
-4.625588282942771912e-02 1.382902562618255615e-01 2.165387570858001709e-01
1.386026889085769653e-01 -1.684509031474590302e-02 -1.650997698307037354e-01
-2.292703464627265930e-02 3.810619413852691650e-01 2.312527000904083252e-01
2.727365493774414062e-01 1.466063708066940308e-01 1.942104399204254150e-01
2.866232991218566895e-01 4.470731317996978760e-01 1.559571325778961182e-01
-2.823356688022613525e-01 -4.027175009250640869e-01 -4.431259036064147949e-01
2.754124104976654053e-01 -6.125591993331909180e-01 -4.431259036064147949e-01
3.488574922084808350e-01 -7.163271903991699219e-01 -4.086962938308715820e-01
-1.075410395860671997e-01 2.608697414398193359e-01 1.733634024858474731e-01
-1.080531254410743713e-01 1.768293976783752441e-01 1.691165119409561157e-01
3.208889365196228027e-01 -7.029763460159301758e-01 2.501530349254608154e-01
2.584303021430969238e-01 -3.602777719497680664e-01 1.864165067672729492e-01
3.432062566280364990e-01 6.938974261283874512e-01 2.473068535327911377e-01
9.462211281061172485e-02 6.866192817687988281e-01 2.501530349254608154e-01
3.213799595832824707e-01 -6.959106922149658203e-01 -4.431259036064147949e-01
-3.444214761257171631e-01 4.126459732651710510e-02 -2.178731560707092285e-01
5.242925137281417847e-02 6.355519890785217285e-01 1.827165037393569946e-01
-1.513118296861648560e-01 2.000206559896469116e-01 1.559571325778961182e-01
-1.030293926596641541e-01 7.358267903327941895e-02 1.217162585817277431e-03
7.041566818952560425e-02 -1.684509031474590302e-02 1.828227639198303223e-01
-3.425370752811431885e-01 1.473236531019210815e-01 1.670031398534774780e-01
-1.101252734661102295e-01 -1.684509031474590302e-02 -2.049244940280914307e-01
-2.037147730588912964e-01 7.518304884433746338e-02 2.501530349254608154e-01
-3.233316838741302490e-01 -2.631339430809020996e-01 -4.431259036064147949e-01
-7.949180901050567627e-03 2.446488887071609497e-01 2.501530349254608154e-01
-2.842392623424530029e-01 -8.306931853294372559e-01 -3.634139597415924072e-01
-2.995367050170898438e-01 3.259025514125823975e-01 2.501530349254608154e-01
-3.444214761257171631e-01 -1.072383224964141846e-01 2.298859059810638428e-01
1.424914691597223282e-02 6.781784445047378540e-02 -4.431259036064147949e-01
-3.444214761257171631e-01 1.379437278956174850e-02 1.802504211664199829e-01
2.584303021430969238e-01 -7.320011258125305176e-01 -4.316172599792480469e-01
1.351243555545806885e-01 -1.684509031474590302e-02 1.862085461616516113e-01
2.997542321681976318e-01 -6.014701724052429199e-01 1.597249507904052734e-01
2.584303021430969238e-01 -6.479378938674926758e-01 -4.157298505306243896e-01
-1.631163358688354492e-01 5.207966566085815430e-01 1.559571325778961182e-01
2.584303021430969238e-01 -4.837388545274734497e-02 2.229897230863571167e-01
2.324156910181045532e-01 7.178792953491210938e-01 1.695663034915924072e-01
-3.299191594123840332e-01 -5.779512971639633179e-02 1.597249507904052734e-01
-2.539942562580108643e-01 -1.298765391111373901e-01 1.968386471271514893e-01
-2.735487222671508789e-01 3.822125196456909180e-01 2.501530349254608154e-01
4.640049487352371216e-02 5.542635321617126465e-01 2.501530349254608154e-01
-2.903723418712615967e-01 -2.998347766697406769e-02 2.501530349254608154e-01
2.698985934257507324e-01 7.358267903327941895e-02 -1.280451416969299316e-01
-2.722103297710418701e-01 2.757613956928253174e-01 2.329327464103698730e-01
-2.172442227602005005e-01 7.358267903327941895e-02 -9.231235831975936890e-02
-2.628681808710098267e-02 7.178792953491210938e-01 2.478619962930679321e-01
3.488574922084808350e-01 1.585003919899463654e-02 -9.987996518611907959e-02
3.488574922084808350e-01 -4.981629550457000732e-01 1.642109453678131104e-01
3.488574922084808350e-01 8.850999292917549610e-04 -4.309054091572761536e-02
1.263749748468399048e-01 7.358267903327941895e-02 1.512082219123840332e-01
1.934570223093032837e-01 3.575509786605834961e-01 1.559571325778961182e-01
-3.425370752811431885e-01 5.935565233230590820e-01 2.337737381458282471e-01
3.488574922084808350e-01 -5.349038243293762207e-01 -4.051272869110107422e-01
-2.404409795999526978e-01 6.972017288208007812e-01 1.559571325778961182e-01
1.708731353282928467e-01 3.685227632522583008e-01 2.501530349254608154e-01
-1.264111846685409546e-01 2.962694764137268066e-01 2.501530349254608154e-01
2.887815535068511963e-01 -1.353979855775833130e-01 1.597249507904052734e-01
-4.011582583189010620e-02 -1.684509031474590302e-02 -2.064405977725982666e-01
2.584303021430969238e-01 -1.367439478635787964e-01 -4.003545045852661133e-01
-3.046209216117858887e-01 7.358267903327941895e-02 -5.133555084466934204e-02
3.035761788487434387e-02 6.462416052818298340e-01 1.559571325778961182e-01
3.225149512290954590e-01 -5.760198831558227539e-01 -3.526986837387084961e-01
-2.821093797683715820e-01 -6.507309675216674805e-01 2.501530349254608154e-01
-3.444214761257171631e-01 -7.147240638732910156e-01 -4.123623967170715332e-01
3.432062566280364990e-01 5.911839008331298828e-01 1.939310282468795776e-01
-2.181181460618972778e-01 7.358267903327941895e-02 -3.869157731533050537e-01
3.488574922084808350e-01 7.556022144854068756e-03 7.211282104253768921e-02
2.931548655033111572e-01 -5.511608719825744629e-02 2.501530349254608154e-01
-2.684004008769989014e-01 -6.453014016151428223e-01 1.597249507904052734e-01
2.584303021430969238e-01 -7.783753871917724609e-01 2.361051291227340698e-01
-2.539942562580108643e-01 -5.167757272720336914e-01 -3.656757473945617676e-01
-1.192630361765623093e-02 6.479846686124801636e-02 2.501530349254608154e-01
-2.489934116601943970e-01 -1.684509031474590302e-02 5.511512234807014465e-02
-2.777507305145263672e-01 -1.484528183937072754e-01 1.597249507904052734e-01
2.031417191028594971e-01 2.549766898155212402e-01 1.958996802568435669e-01
-1.950203329324722290e-01 3.243342638015747070e-01 1.559571325778961182e-01
-3.369206488132476807e-01 4.631547331809997559e-01 1.559571325778961182e-01
1.424886584281921387e-01 -1.684509031474590302e-02 -2.625930011272430420e-01
2.584303021430969238e-01 -7.662521004676818848e-01 2.002290338277816772e-01
3.432062566280364990e-01 1.146015748381614685e-01 1.872693598270416260e-01
-2.357864230871200562e-01 7.163327187299728394e-02 -4.431259036064147949e-01
2.746328413486480713e-01 1.700687855482101440e-01 1.559571325778961182e-01
1.425225585699081421e-01 7.358267903327941895e-02 1.008179038763046265e-01
-2.539942562580108643e-01 -3.345114290714263916e-01 2.366034835577011108e-01
-2.163776159286499023e-01 1.382902562618255615e-01 2.411728054285049438e-01
-4.582762345671653748e-02 6.695097684860229492e-01 1.559571325778961182e-01
-2.292703464627265930e-02 5.655329823493957520e-01 1.674767285585403442e-01
3.233897984027862549e-01 7.178792953491210938e-01 2.178899645805358887e-01
-2.902724742889404297e-01 -1.482475250959396362e-01 2.501530349254608154e-01
3.488574922084808350e-01 -6.171853542327880859e-01 -4.418278038501739502e-01
2.352188825607299805e-01 1.382902562618255615e-01 2.148880064487457275e-01
2.584303021430969238e-01 -2.686679065227508545e-01 -3.798885941505432129e-01
-2.329136133193969727e-01 1.382902562618255615e-01 1.833046227693557739e-01
-2.539942562580108643e-01 -3.843704164028167725e-01 -3.653734624385833740e-01
-2.539942562580108643e-01 -4.173746407032012939e-01 2.492177635431289673e-01
-2.706585228443145752e-01 4.870586991310119629e-01 1.615680754184722900e-01
-2.605533301830291748e-01 -7.836437225341796875e-01 1.597249507904052734e-01
-2.857736945152282715e-01 -6.808074116706848145e-01 -3.526986837387084961e-01
2.262908369302749634e-01 7.358267903327941895e-02 -2.549053430557250977e-01
1.277857124805450439e-01 5.714508295059204102e-01 2.473718971014022827e-01
-3.444214761257171631e-01 -7.663648128509521484e-01 1.808779388666152954e-01
-3.020229339599609375e-01 -7.630525529384613037e-02 -3.526986837387084961e-01
3.006621003150939941e-01 -8.045585155487060547e-01 -3.526986837387084961e-01
-2.539942562580108643e-01 -3.828994929790496826e-02 1.685677915811538696e-01
2.584303021430969238e-01 -5.877858996391296387e-01 2.425505816936492920e-01
3.488574922084808350e-01 -4.922561645507812500e-01 -3.633150160312652588e-01
-3.425370752811431885e-01 8.576092123985290527e-02 2.501017749309539795e-01
-2.593669667840003967e-02 6.583428978919982910e-01 2.501530349254608154e-01
2.719808220863342285e-01 1.659601926803588867e-01 2.374664098024368286e-01
-9.979107975959777832e-02 -1.684509031474590302e-02 -2.136829681694507599e-02
-7.159835100173950195e-02 7.358267903327941895e-02 -2.362339645624160767e-01
1.270437091588973999e-01 -1.684509031474590302e-02 -1.081021130084991455e-02
-1.053607910871505737e-01 2.860415577888488770e-01 1.914475709199905396e-01
-2.811520993709564209e-01 -1.153223812580108643e-01 2.501530349254608154e-01
2.511658892035484314e-02 2.507655024528503418e-01 2.501530349254608154e-01
3.265530169010162354e-01 -7.643311619758605957e-01 1.597249507904052734e-01
-2.680440247058868408e-01 1.003521010279655457e-01 1.559571325778961182e-01
2.964179217815399170e-01 -1.994248330593109131e-01 2.501530349254608154e-01
1.464891433715820312e-01 3.355469703674316406e-01 1.559571325778961182e-01
-2.982074916362762451e-01 -4.755570888519287109e-01 -3.526986837387084961e-01
3.432062566280364990e-01 5.204989314079284668e-01 2.182912081480026245e-01
3.488574922084808350e-01 -2.727774083614349365e-01 -4.196937084197998047e-01
-3.444214761257171631e-01 2.634454704821109772e-02 -1.406778544187545776e-01
5.242925137281417847e-02 5.099338889122009277e-01 1.779904961585998535e-01
-2.318473160266876221e-01 -1.684509031474590302e-02 -1.478395164012908936e-01
2.109301686286926270e-01 4.889180511236190796e-02 -4.431259036064147949e-01
-3.425370752811431885e-01 2.123601287603378296e-01 2.301232069730758667e-01
-3.837620839476585388e-02 -1.684509031474590302e-02 -3.592110276222229004e-01
2.248736917972564697e-01 -1.684509031474590302e-02 8.011470735073089600e-02
3.106078505516052246e-01 -1.522215306758880615e-01 -4.431259036064147949e-01
3.438245952129364014e-01 7.358267903327941895e-02 -3.711501955986022949e-01
-1.466334611177444458e-01 2.124792188405990601e-01 2.501530349254608154e-01
-3.444214761257171631e-01 -2.115252315998077393e-01 -4.395861625671386719e-01
-3.119458258152008057e-01 -2.691417746245861053e-02 1.597249507904052734e-01
-2.539942562580108643e-01 -4.411256313323974609e-01 -3.660018742084503174e-01
-1.876633763313293457e-01 6.531725525856018066e-01 2.411801815032958984e-01
3.432062566280364990e-01 5.067248940467834473e-01 1.878263503313064575e-01
-1.116844341158866882e-01 -1.684509031474590302e-02 -3.597899675369262695e-01
-2.971064150333404541e-01 -8.306931853294372559e-01 -3.993166387081146240e-01
-3.444214761257171631e-01 -6.166934370994567871e-01 -4.279456436634063721e-01
1.527999639511108398e-01 7.358267903327941895e-02 -9.427034109830856323e-02
