-5.847473144531250000e-01 -2.091836631298065186e-01 -4.004677832126617432e-01
2.180963158607482910e-01 1.968716084957122803e-01 -3.470110595226287842e-01
-6.678786873817443848e-02 -6.664170417934656143e-03 -4.006646871566772461e-01
3.550814688205718994e-01 7.360316067934036255e-02 6.373249292373657227e-01
3.386591374874114990e-01 -1.889445632696151733e-02 1.666088216006755829e-02
-6.873788684606552124e-02 -5.216408148407936096e-02 9.047164916992187500e-01
-1.204510703682899475e-01 4.793884605169296265e-02 -3.762152493000030518e-01
3.493594527244567871e-01 2.028354257345199585e-01 -4.655962809920310974e-02
-3.229340016841888428e-01 -2.370832562446594238e-01 -1.483036130666732788e-01
6.500791758298873901e-02 -2.444190233945846558e-01 -1.058588549494743347e-01
3.115406632423400879e-01 5.258975550532341003e-02 -4.006646871566772461e-01
-3.424360230565071106e-02 8.549839258193969727e-02 -3.762152493000030518e-01
3.377866446971893311e-01 -1.871357113122940063e-01 3.203827738761901855e-01
3.233602344989776611e-01 -2.226967811584472656e-01 -1.465868502855300903e-01
2.067079693078994751e-01 -8.059540390968322754e-02 -1.024967581033706665e-01
3.249864280223846436e-01 8.597371727228164673e-02 -4.006646871566772461e-01
3.377866446971893311e-01 7.141439616680145264e-02 1.339015215635299683e-01
2.074998617172241211e-01 -2.444190233945846558e-01 -3.622792065143585205e-01
9.559983760118484497e-02 1.968716084957122803e-01 5.111497640609741211e-01
3.428704738616943359e-01 2.028354257345199585e-01 7.282863259315490723e-01
-4.748033583164215088e-01 -2.444190233945846558e-01 -1.051940694451332092e-01
3.377866446971893311e-01 -1.177118998020887375e-02 3.199384510517120361e-01
9.683202952146530151e-03 -1.370867937803268433e-01 -4.006646871566772461e-01
1.272919476032257080e-01 -2.146771550178527832e-01 -3.762152493000030518e-01
1.981216222047805786e-01 -2.370832562446594238e-01 -1.244059577584266663e-01
-4.235611557960510254e-01 -2.444190233945846558e-01 -2.876470685005187988e-01
6.890513747930526733e-02 1.968716084957122803e-01 -2.366991899907588959e-02
3.175177574157714844e-01 1.157396435737609863e-01 -3.825181722640991211e-01
1.284187436103820801e-01 1.968716084957122803e-01 5.229544639587402344e-01
2.235258370637893677e-01 -2.444190233945846558e-01 -2.204644978046417236e-01
-5.495302677154541016e-01 -2.388731539249420166e-01 -1.914663463830947876e-01
2.871560156345367432e-01 -2.388731539249420166e-01 -1.214917525649070740e-01
7.484735548496246338e-02 -2.388731539249420166e-01 -2.331907004117965698e-01
-1.862214058637619019e-01 1.287900842726230621e-02 -1.024967581033706665e-01
-1.563980430364608765e-01 -2.077668756246566772e-01 -4.006646871566772461e-01
1.836013495922088623e-01 2.028354257345199585e-01 -9.347167611122131348e-02
3.521373569965362549e-01 -1.889445632696151733e-02 6.293451786041259766e-01
9.442153573036193848e-02 -2.090781480073928833e-01 -3.762152493000030518e-01
2.169346213340759277e-01 1.074200421571731567e-01 -2.709521651268005371e-01
-1.067133471369743347e-01 2.028354257345199585e-01 -3.984352350234985352e-01
-1.549700349569320679e-01 1.074200421571731567e-01 -2.418917119503021240e-01
3.515581488609313965e-01 1.807950809597969055e-02 -9.369874373078346252e-03
2.829563319683074951e-01 -2.231887429952621460e-01 9.106802940368652344e-01
-1.335135698318481445e-01 -2.444190233945846558e-01 -3.760174810886383057e-01
3.388236761093139648e-01 -1.889445632696151733e-02 7.666627168655395508e-01
2.670176029205322266e-01 9.018088132143020630e-02 9.047164916992187500e-01
-6.764058955013751984e-03 1.968716084957122803e-01 5.112020969390869141e-01
-1.188135668635368347e-01 -6.453595310449600220e-02 -1.024967581033706665e-01
-1.357212662696838379e-01 6.788612902164459229e-02 -1.026679575443267822e-01
-5.617430061101913452e-02 8.227176964282989502e-02 -1.072581782937049866e-01
-3.296840190887451172e-02 -1.917625069618225098e-01 -3.762152493000030518e-01
-5.847473144531250000e-01 -9.706385433673858643e-02 -2.212156653404235840e-01
-5.847473144531250000e-01 9.588460624217987061e-02 -2.228842526674270630e-01
3.233602344989776611e-01 -2.114563435316085815e-01 -3.061709105968475342e-01
-7.554164528846740723e-02 -9.884136170148849487e-02 -4.006646871566772461e-01
-5.512204766273498535e-01 8.740545809268951416e-02 -3.762152493000030518e-01
1.648622900247573853e-01 1.157396435737609863e-01 -1.633540242910385132e-01
1.192723214626312256e-01 1.968716084957122803e-01 -9.814833104610443115e-02
3.124513626098632812e-01 1.968716084957122803e-01 4.925436675548553467e-01
3.550814688205718994e-01 -2.022401243448257446e-01 7.970793247222900391e-01
-7.887256890535354614e-02 -8.469687402248382568e-02 9.106802940368652344e-01
2.877077758312225342e-01 -2.388731539249420166e-01 -3.585398495197296143e-01
-2.903602421283721924e-01 -2.137830555438995361e-01 -1.024967581033706665e-01
-2.196477353572845459e-01 -2.388731539249420166e-01 -1.788805574178695679e-01
-4.033072590827941895e-01 -2.388731539249420166e-01 -3.338402807712554932e-01
-1.266478151082992554e-01 1.124290972948074341e-01 -4.006646871566772461e-01
-1.182128638029098511e-01 1.157396435737609863e-01 -2.405779510736465454e-01
3.377866446971893311e-01 -1.129178777337074280e-01 7.477657794952392578e-01
3.550814688205718994e-01 5.097186565399169922e-02 2.428546845912933350e-01
1.253749281167984009e-01 -1.116611361503601074e-01 -1.084614172577857971e-01
1.897455006837844849e-01 2.028354257345199585e-01 2.995879054069519043e-01
2.384648770093917847e-01 2.028354257345199585e-01 4.390462338924407959e-01
2.693833708763122559e-01 -1.504395306110382080e-01 -4.006646871566772461e-01
3.126017749309539795e-01 -1.677674613893032074e-02 -1.024967581033706665e-01
-3.145587146282196045e-01 -5.462023243308067322e-02 -4.006646871566772461e-01
5.925590172410011292e-03 2.028354257345199585e-01 -3.686053454875946045e-01
2.994260489940643311e-01 2.028354257345199585e-01 5.605929493904113770e-01
-1.219893470406532288e-01 1.978662461042404175e-01 4.981410205364227295e-01
1.017414778470993042e-01 1.968716084957122803e-01 1.558256596326828003e-01
-1.195678412914276123e-01 -2.049557268619537354e-01 9.047164916992187500e-01
-7.613462209701538086e-02 1.968716084957122803e-01 -2.562515735626220703e-01
3.502352833747863770e-01 -1.494914144277572632e-01 -1.685458868741989136e-01
9.058996289968490601e-02 1.968716084957122803e-01 6.235556676983833313e-02
-3.707774216309189796e-03 1.157396435737609863e-01 -3.454372286796569824e-01
3.409576117992401123e-01 1.540478914976119995e-01 9.098094701766967773e-01
3.387405574321746826e-01 -8.329777419567108154e-02 4.292764514684677124e-02
-1.548760533332824707e-01 -2.370832562446594238e-01 -3.536180853843688965e-01
3.186562061309814453e-01 1.968716084957122803e-01 -1.843524575233459473e-01
-4.067808017134666443e-02 2.028354257345199585e-01 -4.288925975561141968e-02
1.337211281061172485e-01 -2.151408493518829346e-01 9.047164916992187500e-01
-2.363733798265457153e-01 -2.370832562446594238e-01 -3.368176519870758057e-01
2.600583136081695557e-01 2.028354257345199585e-01 -3.964608609676361084e-01
-5.767551064491271973e-01 2.417770214378833771e-02 -3.025428950786590576e-01
-2.738315463066101074e-01 -2.114613354206085205e-01 -3.762152493000030518e-01
-1.573214977979660034e-01 -4.711645841598510742e-02 -3.762152493000030518e-01
-7.712945342063903809e-02 1.968716084957122803e-01 2.766462266445159912e-01
-3.326487839221954346e-01 -2.388731539249420166e-01 -3.593333959579467773e-01
6.826446205377578735e-02 2.028354257345199585e-01 4.485383331775665283e-01
-2.308266907930374146e-01 -2.388731539249420166e-01 -2.389550656080245972e-01
-2.851708531379699707e-01 1.157396435737609863e-01 -1.081174165010452271e-01
-1.493756622076034546e-01 -2.388731539249420166e-01 -2.639462947845458984e-01
-2.732598483562469482e-01 1.074200421571731567e-01 -2.123052477836608887e-01
5.135352164506912231e-02 2.028354257345199585e-01 2.716553211212158203e-01
-5.155363678932189941e-01 -6.483194231986999512e-02 -2.002837061882019043e-01
2.866017520427703857e-01 3.699090704321861267e-02 9.106802940368652344e-01
3.550814688205718994e-01 -4.919402301311492920e-02 2.555420100688934326e-01
3.550814688205718994e-01 -2.047729045152664185e-01 2.443592399358749390e-01
2.166903167963027954e-01 2.028354257345199585e-01 5.964497923851013184e-01
3.377866446971893311e-01 -1.241840794682502747e-01 2.063453197479248047e-01
2.675344645977020264e-01 2.028354257345199585e-01 7.025622129440307617e-01
-5.769720077514648438e-01 -4.425638169050216675e-02 -2.541500627994537354e-01
2.280595749616622925e-01 1.968716084957122803e-01 -2.897369563579559326e-01
-5.847473144531250000e-01 1.024194620549678802e-02 -1.509469151496887207e-01
3.377866446971893311e-01 -1.764362305402755737e-01 5.105298757553100586e-01
2.765213549137115479e-01 -6.727182120084762573e-02 -1.084614172577857971e-01
1.362113934010267258e-02 1.051116287708282471e-01 9.106802940368652344e-01
3.535832464694976807e-01 -1.107300445437431335e-01 -2.308141440153121948e-01
-2.510456740856170654e-01 -2.444190233945846558e-01 -1.376930475234985352e-01
4.271399602293968201e-02 -1.890244930982589722e-01 -3.762152493000030518e-01
-1.080704927444458008e-01 1.157396435737609863e-01 -1.924494057893753052e-01
-1.213234141469001770e-01 1.968716084957122803e-01 1.151491701602935791e-01
1.797714382410049438e-01 -2.987822750583291054e-03 -1.024967581033706665e-01
-4.986877739429473877e-01 -2.444190233945846558e-01 -3.685446679592132568e-01
-2.549985945224761963e-01 -1.301575452089309692e-01 -4.006646871566772461e-01
4.539801180362701416e-02 1.968716084957122803e-01 -3.455377817153930664e-01
-8.426106651313602924e-04 1.564153134822845459e-01 9.093349575996398926e-01
2.866989970207214355e-01 -1.101946458220481873e-01 -4.006646871566772461e-01
-3.531229197978973389e-01 1.074200421571731567e-01 -2.075529694557189941e-01
3.524763882160186768e-01 1.968716084957122803e-01 5.873142480850219727e-01
-6.094902008771896362e-02 -2.061415016651153564e-01 9.106802940368652344e-01
3.550814688205718994e-01 1.540422160178422928e-02 5.438838601112365723e-01
2.504756152629852295e-01 1.068940386176109314e-01 -4.006646871566772461e-01
-7.286345958709716797e-02 -1.916270703077316284e-01 -1.024967581033706665e-01
-4.601867198944091797e-01 6.518965959548950195e-02 -1.024967581033706665e-01
3.550814688205718994e-01 -1.181136444211006165e-01 8.696739077568054199e-01
-2.226109504699707031e-01 -1.788177639245986938e-01 -4.006646871566772461e-01
8.920378051698207855e-03 -2.388731539249420166e-01 -1.711035668849945068e-01
5.470978841185569763e-02 2.028354257345199585e-01 7.788654565811157227e-01
3.377866446971893311e-01 8.099055849015712738e-03 -3.809118866920471191e-01
-5.662899613380432129e-01 -1.718641258776187897e-02 -3.762152493000030518e-01
-6.155254691839218140e-02 1.074200421571731567e-01 -2.900917232036590576e-01
2.011749194934964180e-03 1.074200421571731567e-01 -1.084273457527160645e-01
-1.357212662696838379e-01 1.430460996925830841e-02 -1.196852475404739380e-01
4.764161258935928345e-02 -2.388731539249420166e-01 -1.374221593141555786e-01
-1.805389523506164551e-01 -6.483194231986999512e-02 -2.645853459835052490e-01
3.550814688205718994e-01 -5.012011528015136719e-02 6.583241820335388184e-01
3.270587325096130371e-02 -2.088936716318130493e-01 -1.024967581033706665e-01
-2.823813259601593018e-01 -5.983743444085121155e-02 -2.576076984405517578e-01
1.867972463369369507e-01 -1.014694571495056152e-01 -1.084614172577857971e-01
2.843432128429412842e-01 2.028354257345199585e-01 3.805979490280151367e-01
1.575431823730468750e-01 1.954331994056701660e-01 8.807672858238220215e-01
2.996204495429992676e-01 1.968716084957122803e-01 -3.168869614601135254e-01
1.550710648298263550e-01 2.028354257345199585e-01 4.592436552047729492e-01
9.118907898664474487e-02 2.028354257345199585e-01 5.864316821098327637e-01
2.698204517364501953e-01 -2.388731539249420166e-01 -2.426935881376266479e-01
-5.699561834335327148e-01 -2.388731539249420166e-01 -2.888868153095245361e-01
1.296145021915435791e-01 2.028354257345199585e-01 -5.186948925256729126e-02
8.693372458219528198e-02 2.028354257345199585e-01 -5.751421675086021423e-02
1.664228588342666626e-01 -2.370832562446594238e-01 -1.738640367984771729e-01
-2.717582881450653076e-01 -2.370832562446594238e-01 -2.111759781837463379e-01
-5.770933032035827637e-01 2.011786215007305145e-02 -2.270390689373016357e-01
-1.805435679852962494e-02 2.028354257345199585e-01 4.263740479946136475e-01
2.612482607364654541e-01 2.495656162500381470e-02 -3.762152493000030518e-01
-6.004841998219490051e-02 2.028354257345199585e-01 3.700122833251953125e-01
3.536422550678253174e-01 1.968716084957122803e-01 1.122557595372200012e-01
-1.357212662696838379e-01 -2.072691172361373901e-01 -3.711912631988525391e-01
1.670369207859039307e-01 -1.983977556228637695e-01 9.106802940368652344e-01
-2.201139032840728760e-01 1.074200421571731567e-01 -2.405181080102920532e-01
2.677987217903137207e-01 2.028354257345199585e-01 -1.918020546436309814e-01
-3.560736477375030518e-01 -1.924347579479217529e-01 -1.029670834541320801e-01
-5.058589577674865723e-01 1.074200421571731567e-01 -1.758500635623931885e-01
3.550814688205718994e-01 -9.371315687894821167e-02 9.077087044715881348e-01
6.733295321464538574e-02 1.494293957948684692e-01 9.103670716285705566e-01
3.467277586460113525e-01 -2.245913743972778320e-01 9.106802940368652344e-01
-9.616233408451080322e-02 1.968716084957122803e-01 3.224820196628570557e-01
2.755125463008880615e-01 1.968716084957122803e-01 6.203616261482238770e-01
-3.803427517414093018e-01 -2.228928953409194946e-01 -4.006646871566772461e-01
3.924887627363204956e-02 -5.091074388474225998e-03 9.106802940368652344e-01
-2.061147987842559814e-02 1.968716084957122803e-01 -2.170176655054092407e-01
1.428583860397338867e-01 1.157396435737609863e-01 -2.592472136020660400e-01
-5.146538615226745605e-01 -2.370832562446594238e-01 -1.224049776792526245e-01
3.233602344989776611e-01 -1.237469986081123352e-01 -2.852588593959808350e-01
-3.643284440040588379e-01 -5.983743444085121155e-02 -2.758498787879943848e-01
3.466496467590332031e-01 1.955322176218032837e-02 -1.124683395028114319e-01
-1.213746070861816406e-01 2.028354257345199585e-01 7.786094546318054199e-01
-1.769260913133621216e-01 1.102760583162307739e-01 -1.024967581033706665e-01
3.550814688205718994e-01 -5.196502804756164551e-02 2.036970406770706177e-01
1.293144468218088150e-02 -1.713033616542816162e-01 9.106802940368652344e-01
-5.171800255775451660e-01 -6.483194231986999512e-02 -1.484332531690597534e-01
2.424726188182830811e-01 -2.388731539249420166e-01 -2.474184334278106689e-01
-4.515696167945861816e-01 -1.634150296449661255e-01 -4.006646871566772461e-01
-9.532440453767776489e-02 -1.543259471654891968e-01 -1.024967581033706665e-01
3.377866446971893311e-01 -7.692736387252807617e-02 7.985409498214721680e-01
2.228269726037979126e-01 2.028354257345199585e-01 4.802338182926177979e-01
-3.882178068161010742e-01 1.074200421571731567e-01 -1.662540882825851440e-01
-1.357212662696838379e-01 8.333539962768554688e-02 -3.535624146461486816e-01
1.556269675493240356e-01 2.028354257345199585e-01 -1.995009332895278931e-01
2.523245215415954590e-01 -2.370832562446594238e-01 -1.181097477674484253e-01
2.806728482246398926e-01 -1.926242113113403320e-01 -4.006646871566772461e-01
3.050824105739593506e-01 1.074200421571731567e-01 -2.660303413867950439e-01
1.742064803838729858e-01 -3.459210321307182312e-02 9.106802940368652344e-01
-1.340301632881164551e-01 -2.300150841474533081e-01 -3.062390089035034180e-01
3.377866446971893311e-01 4.807512834668159485e-02 -3.270438313484191895e-01
-4.277641773223876953e-01 -1.697775721549987793e-02 -3.762152493000030518e-01
3.233602344989776611e-01 -7.749541103839874268e-02 -1.614236980676651001e-01
-3.147199153900146484e-01 6.084205210208892822e-02 -4.006646871566772461e-01
-1.242251396179199219e-01 7.024191319942474365e-02 -4.006646871566772461e-01
-7.447436451911926270e-02 -2.370832562446594238e-01 -2.925630211830139160e-01
3.521357178688049316e-01 8.395862579345703125e-02 -3.810755610466003418e-01
1.550077553838491440e-02 1.968716084957122803e-01 6.040472984313964844e-01
3.503607213497161865e-01 -1.751341074705123901e-01 1.768786162137985229e-01
2.885503768920898438e-01 1.074200421571731567e-01 -3.655282855033874512e-01
2.567518949508666992e-01 1.963231712579727173e-01 8.595236539840698242e-01
-5.401811003684997559e-01 4.423940181732177734e-02 -3.762152493000030518e-01
-3.985416889190673828e-01 -5.977718904614448547e-02 -1.024967581033706665e-01
-4.098070561885833740e-01 1.074200421571731567e-01 -1.964255720376968384e-01
-2.182907909154891968e-01 -6.483194231986999512e-02 -3.375671803951263428e-01
1.054184883832931519e-01 2.723431400954723358e-02 9.047164916992187500e-01
3.306386768817901611e-01 1.968716084957122803e-01 -3.082574307918548584e-01
1.392079591751098633e-01 9.093372523784637451e-02 9.047164916992187500e-01
1.244758218526840210e-01 -2.344657201319932938e-03 -1.024967581033706665e-01
3.377866446971893311e-01 5.474942922592163086e-02 3.623066702857613564e-03
-5.847473144531250000e-01 9.024901688098907471e-02 -1.510424762964248657e-01
3.226282000541687012e-01 1.968716084957122803e-01 -3.777857720851898193e-01
1.468561440706253052e-01 5.343085620552301407e-03 -4.006646871566772461e-01
5.966813862323760986e-02 2.028354257345199585e-01 -2.107721120119094849e-01
3.550814688205718994e-01 -1.279077082872390747e-01 -3.705680370330810547e-01
2.696650922298431396e-01 1.968716084957122803e-01 -1.294914484024047852e-01
3.462225496768951416e-01 -8.329777419567108154e-02 -1.381259858608245850e-01
2.990113794803619385e-01 1.968716084957122803e-01 8.512946963310241699e-01
1.157447881996631622e-02 2.028354257345199585e-01 -6.479014456272125244e-02
7.284805178642272949e-02 2.028354257345199585e-01 -3.827333748340606689e-01
3.473368585109710693e-01 -2.121070027351379395e-01 5.838233232498168945e-01
1.294374912977218628e-01 2.028354257345199585e-01 3.353810608386993408e-01
-5.206451416015625000e-01 -2.309431321918964386e-02 -4.006646871566772461e-01
3.437911570072174072e-01 -2.323549240827560425e-02 -1.024967581033706665e-01
-2.937937676906585693e-01 -4.676908254623413086e-02 -3.762152493000030518e-01
3.030647933483123779e-01 1.074200421571731567e-01 -1.368172317743301392e-01
2.090080529451370239e-01 2.028354257345199585e-01 7.953267693519592285e-01
3.377866446971893311e-01 -1.140744239091873169e-01 6.333388090133666992e-01
-2.013308256864547729e-01 -1.654292941093444824e-01 -3.762152493000030518e-01
2.061404138803482056e-01 4.441639408469200134e-02 -4.006646871566772461e-01
2.222752124071121216e-01 -1.607351750135421753e-01 -4.006646871566772461e-01
-4.151202440261840820e-01 1.074200421571731567e-01 -2.354226410388946533e-01
-8.032035827636718750e-02 -2.465378120541572571e-02 -1.024967581033706665e-01
-8.162762224674224854e-02 2.028354257345199585e-01 4.865731596946716309e-01
1.902723163366317749e-01 -1.533603668212890625e-01 -4.006646871566772461e-01
-3.190234899520874023e-01 1.074200421571731567e-01 -1.832531094551086426e-01
5.813585221767425537e-02 -7.085675746202468872e-02 9.106802940368652344e-01
-3.091582953929901123e-01 -1.675349324941635132e-01 -4.006646871566772461e-01
2.936848998069763184e-01 -8.144572377204895020e-02 9.106802940368652344e-01
-1.726634055376052856e-01 -1.771566718816757202e-01 -1.024967581033706665e-01
1.133931335061788559e-02 2.028354257345199585e-01 5.378636121749877930e-01
3.550814688205718994e-01 -7.408912479877471924e-02 3.271633088588714600e-01
3.385444283485412598e-01 -8.329777419567108154e-02 7.268994450569152832e-01
-9.179238975048065186e-02 -2.270169854164123535e-01 9.047164916992187500e-01
3.392574191093444824e-01 -1.751341074705123901e-01 3.930599093437194824e-01
3.550814688205718994e-01 -2.118460834026336670e-01 -9.098211675882339478e-02
2.838080525398254395e-01 -2.819808945059776306e-02 -1.084614172577857971e-01
3.418874144554138184e-01 8.395862579345703125e-02 -1.996148079633712769e-01
3.377866446971893311e-01 -2.079638093709945679e-01 -4.026094079017639160e-02
-9.140507876873016357e-02 7.452801614999771118e-02 9.106802940368652344e-01
-9.384630620479583740e-02 -2.193187735974788666e-02 9.047164916992187500e-01
-3.834079951047897339e-03 1.730388961732387543e-03 -4.006646871566772461e-01
-4.640931636095046997e-02 1.968716084957122803e-01 5.238668322563171387e-01
3.550814688205718994e-01 -1.380962692201137543e-02 4.935615956783294678e-01
8.780041337013244629e-02 1.968716084957122803e-01 6.864157915115356445e-01
3.550814688205718994e-01 2.015284821391105652e-02 -3.455701470375061035e-01
3.377866446971893311e-01 4.789397865533828735e-02 6.196511387825012207e-01
3.324883878231048584e-01 7.503075152635574341e-02 -1.024967581033706665e-01
-5.382881760597229004e-01 1.074200421571731567e-01 -1.783487647771835327e-01
-5.509495139122009277e-01 1.157396435737609863e-01 -3.582606613636016846e-01
-2.178852707147598267e-01 7.555259019136428833e-02 -4.006646871566772461e-01
-5.431376695632934570e-01 -2.034982144832611084e-01 -4.006646871566772461e-01
-1.340301632881164551e-01 -1.142948791384696960e-01 -1.942600458860397339e-01
8.540890365839004517e-02 -2.444190233945846558e-01 -1.280945986509323120e-01
-1.340301632881164551e-01 -2.300117611885070801e-01 -1.402125358581542969e-01
-2.639281153678894043e-01 9.531058371067047119e-03 -1.024967581033706665e-01
-2.407500594854354858e-01 1.074200421571731567e-01 -3.685404956340789795e-01
-4.370676577091217041e-01 -2.370832562446594238e-01 -1.739970296621322632e-01
-1.705053150653839111e-01 -5.983743444085121155e-02 -1.466250866651535034e-01
-7.002878934144973755e-02 -4.443588480353355408e-02 -4.006646871566772461e-01
-1.340301632881164551e-01 -1.460055112838745117e-01 -2.150632292032241821e-01
3.202516436576843262e-01 -1.123766675591468811e-01 -3.762152493000030518e-01
-5.847473144531250000e-01 -8.402619510889053345e-02 -1.230082660913467407e-01
-1.058277115225791931e-01 -1.300355643033981323e-01 -4.006646871566772461e-01
3.377866446971893311e-01 -1.509819924831390381e-02 6.831517219543457031e-01
5.458591040223836899e-03 5.747581645846366882e-02 -3.762152493000030518e-01
-5.507226586341857910e-01 1.074200421571731567e-01 -2.950235009193420410e-01
-1.518889069557189941e-01 -1.714670658111572266e-01 -4.006646871566772461e-01
4.928110539913177490e-02 2.028354257345199585e-01 1.988490372896194458e-01
3.550814688205718994e-01 -6.150427088141441345e-02 -3.108716309070587158e-01
-9.862818568944931030e-02 -2.444190233945846558e-01 -1.846757382154464722e-01
2.441119216382503510e-02 1.968716084957122803e-01 -1.706989258527755737e-01
5.290908738970756531e-02 1.074200421571731567e-01 -3.684981167316436768e-01
2.401185184717178345e-01 3.308213874697685242e-02 -4.006646871566772461e-01
-1.181008592247962952e-01 1.086174622178077698e-01 -1.074484735727310181e-01
-1.100594699382781982e-01 1.968716084957122803e-01 6.905323266983032227e-01
-4.051910638809204102e-01 -6.483194231986999512e-02 -1.671473681926727295e-01
-3.185465037822723389e-01 1.074200421571731567e-01 -2.917270660400390625e-01
3.498447239398956299e-01 -1.889445632696151733e-02 5.972965359687805176e-01
3.550814688205718994e-01 -5.237882211804389954e-02 -2.161650657653808594e-01
3.550814688205718994e-01 -1.127784550189971924e-01 4.934427738189697266e-01
-3.939349576830863953e-02 -1.223686151206493378e-02 -1.084614172577857971e-01
-4.636983573436737061e-01 -2.444190233945846558e-01 -1.915536224842071533e-01
-8.397732861340045929e-03 2.028354257345199585e-01 7.119429707527160645e-01
-5.092750787734985352e-01 1.014056615531444550e-02 -1.024967581033706665e-01
-3.956076875329017639e-02 2.028354257345199585e-01 8.003906607627868652e-01
-1.148294359445571899e-01 -1.647395789623260498e-01 9.106802940368652344e-01
3.233602344989776611e-01 -1.410596221685409546e-01 -2.182998210191726685e-01
-4.135719500482082367e-03 2.028354257345199585e-01 -2.582218050956726074e-01
2.145663797855377197e-01 1.768254488706588745e-01 8.935258984565734863e-01
1.432081498205661774e-02 8.577178418636322021e-02 -4.006646871566772461e-01
6.789468228816986084e-02 1.157396435737609863e-01 -2.564884424209594727e-01
-1.784222275018692017e-01 -2.444190233945846558e-01 -3.293472826480865479e-01
-1.067768037319183350e-01 -2.174426168203353882e-01 -1.084614172577857971e-01
-4.996375441551208496e-01 -1.812283843755722046e-01 -4.006646871566772461e-01
-8.319225162267684937e-02 1.968716084957122803e-01 7.527091503143310547e-01
1.192174926400184631e-01 1.074200421571731567e-01 -2.932760119438171387e-01
-3.881987035274505615e-01 8.735393732786178589e-02 -4.006646871566772461e-01
-2.862552702426910400e-01 -2.244507893919944763e-02 -4.006646871566772461e-01
-5.847473144531250000e-01 6.149353459477424622e-02 -3.730642497539520264e-01
3.461361229419708252e-01 -1.107300445437431335e-01 5.768822431564331055e-01
3.233602344989776611e-01 9.316901862621307373e-02 -3.048280775547027588e-01
3.522138297557830811e-01 -1.751341074705123901e-01 1.108306497335433960e-01
-5.537341237068176270e-01 -6.483194231986999512e-02 -3.304184079170227051e-01
-1.969557851552963257e-01 7.425463199615478516e-02 -1.024967581033706665e-01
-3.390804529190063477e-01 2.999768406152725220e-02 -1.084614172577857971e-01
-1.340301632881164551e-01 5.353969521820545197e-03 -2.713975310325622559e-01
1.392129659652709961e-01 1.157396435737609863e-01 -1.384616941213607788e-01
1.742646545171737671e-01 2.028354257345199585e-01 -2.315487116575241089e-01
-5.766761898994445801e-01 7.016463577747344971e-02 -3.201543092727661133e-01
1.836395859718322754e-01 2.032485604286193848e-02 -4.006646871566772461e-01
-3.261008858680725098e-02 1.741829514503479004e-01 8.953556418418884277e-01
-7.991044223308563232e-02 2.028354257345199585e-01 -2.204137891530990601e-01
-3.218886554241180420e-01 1.074200421571731567e-01 -2.599743008613586426e-01
3.550814688205718994e-01 1.991326361894607544e-01 4.450657367706298828e-01
-1.070714890956878662e-01 1.347404718399047852e-01 9.106802940368652344e-01
3.278398141264915466e-02 1.157396435737609863e-01 -1.579070687294006348e-01
2.057307511568069458e-01 1.968716084957122803e-01 -7.453660946339368820e-03
8.650909364223480225e-02 1.968716084957122803e-01 -1.569938510656356812e-01
-3.103058338165283203e-01 -2.207448631525039673e-01 -3.762152493000030518e-01
-3.883872926235198975e-01 -6.483194231986999512e-02 -3.205199241638183594e-01
1.223485618829727173e-01 -1.972942352294921875e-01 -1.084614172577857971e-01
2.539814710617065430e-01 -1.020398214459419250e-01 -1.084614172577857971e-01
-1.009265854954719543e-01 2.028354257345199585e-01 1.600610762834548950e-01
-5.847473144531250000e-01 -6.224681437015533447e-02 -1.735690385103225708e-01
3.536040186882019043e-01 -2.121070027351379395e-01 3.315744102001190186e-01
3.059523999691009521e-01 1.074200421571731567e-01 -2.035319209098815918e-01
-1.357212662696838379e-01 -1.704374998807907104e-01 -2.549777328968048096e-01
6.474699825048446655e-02 -8.002527058124542236e-02 -4.006646871566772461e-01
-9.531177580356597900e-02 2.384124323725700378e-02 -1.084614172577857971e-01
3.233602344989776611e-01 -1.950896829366683960e-01 -1.696145236492156982e-01
-4.214613139629364014e-01 1.157396435737609863e-01 -1.104540824890136719e-01
3.382577598094940186e-01 -1.092553213238716125e-01 -3.172808587551116943e-01
3.184642195701599121e-01 1.968716084957122803e-01 -4.314270243048667908e-02
2.794596552848815918e-01 2.028354257345199585e-01 9.577857702970504761e-02
3.233602344989776611e-01 7.169110327959060669e-02 -2.589680254459381104e-01
-5.125882104039192200e-02 7.243897020816802979e-02 -4.006646871566772461e-01
2.163421511650085449e-01 2.028354257345199585e-01 -1.269927471876144409e-01
-4.939745068550109863e-01 -6.483194231986999512e-02 -3.066520392894744873e-01
3.447334766387939453e-01 2.028354257345199585e-01 8.475852608680725098e-01
-3.968132734298706055e-01 -6.483194231986999512e-02 -2.023935467004776001e-01
7.899884879589080811e-02 2.028354257345199585e-01 6.533159613609313965e-01
-8.836481720209121704e-03 1.157396435737609863e-01 -3.062273561954498291e-01
9.826805442571640015e-02 2.987569943070411682e-02 -3.762152493000030518e-01
3.550814688205718994e-01 -1.166759133338928223e-01 5.306034684181213379e-01
1.063741073012351990e-01 1.740275770425796509e-01 -2.922447621822357178e-01
-2.605520561337471008e-02 7.536230236291885376e-02 -1.024967581033706665e-01
1.668042540550231934e-01 1.157396435737609863e-01 -2.090802937746047974e-01
-4.141115769743919373e-02 2.028354257345199585e-01 9.625139832496643066e-02
3.550814688205718994e-01 -5.351939424872398376e-02 -1.177557334303855896e-01
-2.287442833185195923e-01 -2.370832562446594238e-01 -2.738871276378631592e-01
-4.695749580860137939e-01 -4.747447371482849121e-02 -4.006646871566772461e-01
2.504964172840118408e-01 -2.002424895763397217e-01 -4.006646871566772461e-01
-5.095286294817924500e-02 2.028354257345199585e-01 5.550993680953979492e-01
-3.986405730247497559e-01 8.235335350036621094e-03 -1.024967581033706665e-01
2.895292341709136963e-01 -2.370832562446594238e-01 -1.478532403707504272e-01
2.777910530567169189e-01 1.968716084957122803e-01 3.371294140815734863e-01
-3.070294670760631561e-02 1.157396435737609863e-01 -3.938865661621093750e-01
1.702261567115783691e-01 8.983021229505538940e-02 9.047164916992187500e-01
-3.439641371369361877e-02 1.968716084957122803e-01 -1.678861081600189209e-01
3.520284891128540039e-01 -1.488715112209320068e-01 9.047164916992187500e-01
1.636898070573806763e-01 7.375522702932357788e-02 -3.762152493000030518e-01
-2.137080132961273193e-01 -2.372959852218627930e-01 -1.072033494710922241e-01
-3.396953344345092773e-01 1.493107434362173080e-02 -3.762152493000030518e-01
-1.121541485190391541e-01 1.968716084957122803e-01 5.057999119162559509e-02
-1.522824726998806000e-02 -1.213468462228775024e-01 9.047164916992187500e-01
-5.772088170051574707e-01 -1.634756922721862793e-01 -2.013215869665145874e-01
2.708334028720855713e-01 1.968716084957122803e-01 -3.709247708320617676e-02
-4.060502648353576660e-01 7.886814326047897339e-02 -3.762152493000030518e-01
-3.142063915729522705e-01 1.157396435737609863e-01 -3.428762257099151611e-01
1.958040446043014526e-01 1.968716084957122803e-01 -4.202423244714736938e-02
-8.815534412860870361e-02 1.963364630937576294e-01 8.788918256759643555e-01
-4.303551614284515381e-01 -1.750618070363998413e-01 -3.762152493000030518e-01
-1.357212662696838379e-01 7.063246518373489380e-02 -1.712390333414077759e-01
-3.941749632358551025e-01 1.074200421571731567e-01 -2.629466652870178223e-01
3.425422310829162598e-01 1.807950809597969055e-02 -1.907176673412322998e-01
-5.581299066543579102e-01 1.256656553596258163e-02 -3.762152493000030518e-01
5.411896482110023499e-02 2.028354257345199585e-01 2.215771563351154327e-02
-2.517977058887481689e-01 -2.207249253988265991e-01 -4.006646871566772461e-01
-5.613124966621398926e-01 1.157396435737609863e-01 -1.977035701274871826e-01
2.388911843299865723e-01 -2.037292122840881348e-01 9.047164916992187500e-01
2.444270402193069458e-01 -2.370832562446594238e-01 -3.077954053878784180e-01
-1.117238774895668030e-01 2.340963855385780334e-02 9.047164916992187500e-01
-4.273420870304107666e-01 -1.999200731515884399e-01 -1.024967581033706665e-01
-7.332596927881240845e-02 1.290766149759292603e-01 9.106802940368652344e-01
-3.813499957323074341e-02 1.968716084957122803e-01 -3.854730427265167236e-01
9.703324735164642334e-02 -1.703211665153503418e-01 9.047164916992187500e-01
-4.237331748008728027e-01 -2.370832562446594238e-01 -2.491501718759536743e-01
7.814627140760421753e-02 -1.673238873481750488e-01 -4.006646871566772461e-01
-1.147990226745605469e-01 1.968716084957122803e-01 3.839458823204040527e-01
1.083601042628288269e-01 -1.970009058713912964e-01 -4.006646871566772461e-01
-4.227768629789352417e-02 -2.388731539249420166e-01 -2.032992839813232422e-01
2.907507717609405518e-01 -4.914199560880661011e-02 9.106802940368652344e-01
1.304421424865722656e-01 4.393443465232849121e-02 9.047164916992187500e-01
-4.891865253448486328e-01 -1.284554004669189453e-01 -3.762152493000030518e-01
1.319029629230499268e-01 2.028354257345199585e-01 6.153044104576110840e-01
2.917736768722534180e-01 -1.350293159484863281e-01 -1.024967581033706665e-01
5.961579829454421997e-02 2.028354257345199585e-01 -7.948322594165802002e-02
-3.726862668991088867e-01 -2.370832562446594238e-01 -2.260743379592895508e-01
8.065744489431381226e-02 -2.362705767154693604e-01 -3.762152493000030518e-01
7.789438590407371521e-03 -1.267811655998229980e-01 -1.024967581033706665e-01
3.465690612792968750e-01 -1.736599802970886230e-01 -2.224297225475311279e-01
6.411214172840118408e-02 1.074200421571731567e-01 -3.200546205043792725e-01
1.405940055847167969e-01 -1.511516720056533813e-01 9.106802940368652344e-01
-4.216590821743011475e-01 -6.483194231986999512e-02 -2.838495373725891113e-01
2.018060982227325439e-01 1.074200421571731567e-01 -2.966338992118835449e-01
3.467036783695220947e-01 -1.751341074705123901e-01 6.522016525268554688e-01
-4.969892501831054688e-01 -7.871268689632415771e-02 -4.006646871566772461e-01
3.233602344989776611e-01 -2.102921754121780396e-01 -2.391104996204376221e-01
-1.783942282199859619e-01 1.157396435737609863e-01 -3.461933732032775879e-01
1.169256716966629028e-01 2.028354257345199585e-01 5.869336128234863281e-01
-5.091454386711120605e-01 2.819557301700115204e-02 -4.006646871566772461e-01
-1.056820433586835861e-02 -1.299576163291931152e-01 -3.762152493000030518e-01
-5.559129118919372559e-01 -5.983743444085121155e-02 -1.154448464512825012e-01
-5.847473144531250000e-01 -2.269770801067352295e-01 -1.381758451461791992e-01
1.421761661767959595e-01 1.157396435737609863e-01 -2.290940433740615845e-01
2.627082467079162598e-01 -7.041294127702713013e-02 9.047164916992187500e-01
9.937988221645355225e-02 -1.183765605092048645e-01 -4.006646871566772461e-01
2.103076875209808350e-01 -1.864019632339477539e-01 -1.024967581033706665e-01
3.427682518959045410e-01 -4.632478952407836914e-02 3.856252431869506836e-01
-4.457512199878692627e-01 1.074200421571731567e-01 -3.093600869178771973e-01
2.595281600952148438e-01 -2.388731539249420166e-01 -3.690640330314636230e-01
-4.967507719993591309e-01 -1.483903825283050537e-01 -4.006646871566772461e-01
-8.740008622407913208e-02 2.028354257345199585e-01 5.997454524040222168e-01
3.550814688205718994e-01 1.060557737946510315e-02 2.020881325006484985e-01
8.029581047594547272e-03 -1.718493103981018066e-01 -4.006646871566772461e-01
3.103290796279907227e-01 -2.108763307332992554e-01 9.106802940368652344e-01
6.237875297665596008e-02 1.157396435737609863e-01 -1.765571981668472290e-01
2.509609162807464600e-01 1.968716084957122803e-01 3.885901272296905518e-01
1.772619485855102539e-01 1.968716084957122803e-01 -3.514259457588195801e-01
3.170806765556335449e-01 3.545612096786499023e-02 -1.084614172577857971e-01
3.377866446971893311e-01 -1.213976144790649414e-01 6.823963522911071777e-01
3.102468252182006836e-01 -1.372795701026916504e-01 9.106802940368652344e-01
3.550814688205718994e-01 -8.091532438993453979e-02 1.722044497728347778e-01
-1.098983585834503174e-01 2.028354257345199585e-01 -2.671355307102203369e-01
2.407475411891937256e-01 -6.750365346670150757e-02 -3.762152493000030518e-01
2.308840006589889526e-01 -2.411250770092010498e-01 -4.006646871566772461e-01
-1.466818246990442276e-02 1.968716084957122803e-01 1.493358314037322998e-01
2.516373097896575928e-01 -1.309975683689117432e-01 9.047164916992187500e-01
3.352870941162109375e-01 2.028354257345199585e-01 4.171187877655029297e-01
8.820758014917373657e-02 1.157396435737609863e-01 -1.110806241631507874e-01
3.487719297409057617e-01 1.968716084957122803e-01 -3.319897353649139404e-01
-5.847473144531250000e-01 -2.183134704828262329e-01 -1.943165659904479980e-01
1.815538555383682251e-01 1.033898666501045227e-01 -3.762152493000030518e-01
4.966666549444198608e-02 1.968716084957122803e-01 4.119327366352081299e-01
-4.364934563636779785e-01 -2.360744774341583252e-01 -4.006646871566772461e-01
3.405146598815917969e-01 4.551077261567115784e-02 3.388303816318511963e-01
-3.978229165077209473e-01 1.074200421571731567e-01 -1.274489313364028931e-01
-1.886154115200042725e-01 -2.388731539249420166e-01 -1.805167645215988159e-01
9.674572944641113281e-02 1.968716084957122803e-01 -3.119510710239410400e-01
-1.357212662696838379e-01 -7.593419402837753296e-02 -2.278201878070831299e-01
3.422447144985198975e-01 4.551077261567115784e-02 -1.779922991991043091e-01
-2.440764009952545166e-01 -5.648817401379346848e-03 -3.762152493000030518e-01
1.729392707347869873e-01 -2.388731539249420166e-01 -2.594732046127319336e-01
-1.049073711037635803e-01 1.157396435737609863e-01 -3.126748502254486084e-01
-2.107099145650863647e-01 -2.096066176891326904e-01 -4.006646871566772461e-01
3.262877762317657471e-01 2.028354257345199585e-01 2.946911752223968506e-01
-4.267429411411285400e-01 -1.294170767068862915e-01 -1.024967581033706665e-01
2.497458830475807190e-02 -1.303699426352977753e-02 -3.762152493000030518e-01
1.666887551546096802e-01 2.028354257345199585e-01 3.862277269363403320e-01
2.688082121312618256e-02 -1.009371429681777954e-01 -1.024967581033706665e-01
-1.418735533952713013e-01 -1.020738109946250916e-01 -4.006646871566772461e-01
1.503985524177551270e-01 -3.907831013202667236e-02 -4.006646871566772461e-01
-4.853707253932952881e-01 7.309460639953613281e-02 -3.762152493000030518e-01
3.550814688205718994e-01 -1.223754957318305969e-01 1.373325735330581665e-01
5.796549469232559204e-02 2.028354257345199585e-01 8.397302031517028809e-01
-2.394039034843444824e-01 -5.983743444085121155e-02 -2.142821103334426880e-01
-7.008920609951019287e-02 2.028354257345199585e-01 8.496443629264831543e-01
3.730526193976402283e-02 2.028354257345199585e-01 -3.176963329315185547e-01
-1.125668883323669434e-01 -4.375365003943443298e-02 -3.762152493000030518e-01
9.010135382413864136e-02 3.243981918785721064e-04 -1.024967581033706665e-01
-3.623766452074050903e-02 2.028354257345199585e-01 3.454091250896453857e-01
-1.220406144857406616e-01 -1.334039568901062012e-01 -3.762152493000030518e-01
3.173066675662994385e-01 -8.132025599479675293e-02 -3.762152493000030518e-01
1.433918625116348267e-01 1.968716084957122803e-01 7.090096473693847656e-01
2.781126499176025391e-01 -2.088488042354583740e-01 -3.762152493000030518e-01
-4.910287559032440186e-01 1.074200421571731567e-01 -2.219352722167968750e-01
2.449206560850143433e-01 2.028354257345199585e-01 -3.364561796188354492e-01
3.538350164890289307e-01 4.551077261567115784e-02 4.652232527732849121e-01
-1.472222954034805298e-01 1.074200421571731567e-01 -2.825009226799011230e-01
-3.599542379379272461e-01 9.175720810890197754e-02 -1.070978045463562012e-01
3.356019854545593262e-01 2.028354257345199585e-01 -1.303141117095947266e-01
3.377866446971893311e-01 4.583318904042243958e-02 5.903322696685791016e-01
-5.847473144531250000e-01 4.497313871979713440e-02 -2.545406520366668701e-01
3.377866446971893311e-01 -5.716879665851593018e-02 1.015122234821319580e-01
2.874036431312561035e-01 -3.504581004381179810e-02 -3.762152493000030518e-01
-1.506375521421432495e-01 -1.108225286006927490e-01 -1.084614172577857971e-01
2.756978571414947510e-01 -2.388731539249420166e-01 -1.914547085762023926e-01
5.488263070583343506e-02 -2.388731539249420166e-01 -1.816319078207015991e-01
2.775417566299438477e-01 -6.306090950965881348e-02 -4.006646871566772461e-01
-4.461243152618408203e-01 -1.122462078928947449e-01 -4.006646871566772461e-01
2.028788775205612183e-01 -1.336798369884490967e-01 -1.084614172577857971e-01
-2.956659495830535889e-01 1.157396435737609863e-01 -3.182671964168548584e-01
-2.093587517738342285e-01 -8.261074125766754150e-02 -1.084614172577857971e-01
-1.357212662696838379e-01 -8.594895899295806885e-02 -1.696975827217102051e-01
-2.613238692283630371e-01 1.074200421571731567e-01 -1.342221200466156006e-01
3.233602344989776611e-01 -1.916328817605972290e-01 -1.365654468536376953e-01
3.518407046794891357e-01 -4.632478952407836914e-02 -3.611748516559600830e-01
-4.571321010589599609e-01 1.157396435737609863e-01 -3.580886423587799072e-01
1.949705928564071655e-01 1.968716084957122803e-01 7.266393899917602539e-01
-5.426972508430480957e-01 -1.589361429214477539e-01 -1.024967581033706665e-01
3.276222944259643555e-01 -9.473382681608200073e-02 -1.024967581033706665e-01
-4.545320942997932434e-02 2.534362673759460449e-02 -3.762152493000030518e-01
3.550814688205718994e-01 -1.266937702894210815e-01 2.761673629283905029e-01
-4.979872405529022217e-01 -5.285447090864181519e-02 -1.024967581033706665e-01
-1.730879396200180054e-01 1.157396435737609863e-01 -1.857867240905761719e-01
3.469579815864562988e-01 -2.281312942504882812e-01 -4.006646871566772461e-01
3.377866446971893311e-01 7.468257099390029907e-02 3.220122754573822021e-01
2.333004325628280640e-01 3.226006776094436646e-02 -1.084614172577857971e-01
-1.703222543001174927e-01 1.157396435737609863e-01 -2.841844260692596436e-01
-8.947125822305679321e-02 -1.733633279800415039e-01 -4.006646871566772461e-01
1.647210270166397095e-01 -6.919392198324203491e-02 -3.762152493000030518e-01
2.788711898028850555e-02 1.074200421571731567e-01 -3.140509128570556641e-01
3.234043121337890625e-01 1.968716084957122803e-01 5.792821049690246582e-01
-3.620615899562835693e-01 1.157396435737609863e-01 -2.525554597377777100e-01
1.751263737678527832e-01 1.074200421571731567e-01 -3.077704906463623047e-01
3.478113710880279541e-01 -8.329777419567108154e-02 5.911117196083068848e-01
3.530480861663818359e-01 1.157396435737609863e-01 -1.285956650972366333e-01
3.394161462783813477e-01 -1.107300445437431335e-01 3.116055428981781006e-01
-1.805392056703567505e-01 -7.024782896041870117e-02 -3.762152493000030518e-01
-1.320817694067955017e-02 1.968716084957122803e-01 2.550802528858184814e-01
2.283711880445480347e-01 1.968716084957122803e-01 1.597212105989456177e-01
2.251785993576049805e-01 -8.570317178964614868e-03 -4.006646871566772461e-01
1.049257442355155945e-01 -2.444190233945846558e-01 9.093341827392578125e-01
-2.903012335300445557e-01 -1.988479867577552795e-02 -1.024967581033706665e-01
3.233602344989776611e-01 8.642076700925827026e-02 -1.617735475301742554e-01
3.550814688205718994e-01 -1.967582702636718750e-01 4.036571681499481201e-01
-7.706314325332641602e-02 -1.284476667642593384e-01 -4.006646871566772461e-01
1.326275765895843506e-01 7.508642226457595825e-02 -3.762152493000030518e-01
3.361571133136749268e-01 2.028354257345199585e-01 2.643339335918426514e-01
2.642903923988342285e-01 2.381299249827861786e-02 -1.084614172577857971e-01
3.550814688205718994e-01 5.094278603792190552e-02 1.904693543910980225e-01
-2.407484054565429688e-01 -6.483194231986999512e-02 -1.656441539525985718e-01
-4.966178536415100098e-01 -2.388731539249420166e-01 -3.376294672489166260e-01
-2.849273979663848877e-01 -5.983743444085121155e-02 -2.167949229478836060e-01
2.403445094823837280e-01 1.074200421571731567e-01 -1.581729650497436523e-01
-8.938492089509963989e-02 -2.370832562446594238e-01 -2.395683377981185913e-01
-5.590206980705261230e-01 -1.098671704530715942e-01 -4.006646871566772461e-01
3.550814688205718994e-01 -5.558822769671678543e-03 6.559891700744628906e-01
2.253780514001846313e-01 1.968716084957122803e-01 7.436242699623107910e-01
2.770431935787200928e-01 1.968716084957122803e-01 -3.345433175563812256e-01
-3.041958808898925781e-02 2.028354257345199585e-01 6.936351656913757324e-01
3.211008608341217041e-01 1.968716084957122803e-01 3.830684125423431396e-01
1.866867244243621826e-01 -2.370832562446594238e-01 -3.149043023586273193e-01
8.345281332731246948e-02 3.045587800443172455e-02 -4.006646871566772461e-01
-4.703311324119567871e-01 1.074200421571731567e-01 -2.562183439731597900e-01
-1.357212662696838379e-01 -6.279192864894866943e-02 -3.232389092445373535e-01
1.497528851032257080e-01 2.028354257345199585e-01 -1.715373545885086060e-01
2.743257768452167511e-02 2.028354257345199585e-01 4.789133667945861816e-01
-1.191042438149452209e-01 1.968716084957122803e-01 6.558554172515869141e-01
-1.784134209156036377e-01 -2.388731539249420166e-01 -2.420180141925811768e-01
-5.198914408683776855e-01 -5.983743444085121155e-02 -3.760266602039337158e-01
1.676659733057022095e-01 9.855949133634567261e-02 -4.006646871566772461e-01
1.576944142580032349e-01 -2.112078964710235596e-01 -3.762152493000030518e-01
2.156723886728286743e-01 -1.447532474994659424e-01 -3.762152493000030518e-01
3.509698510169982910e-01 -8.329777419567108154e-02 -1.787659078836441040e-01
-5.701390653848648071e-02 -4.715330526232719421e-02 -1.084614172577857971e-01
3.519529104232788086e-01 1.807950809597969055e-02 5.615160241723060608e-02
1.810212135314941406e-01 1.968716084957122803e-01 6.700067520141601562e-01
2.782414555549621582e-01 1.968716084957122803e-01 -9.324481338262557983e-02
2.481638938188552856e-01 1.821070462465286255e-01 -2.730918824672698975e-01
1.313204616308212280e-01 -8.716915547847747803e-02 -4.006646871566772461e-01
-7.180370856076478958e-03 2.028354257345199585e-01 3.708723485469818115e-01
-1.971643716096878052e-01 4.822636395692825317e-02 -3.762152493000030518e-01
-2.877701222896575928e-01 -2.370832562446594238e-01 -1.650433689355850220e-01
1.043814420700073242e-01 8.343760669231414795e-02 -3.762152493000030518e-01
-1.906554251909255981e-01 -8.939298242330551147e-02 -4.006646871566772461e-01
-3.033174574375152588e-01 3.978294134140014648e-02 -1.024967581033706665e-01
-1.017443612217903137e-01 1.968716084957122803e-01 7.176524996757507324e-01
2.175478786230087280e-01 -9.040401130914688110e-02 -3.762152493000030518e-01
2.630921602249145508e-01 -4.966347012668848038e-03 -1.024967581033706665e-01
-5.764734148979187012e-01 3.136951848864555359e-02 -3.655548393726348877e-01
-9.169907122850418091e-02 -1.171771511435508728e-01 -3.762152493000030518e-01
-2.880850434303283691e-01 -2.444190233945846558e-01 -2.593336403369903564e-01
-5.847473144531250000e-01 -1.564631909132003784e-01 -2.452546060085296631e-01
-2.615540623664855957e-01 1.157396435737609863e-01 -1.777837425470352173e-01
-4.854198545217514038e-02 1.968716084957122803e-01 -2.046620398759841919e-01
5.515683814883232117e-02 7.484129071235656738e-02 -1.024967581033706665e-01
-5.765956044197082520e-01 -1.098562851548194885e-01 -3.382693529129028320e-01
3.184160292148590088e-01 2.028354257345199585e-01 6.297656893730163574e-01
-2.655086219310760498e-01 -2.802474983036518097e-02 -3.762152493000030518e-01
-1.219893470406532288e-01 1.979925781488418579e-01 2.649224400520324707e-01
3.509016931056976318e-01 -1.889445632696151733e-02 3.439125716686248779e-01
-5.847473144531250000e-01 -1.581467092037200928e-01 -3.543808758258819580e-01
3.233602344989776611e-01 -3.500849753618240356e-02 -2.624206542968750000e-01
2.066938281059265137e-01 1.968716084957122803e-01 3.252927362918853760e-01
1.892244815826416016e-01 1.968716084957122803e-01 2.204399555921554565e-01
2.363791763782501221e-01 2.028354257345199585e-01 -1.799832880496978760e-01
-1.706109344959259033e-01 8.235985040664672852e-02 -1.084614172577857971e-01
1.194401755928993225e-01 -4.802575707435607910e-02 -3.762152493000030518e-01
2.231477200984954834e-01 2.028354257345199585e-01 2.985804080963134766e-01
-8.358672261238098145e-03 2.028354257345199585e-01 2.200481854379177094e-02
-3.709470629692077637e-01 1.157396435737609863e-01 -2.971059083938598633e-01
3.541730344295501709e-02 2.028354257345199585e-01 1.331885457038879395e-01
3.550814688205718994e-01 5.977676436305046082e-02 -1.095516607165336609e-01
3.377866446971893311e-01 -1.442696452140808105e-01 9.380919486284255981e-02
1.803398132324218750e-01 8.055832237005233765e-02 -1.084614172577857971e-01
2.966289222240447998e-02 -7.018492370843887329e-02 -4.006646871566772461e-01
-5.052350088953971863e-02 2.028354257345199585e-01 7.261582612991333008e-01
3.148603141307830811e-01 2.028354257345199585e-01 -2.618497908115386963e-01
-4.861352145671844482e-01 1.074200421571731567e-01 -3.548296093940734863e-01
2.471700459718704224e-01 2.028354257345199585e-01 2.072201669216156006e-01
2.910266220569610596e-01 4.248203709721565247e-03 -4.006646871566772461e-01
3.866471722722053528e-02 -2.370832562446594238e-01 -3.431404531002044678e-01
