-1.171485632658004761e-01 -1.373855024576187134e-01 -7.305404543876647949e-01
-1.243977174162864685e-01 2.395385354757308960e-01 8.057866096496582031e-01
2.850401103496551514e-01 1.028451137244701385e-02 2.412817925214767456e-01
-7.744858413934707642e-02 -1.110137701034545898e-01 -7.938933968544006348e-01
3.776554167270660400e-01 -3.892920166254043579e-02 -6.273436546325683594e-01
-3.740054070949554443e-01 1.671049445867538452e-01 -5.995782092213630676e-03
3.645479679107666016e-01 -8.387764543294906616e-02 -7.181114554405212402e-01
4.787178933620452881e-01 2.179529368877410889e-01 7.251139730215072632e-02
-6.973581016063690186e-02 1.785460859537124634e-02 8.057866096496582031e-01
-3.632181286811828613e-01 -1.373855024576187134e-01 -5.903375148773193359e-01
2.917526662349700928e-01 -1.673423349857330322e-01 -5.514448881149291992e-01
-1.998918354511260986e-01 -4.177460819482803345e-02 7.458728551864624023e-01
2.637322545051574707e-01 -1.373855024576187134e-01 1.334467679262161255e-01
5.427662134170532227e-01 -7.687229663133621216e-02 5.160582661628723145e-01
3.633849024772644043e-01 -1.673423349857330322e-01 -6.421417593955993652e-01
2.899341285228729248e-01 -1.673423349857330322e-01 3.141859769821166992e-01
-1.294886171817779541e-01 -1.673423349857330322e-01 -1.666032522916793823e-01
3.430472910404205322e-01 2.820072770118713379e-01 1.033950075507164001e-01
3.455293178558349609e-01 2.101582288742065430e-01 -8.498142361640930176e-01
2.850401103496551514e-01 -1.346882898360490799e-02 -6.434429902583360672e-03
-3.740054070949554443e-01 1.391932517290115356e-01 -4.038539528846740723e-01
4.802546501159667969e-01 -6.490095704793930054e-02 8.316431939601898193e-02
3.228206038475036621e-01 8.624095469713211060e-02 8.057866096496582031e-01
5.064734816551208496e-01 -1.437863260507583618e-01 2.647308707237243652e-01
-1.225512102246284485e-01 -1.673423349857330322e-01 -4.452905058860778809e-01
-4.534547030925750732e-02 1.100513488054275513e-01 -7.938933968544006348e-01
-3.740054070949554443e-01 2.051063030958175659e-01 -5.858041644096374512e-01
-4.339191019535064697e-01 4.343327879905700684e-02 5.996548533439636230e-01
2.850401103496551514e-01 -4.331636428833007812e-02 5.024021863937377930e-01
4.608722925186157227e-01 -1.117861419916152954e-01 -5.106224119663238525e-02
2.144809812307357788e-01 -1.673423349857330322e-01 -3.564651608467102051e-01
-1.696742027997970581e-01 -1.373855024576187134e-01 2.326897382736206055e-01
3.749086260795593262e-01 9.755073487758636475e-02 6.438131928443908691e-01
1.980072855949401855e-01 1.560160815715789795e-01 -8.538060188293457031e-01
4.367107748985290527e-01 -1.673423349857330322e-01 6.266140937805175781e-01
-1.638882607221603394e-02 -1.373855024576187134e-01 7.258930206298828125e-01
3.788274526596069336e-01 -1.673423349857330322e-01 -2.768783569335937500e-01
-3.729892373085021973e-01 -1.673423349857330322e-01 -7.868760228157043457e-01
-2.339773625135421753e-01 -1.373855024576187134e-01 3.348183631896972656e-01
-1.914656460285186768e-01 2.499301433563232422e-01 7.461246848106384277e-01
-4.339191019535064697e-01 -8.216402679681777954e-02 5.578145384788513184e-01
-3.740054070949554443e-01 -1.363969687372446060e-02 5.356154441833496094e-01
-3.477715849876403809e-01 -1.373855024576187134e-01 1.829978078603744507e-01
2.907904386520385742e-01 -1.673423349857330322e-01 4.547686278820037842e-01
-3.787885606288909912e-01 2.639668285846710205e-01 -6.367431282997131348e-01
3.592482507228851318e-01 -1.596955060958862305e-01 -7.548098564147949219e-01
2.850401103496551514e-01 1.121877357363700867e-01 -3.957983863074332476e-04
-4.163332879543304443e-01 9.966322779655456543e-02 -8.538060188293457031e-01
3.055875301361083984e-01 2.224093377590179443e-01 8.057866096496582031e-01
5.564301609992980957e-01 4.958694428205490112e-02 6.330978274345397949e-01
1.691767275333404541e-01 1.943443343043327332e-02 -7.938933968544006348e-01
2.268929928541183472e-01 -1.222137361764907837e-01 -8.538060188293457031e-01
1.611715927720069885e-02 1.325578093528747559e-01 -7.938933968544006348e-01
9.316862374544143677e-02 -1.673423349857330322e-01 -6.620097160339355469e-01
3.448428809642791748e-01 1.468503773212432861e-01 8.057866096496582031e-01
2.850401103496551514e-01 -1.352202445268630981e-01 -1.435888260602951050e-01
1.131597012281417847e-01 1.165950298309326172e-02 7.458728551864624023e-01
-3.740054070949554443e-01 -5.081131681799888611e-02 -4.369982182979583740e-01
-3.444712460041046143e-01 -1.373855024576187134e-01 2.382552474737167358e-01
-4.339191019535064697e-01 -1.202772930264472961e-01 2.853842377662658691e-01
-4.313611388206481934e-01 2.820072770118713379e-01 4.026401415467262268e-02
-3.839414119720458984e-01 2.708013057708740234e-01 9.120282530784606934e-02
-3.621439933776855469e-01 -1.373855024576187134e-01 -2.341937422752380371e-01
-3.740054070949554443e-01 3.906913916580379009e-04 -6.675032973289489746e-01
2.850401103496551514e-01 -1.107459738850593567e-01 5.178108215332031250e-01
-3.009776957333087921e-02 -1.373855024576187134e-01 -3.303701877593994141e-01
9.311266243457794189e-02 1.931289583444595337e-01 -7.938933968544006348e-01
2.157459706068038940e-01 4.200413078069686890e-02 7.458728551864624023e-01
-2.203103750944137573e-01 -1.373855024576187134e-01 -5.258865356445312500e-01
-2.543729245662689209e-01 -1.673423349857330322e-01 5.440316796302795410e-01
-3.740054070949554443e-01 1.116948276758193970e-01 4.024868011474609375e-01
-2.058260589838027954e-01 -1.673423349857330322e-01 -3.675002455711364746e-01
-4.339191019535064697e-01 -6.145972758531570435e-02 3.464939296245574951e-01
4.240609705448150635e-01 -1.337384432554244995e-01 -3.059828579425811768e-01
-4.283536076545715332e-01 2.820072770118713379e-01 -1.940061450004577637e-01
-4.339191019535064697e-01 3.702121088281273842e-03 2.664215266704559326e-01
5.287811532616615295e-02 1.538520455360412598e-01 7.458728551864624023e-01
-4.339191019535064697e-01 -1.426222622394561768e-01 -3.098357617855072021e-01
3.374538123607635498e-01 -1.673423349857330322e-01 3.057602420449256897e-02
3.749086260795593262e-01 1.949624866247177124e-01 7.007023096084594727e-01
3.749086260795593262e-01 1.854461580514907837e-01 6.277191638946533203e-01
4.168607890605926514e-01 8.981697261333465576e-02 -3.558406531810760498e-01
-4.339191019535064697e-01 -1.350683569908142090e-01 -1.659168154001235962e-01
5.539172291755676270e-01 -5.055052787065505981e-02 5.932709574699401855e-01
-3.381343483924865723e-01 -1.373855024576187134e-01 5.445692539215087891e-01
9.273108094930648804e-02 -1.373855024576187134e-01 2.960765957832336426e-01
1.681488603353500366e-01 9.520622342824935913e-02 8.057866096496582031e-01
4.002481698989868164e-01 -9.243374317884445190e-02 -4.708859026432037354e-01
3.347420096397399902e-01 1.049083992838859558e-01 -8.538060188293457031e-01
3.775255084037780762e-01 2.820072770118713379e-01 -5.027321577072143555e-01
3.834017515182495117e-01 2.663878798484802246e-01 -5.864676237106323242e-01
-2.775661945343017578e-01 -1.373855024576187134e-01 -5.163092017173767090e-01
2.850401103496551514e-01 8.082162588834762573e-02 3.045237958431243896e-01
-4.339191019535064697e-01 7.878836989402770996e-02 5.503596067428588867e-01
2.850401103496551514e-01 -1.300264298915863037e-01 2.628533840179443359e-01
2.566509842872619629e-01 -1.373855024576187134e-01 -2.747730612754821777e-01
-3.883328735828399658e-01 2.747541069984436035e-01 3.013123571872711182e-01
3.552255034446716309e-01 2.817065119743347168e-01 -6.795635819435119629e-01
9.268691390752792358e-02 -1.673423349857330322e-01 6.086485385894775391e-01
2.159448117017745972e-01 -1.673423349857330322e-01 5.126439929008483887e-01
2.235886454582214355e-01 -1.253671795129776001e-01 7.458728551864624023e-01
2.850401103496551514e-01 -8.402853459119796753e-02 2.352636605501174927e-01
-4.119488298892974854e-01 1.643791496753692627e-01 8.057866096496582031e-01
1.687644422054290771e-01 1.776654273271560669e-01 7.458728551864624023e-01
1.487570852041244507e-01 -1.673423349857330322e-01 -3.014235198497772217e-01
-4.339191019535064697e-01 1.570184156298637390e-02 1.338694244623184204e-01
7.599528413265943527e-03 -1.373855024576187134e-01 6.666248440742492676e-01
-2.983384430408477783e-01 1.640823781490325928e-01 7.458728551864624023e-01
-4.339191019535064697e-01 6.153728812932968140e-02 -4.004556834697723389e-01
3.079851903021335602e-02 -1.673423349857330322e-01 1.370373181998729706e-02
-3.664585351943969727e-01 -1.373855024576187134e-01 1.171708926558494568e-01
-3.740054070949554443e-01 3.490785136818885803e-02 1.837681829929351807e-01
-1.570523828268051147e-01 4.879744350910186768e-02 7.458728551864624023e-01
-3.163489401340484619e-01 -1.373855024576187134e-01 2.980270087718963623e-01
2.850401103496551514e-01 2.337541878223419189e-01 -6.087056994438171387e-01
9.833385050296783447e-02 -1.673423349857330322e-01 1.173247769474983215e-01
-4.339191019535064697e-01 9.605005383491516113e-02 -1.063346564769744873e-01
-3.418053984642028809e-01 -1.673423349857330322e-01 -4.426386654376983643e-01
2.526821494102478027e-01 -1.673423349857330322e-01 -4.345971643924713135e-01
5.038226246833801270e-01 5.733200535178184509e-02 3.995421528816223145e-01
-1.090341061353683472e-01 -1.673423349857330322e-01 5.872727632522583008e-01
2.855746448040008545e-01 -1.673423349857330322e-01 -7.173950672149658203e-01
2.170868813991546631e-01 -1.373855024576187134e-01 -4.116226732730865479e-01
2.755257487297058105e-01 2.147498726844787598e-02 -7.661607265472412109e-01
4.811409413814544678e-01 -1.610064357519149780e-01 8.929836750030517578e-02
3.277966082096099854e-01 2.820072770118713379e-01 -6.385206580162048340e-01
-8.077489584684371948e-02 -1.445537209510803223e-01 -8.538060188293457031e-01
2.850401103496551514e-01 1.637336611747741699e-01 -7.220613360404968262e-01
-1.465368568897247314e-01 -8.401154726743698120e-02 8.057866096496582031e-01
3.654162585735321045e-01 -1.673423349857330322e-01 4.602192044258117676e-01
-3.740054070949554443e-01 1.161618307232856750e-01 5.230795741081237793e-01
-3.740054070949554443e-01 -3.698826581239700317e-02 -2.331915646791458130e-01
-3.740054070949554443e-01 2.154799252748489380e-01 3.802817165851593018e-01
-3.718132078647613525e-01 -1.169706415385007858e-02 7.019103169441223145e-01
-3.779256716370582581e-02 2.210324555635452271e-01 8.057866096496582031e-01
1.142054498195648193e-01 -1.373855024576187134e-01 -4.797217547893524170e-01
3.868619799613952637e-01 -9.735977649688720703e-02 -5.635851025581359863e-01
3.749086260795593262e-01 9.325939416885375977e-02 4.916179180145263672e-01
-3.152568042278289795e-01 -1.673423349857330322e-01 -7.698727846145629883e-01
2.573390677571296692e-02 -1.373855024576187134e-01 -5.860049724578857422e-01
-2.683945894241333008e-01 -1.373855024576187134e-01 2.791992127895355225e-01
-3.740054070949554443e-01 1.863497868180274963e-02 -3.453211486339569092e-01
4.880653619766235352e-01 2.734971344470977783e-01 1.561284661293029785e-01
3.025279939174652100e-01 2.768654227256774902e-01 5.916951894760131836e-01
-3.740054070949554443e-01 1.650819368660449982e-02 4.662014245986938477e-01
-2.207304351031780243e-02 -1.673423349857330322e-01 -4.592772424221038818e-01
4.911988377571105957e-01 3.396961092948913574e-02 1.589442044496536255e-01
-4.339191019535064697e-01 -1.379956956952810287e-02 -5.652087926864624023e-01
-4.339191019535064697e-01 1.296929121017456055e-01 -3.368659615516662598e-01
-3.740054070949554443e-01 -4.441047832369804382e-02 2.862345278263092041e-01
4.523711502552032471e-01 1.911785304546356201e-01 -1.099401563405990601e-01
-2.412654906511306763e-01 -1.373855024576187134e-01 1.769137084484100342e-01
2.788237109780311584e-02 -1.372945755720138550e-01 -7.938933968544006348e-01
2.850401103496551514e-01 3.387339040637016296e-02 -1.925892978906631470e-01
-4.305108487606048584e-01 -1.673423349857330322e-01 3.712929487228393555e-01
2.267650812864303589e-01 -1.673423349857330322e-01 -6.956205964088439941e-01
-3.740054070949554443e-01 2.159645408391952515e-01 2.504603862762451172e-01
-1.552508473396301270e-01 -1.373855024576187134e-01 -3.924381434917449951e-01
-4.339191019535064697e-01 4.725839570164680481e-02 -7.077994197607040405e-02
-4.135665297508239746e-01 2.820072770118713379e-01 1.952009648084640503e-01
3.698526918888092041e-01 6.109494343400001526e-02 -6.813750863075256348e-01
4.185763895511627197e-01 -8.802430331707000732e-02 -3.439602255821228027e-01
-4.339191019535064697e-01 2.407105863094329834e-01 -1.262797862291336060e-01
-4.339191019535064697e-01 -5.241103097796440125e-02 -6.578430533409118652e-01
-3.794140517711639404e-01 7.118690013885498047e-02 8.057866096496582031e-01
-3.890083134174346924e-01 2.752047777175903320e-01 5.112240910530090332e-01
-4.339191019535064697e-01 4.316759482026100159e-02 8.803238719701766968e-02
-3.740054070949554443e-01 2.230268567800521851e-01 6.813763827085494995e-02
-2.210058122873306274e-01 -1.373855024576187134e-01 -1.011913046240806580e-01
2.288114428520202637e-01 2.789147794246673584e-01 8.057866096496582031e-01
5.012546777725219727e-01 2.635961174964904785e-01 2.285790443420410156e-01
-2.930736839771270752e-01 -1.673423349857330322e-01 4.373106956481933594e-01
-3.673177957534790039e-01 7.619955390691757202e-02 7.132092118263244629e-01
-3.740054070949554443e-01 4.822642356157302856e-02 3.255498409271240234e-01
3.795588612556457520e-01 6.161582469940185547e-02 -6.141572594642639160e-01
-4.339191019535064697e-01 -9.349688887596130371e-02 -2.897219657897949219e-01
2.670336067676544189e-01 -1.673423349857330322e-01 -1.013123095035552979e-01
2.850401103496551514e-01 3.479184582829475403e-02 -7.123591303825378418e-01
-3.581812083721160889e-01 1.579433232545852661e-01 -7.743791341781616211e-01
-3.740054070949554443e-01 5.069610103964805603e-02 2.367204725742340088e-01
-4.339191019535064697e-01 -4.407874867320060730e-02 -7.985516190528869629e-01
4.341368377208709717e-01 -1.673423349857330322e-01 -2.173173576593399048e-01
-3.515265583992004395e-01 -1.409046500921249390e-01 -8.538060188293457031e-01
2.850401103496551514e-01 2.127251476049423218e-01 -3.471686542034149170e-01
5.792298913002014160e-01 1.171945407986640930e-02 7.685675621032714844e-01
1.842283904552459717e-01 -1.191621869802474976e-01 -7.938933968544006348e-01
2.907395064830780029e-01 -1.673423349857330322e-01 6.919842958450317383e-01
3.749086260795593262e-01 1.357737183570861816e-01 6.033977866172790527e-01
4.368696212768554688e-01 6.688424199819564819e-02 -2.172813862562179565e-01
-3.118889033794403076e-02 -1.673423349857330322e-01 -2.668254375457763672e-01
-1.996680200099945068e-01 -1.373855024576187134e-01 1.399675160646438599e-01
-3.024564869701862335e-02 -1.673423349857330322e-01 -7.443823218345642090e-01
-4.339191019535064697e-01 1.572138280607759953e-03 7.225657105445861816e-01
-4.124664068222045898e-01 2.820072770118713379e-01 -4.446490406990051270e-01
-4.339191019535064697e-01 2.017240375280380249e-01 -3.896473944187164307e-01
-3.740054070949554443e-01 -1.146538257598876953e-01 -5.452238917350769043e-01
-2.164155244827270508e-01 -1.373855024576187134e-01 -6.150645613670349121e-01
-6.141850352287292480e-02 -1.673423349857330322e-01 -6.398355960845947266e-01
-2.410406619310379028e-01 1.827393323183059692e-01 -7.938933968544006348e-01
-2.390742450952529907e-01 -1.673423349857330322e-01 4.754339754581451416e-01
4.504486918449401855e-01 -4.609812051057815552e-02 -1.232457309961318970e-01
-3.477446138858795166e-01 -1.673423349857330322e-01 4.948103129863739014e-01
-1.656604409217834473e-01 -1.673423349857330322e-01 5.913615226745605469e-01
-2.416751533746719360e-01 1.490753889083862305e-01 -8.538060188293457031e-01
-2.054923325777053833e-01 -1.373855024576187134e-01 7.090226411819458008e-01
1.788057535886764526e-01 -1.673423349857330322e-01 -1.091405972838401794e-01
-4.339191019535064697e-01 -2.504849620163440704e-02 3.796681761741638184e-01
3.099819719791412354e-01 -1.673423349857330322e-01 -3.467040359973907471e-01
-1.843423694372177124e-01 -9.521050751209259033e-02 -8.538060188293457031e-01
-4.339191019535064697e-01 -7.066030800342559814e-02 -4.253795742988586426e-01
4.376460015773773193e-01 2.753836214542388916e-01 -1.836894750595092773e-01
1.134008020162582397e-01 -1.373855024576187134e-01 1.507158428430557251e-01
4.946910142898559570e-01 -1.285276412963867188e-01 1.831316947937011719e-01
8.759331703186035156e-02 -1.373855024576187134e-01 -6.626167893409729004e-02
5.674632787704467773e-01 -1.673423349857330322e-01 7.602543234825134277e-01
-3.298444300889968872e-02 -1.673423349857330322e-01 9.054935723543167114e-02
3.977388516068458557e-02 -1.673423349857330322e-01 -4.930719733238220215e-01
-4.339191019535064697e-01 -2.693377621471881866e-02 4.486815333366394043e-01
3.749086260795593262e-01 2.775798439979553223e-01 4.425324797630310059e-01
2.850401103496551514e-01 -7.493985444307327271e-02 -5.090470910072326660e-01
2.831975817680358887e-01 -1.373855024576187134e-01 -2.626400813460350037e-02
4.413580298423767090e-01 2.820072770118713379e-01 6.683199107646942139e-02
-1.839926540851593018e-01 2.721592187881469727e-01 -8.052002787590026855e-01
2.850401103496551514e-01 -5.865998566150665283e-02 -1.141398698091506958e-01
4.393236637115478516e-01 1.648307740688323975e-01 -2.002930790185928345e-01
-6.163134425878524780e-02 -1.673423349857330322e-01 5.911216735839843750e-01
-3.500067889690399170e-01 -1.673423349857330322e-01 2.869309782981872559e-01
-3.740054070949554443e-01 2.804688736796379089e-02 5.693702101707458496e-01
-4.339191019535064697e-01 -1.288194060325622559e-01 6.551979780197143555e-01
3.969838321208953857e-01 -1.673423349857330322e-01 5.269294977188110352e-01
1.752599179744720459e-01 -1.251523643732070923e-01 7.458728551864624023e-01
3.749086260795593262e-01 2.213801741600036621e-01 6.613800525665283203e-01
1.456283181905746460e-01 -4.124832898378372192e-02 -7.938933968544006348e-01
-2.516960501670837402e-01 -1.673423349857330322e-01 -8.390189409255981445e-01
2.856016457080841064e-01 2.520334422588348389e-01 -4.314626753330230713e-01
4.700015112757682800e-02 -1.673423349857330322e-01 7.477993369102478027e-01
2.900400757789611816e-01 -1.673423349857330322e-01 6.326692104339599609e-01
-3.740054070949554443e-01 1.458033174276351929e-01 1.719587147235870361e-01
-2.674483656883239746e-01 -1.373855024576187134e-01 5.809953063726425171e-02
-1.570723652839660645e-01 6.183937564492225647e-02 8.057866096496582031e-01
-4.339191019535064697e-01 6.763835996389389038e-02 6.591528654098510742e-01
2.993045747280120850e-01 1.498703360557556152e-01 -8.538060188293457031e-01
-2.912781536579132080e-01 -1.373855024576187134e-01 7.234799265861511230e-01
-3.332662880420684814e-01 -1.673423349857330322e-01 8.256125263869762421e-03
1.656536608934402466e-01 -1.373855024576187134e-01 4.366482198238372803e-01
-3.943240642547607422e-01 2.820072770118713379e-01 -7.900325059890747070e-01
2.850401103496551514e-01 2.272214740514755249e-01 -5.209285020828247070e-01
-4.339191019535064697e-01 -1.659054905176162720e-01 9.266065061092376709e-02
4.282046258449554443e-01 -1.673423349857330322e-01 3.163712322711944580e-01
-2.507658004760742188e-01 -1.373855024576187134e-01 -4.687585830688476562e-01
4.736310243606567383e-01 5.733200535178184509e-02 3.577298820018768311e-01
-4.339191019535064697e-01 -1.495946496725082397e-01 -5.816504955291748047e-01
5.013686418533325195e-01 1.704332530498504639e-01 2.293704003095626831e-01
-1.115510761737823486e-01 -1.673423349857330322e-01 5.021024942398071289e-01
-2.941468060016632080e-01 -1.373855024576187134e-01 -4.660068154335021973e-01
3.536008000373840332e-01 3.459060937166213989e-02 -7.939163446426391602e-01
-4.339191019535064697e-01 1.625056564807891846e-01 -5.038492679595947266e-01
2.102094292640686035e-01 -1.373855024576187134e-01 4.122973233461380005e-02
-3.383421599864959717e-01 1.692375726997852325e-02 -8.538060188293457031e-01
-1.577218472957611084e-01 -1.373855024576187134e-01 4.094106703996658325e-02
3.790322840213775635e-01 -1.079842150211334229e-01 -6.178033351898193359e-01
-4.339191019535064697e-01 -1.405429542064666748e-01 -8.520933985710144043e-01
-1.430776566267013550e-01 -1.373855024576187134e-01 6.607285141944885254e-01
2.850401103496551514e-01 -2.908064238727092743e-02 3.273194134235382080e-01
2.850401103496551514e-01 1.184707656502723694e-01 -7.107554078102111816e-01
2.850401103496551514e-01 1.919828802347183228e-01 5.717962980270385742e-01
-4.339191019535064697e-01 1.258668005466461182e-01 6.217340230941772461e-01
-1.465012319386005402e-02 -1.673423349857330322e-01 -6.124712526798248291e-02
1.102889180183410645e-01 -1.373855024576187134e-01 4.250356256961822510e-01
2.850401103496551514e-01 -2.833754010498523712e-02 4.162686765193939209e-01
4.149011801928281784e-03 1.999844312667846680e-01 -7.938933968544006348e-01
1.131376177072525024e-01 -1.673423349857330322e-01 -3.299115896224975586e-01
-3.740054070949554443e-01 1.087025403976440430e-01 -4.941900968551635742e-01
3.814752995967864990e-01 -1.165659539401531219e-02 8.057866096496582031e-01
-8.506843447685241699e-02 -1.673423349857330322e-01 -3.195129632949829102e-01
-4.339191019535064697e-01 1.078882962465286255e-01 -3.948022425174713135e-01
1.478549242019653320e-01 -1.373855024576187134e-01 -5.520424246788024902e-01
-1.434876676648855209e-02 -1.673423349857330322e-01 5.304116606712341309e-01
-4.339191019535064697e-01 2.379478067159652710e-01 2.627714574337005615e-01
-3.740054070949554443e-01 1.465526223182678223e-01 -5.862358212471008301e-01
3.595899641513824463e-01 2.820072770118713379e-01 7.445659637451171875e-01
3.341015279293060303e-01 2.820072770118713379e-01 6.508564949035644531e-01
4.170206487178802490e-01 1.817691177129745483e-01 -3.547365665435791016e-01
-2.184608727693557739e-01 -5.582227930426597595e-02 -8.538060188293457031e-01
-1.802796572446823120e-01 -1.673423349857330322e-01 -7.634019255638122559e-01
2.641898989677429199e-01 -1.373855024576187134e-01 4.263160377740859985e-02
5.450639873743057251e-02 -1.673423349857330322e-01 -7.065547704696655273e-01
3.363966643810272217e-01 2.820072770118713379e-01 -2.255996912717819214e-01
4.012633562088012695e-01 -1.673423349857330322e-01 7.617870569229125977e-01
-4.339191019535064697e-01 2.264840602874755859e-01 -5.321154594421386719e-01
-1.800518333911895752e-01 -1.373855024576187134e-01 3.357615768909454346e-01
1.183622032403945923e-01 -1.673423349857330322e-01 -5.818504095077514648e-01
-3.687436878681182861e-01 -1.373855024576187134e-01 4.038306772708892822e-01
1.405323147773742676e-01 -1.673423349857330322e-01 5.962625741958618164e-01
3.679971992969512939e-01 2.820072770118713379e-01 5.360021591186523438e-01
-1.263261586427688599e-01 -1.673423349857330322e-01 -3.653115779161453247e-02
-2.466581314802169800e-01 1.482345163822174072e-02 -7.938933968544006348e-01
1.627798825502395630e-01 -1.673423349857330322e-01 1.075906157493591309e-01
-4.232636988162994385e-01 -1.673423349857330322e-01 -1.069276779890060425e-01
2.850401103496551514e-01 1.610628068447113037e-01 -4.087989628314971924e-01
-4.339191019535064697e-01 1.500359028577804565e-01 -8.494195342063903809e-01
-4.289141595363616943e-01 -1.525422632694244385e-01 8.057866096496582031e-01
-3.740054070949554443e-01 -1.292990148067474365e-01 -4.665955435484647751e-03
3.597927987575531006e-01 1.719210594892501831e-01 -7.510349154472351074e-01
-2.941148579120635986e-01 -1.673423349857330322e-01 -2.265429049730300903e-01
-1.375620961189270020e-01 -1.373855024576187134e-01 -6.426593661308288574e-01
-1.907682120800018311e-01 -1.373855024576187134e-01 2.964173257350921631e-01
-4.339191019535064697e-01 2.209954857826232910e-01 7.280052900314331055e-01
3.067725598812103271e-01 2.790426611900329590e-01 5.438308119773864746e-01
2.912720441818237305e-01 2.661530673503875732e-01 -7.250508666038513184e-01
-2.965049445629119873e-01 -1.673423349857330322e-01 6.892805099487304688e-01
-3.971777260303497314e-01 -1.673423349857330322e-01 -4.976952373981475830e-01
-3.704982399940490723e-01 -1.673423349857330322e-01 8.287355303764343262e-02
4.995131194591522217e-01 -5.160267651081085205e-02 2.165277749300003052e-01
5.923698469996452332e-02 -1.373855024576187134e-01 6.790258288383483887e-01
-3.276947736740112305e-01 3.940228372812271118e-03 8.057866096496582031e-01
-4.339191019535064697e-01 1.085378751158714294e-01 1.041098777204751968e-02
-3.740054070949554443e-01 1.980180144309997559e-01 6.519246101379394531e-01
-4.339191019535064697e-01 -1.037356406450271606e-01 -8.116241097450256348e-01
-4.339191019535064697e-01 2.054150551557540894e-01 4.980157315731048584e-01
5.023099184036254883e-01 5.733200535178184509e-02 6.860641241073608398e-01
2.850401103496551514e-01 3.230165317654609680e-02 -3.281489908695220947e-01
4.275211691856384277e-01 -9.383860975503921509e-02 8.057866096496582031e-01
-3.740054070949554443e-01 -7.180837541818618774e-02 -4.773446619510650635e-01
1.770521700382232666e-01 -1.373855024576187134e-01 3.538809716701507568e-01
4.374947771430015564e-02 -1.373855024576187134e-01 -4.081144928932189941e-01
-4.339191019535064697e-01 -6.680305581539869308e-03 7.926421761512756348e-01
2.702330052852630615e-01 1.749526262283325195e-01 8.057866096496582031e-01
-2.039905190467834473e-01 -1.673423349857330322e-01 -7.049800753593444824e-01
8.474239706993103027e-02 1.215639710426330566e-01 7.458728551864624023e-01
-1.523052155971527100e-01 -3.399957343935966492e-02 8.057866096496582031e-01
-2.708266079425811768e-01 -1.373855024576187134e-01 -2.013342529535293579e-01
2.850401103496551514e-01 4.525960609316825867e-02 1.655139029026031494e-01
-3.248360753059387207e-01 2.451699823141098022e-01 7.447767853736877441e-01
1.047177091240882874e-01 -1.373855024576187134e-01 4.840179979801177979e-01
-4.052692055702209473e-01 2.816995084285736084e-01 -3.951389789581298828e-01
2.115673422813415527e-01 5.796336755156517029e-02 -7.938933968544006348e-01
-4.339191019535064697e-01 -2.003503590822219849e-02 2.227607369422912598e-01
-3.788187867030501366e-03 -1.673423349857330322e-01 4.730468690395355225e-01
3.582180738449096680e-01 -5.540061742067337036e-02 -7.619451284408569336e-01
4.884030818939208984e-01 -1.673423349857330322e-01 3.515178859233856201e-01
2.850401103496551514e-01 4.789850860834121704e-02 5.667812824249267578e-01
3.749086260795593262e-01 2.268927395343780518e-01 3.643215596675872803e-01
-3.740054070949554443e-01 4.750863090157508850e-02 -1.225263029336929321e-01
2.850401103496551514e-01 7.470796257257461548e-02 3.589858710765838623e-01
5.059049725532531738e-01 1.125577315688133240e-01 2.607860565185546875e-01
3.358511030673980713e-01 -1.673423349857330322e-01 -4.668081700801849365e-01
2.330210357904434204e-01 -1.673423349857330322e-01 -8.088842630386352539e-01
-3.516983985900878906e-01 -1.278891563415527344e-01 8.057866096496582031e-01
-2.890149652957916260e-01 -1.373855024576187134e-01 1.132530495524406433e-01
-1.387381553649902344e-01 -1.673423349857330322e-01 1.427782475948333740e-01
1.872199773788452148e-01 -1.373855024576187134e-01 -5.259674787521362305e-01
2.417400032281875610e-01 -1.373855024576187134e-01 3.389610350131988525e-01
-3.740054070949554443e-01 1.522876918315887451e-01 -3.610944449901580811e-01
3.902922272682189941e-01 1.883168369531631470e-01 -5.398322343826293945e-01
-4.291768968105316162e-01 -1.673423349857330322e-01 6.016412377357482910e-01
-8.158459328114986420e-03 -1.355899423360824585e-01 -8.538060188293457031e-01
-6.902237981557846069e-02 -1.673423349857330322e-01 -8.082208037376403809e-01
-2.860373854637145996e-01 5.699304118752479553e-02 8.057866096496582031e-01
-4.339191019535064697e-01 2.047465890645980835e-01 -7.453295588493347168e-01
3.494131863117218018e-01 -1.673423349857330322e-01 -3.814839720726013184e-01
1.543343812227249146e-01 2.683043479919433594e-01 -8.538060188293457031e-01
-2.758145928382873535e-01 -1.673423349857330322e-01 -2.618039399385452271e-02
-3.740054070949554443e-01 1.471067816019058228e-01 6.273635029792785645e-01
-4.339191019535064697e-01 4.065891355276107788e-02 -7.643591761589050293e-01
4.102321267127990723e-01 -1.414432227611541748e-01 -4.017426371574401855e-01
-1.848652260378003120e-03 -1.373855024576187134e-01 -5.189690589904785156e-01
-2.310427129268646240e-01 -1.673423349857330322e-01 4.121070206165313721e-01
5.248007178306579590e-01 -1.036976724863052368e-01 3.916455209255218506e-01
-1.657223999500274658e-01 -1.373855024576187134e-01 -1.045236289501190186e-01
3.955229818820953369e-01 -1.687328703701496124e-02 -5.036034584045410156e-01
2.579959034919738770e-01 -1.673423349857330322e-01 -2.447392493486404419e-01
-2.905627191066741943e-01 -1.673423349857330322e-01 -6.484056711196899414e-01
2.850401103496551514e-01 2.129249870777130127e-01 -2.778925299644470215e-01
-2.044271826744079590e-01 -1.673423349857330322e-01 -6.606158614158630371e-01
3.327655792236328125e-01 -1.298135966062545776e-01 -8.538060188293457031e-01
-4.339191019535064697e-01 2.194227576255798340e-01 3.924368917942047119e-01
1.401083618402481079e-01 -1.373855024576187134e-01 -7.865682840347290039e-01
-1.290909349918365479e-01 -1.373855024576187134e-01 -7.799845933914184570e-01
3.636896610260009766e-01 -1.276483535766601562e-01 -7.240496873855590820e-01
4.059765636920928955e-01 -4.152490943670272827e-02 -4.312138557434082031e-01
-2.396927475929260254e-01 3.206564486026763916e-02 7.458728551864624023e-01
6.818098574876785278e-02 -1.673423349857330322e-01 -2.554486393928527832e-01
1.637066304683685303e-01 1.656381338834762573e-01 8.057866096496582031e-01
-3.009703457355499268e-01 2.677237987518310547e-01 -8.011764883995056152e-01
3.770798444747924805e-01 1.477896273136138916e-01 3.452959060668945312e-01
4.732123315334320068e-01 3.130615875124931335e-02 3.439044579863548279e-02
5.005872845649719238e-01 1.508127748966217041e-01 3.283545672893524170e-01
1.982670724391937256e-01 8.935900405049324036e-03 -8.538060188293457031e-01
1.053896695375442505e-01 -8.043642342090606689e-02 8.057866096496582031e-01
5.370967984199523926e-01 -1.673423349857330322e-01 6.349083781242370605e-01
-2.063516378402709961e-01 -1.673423349857330322e-01 3.618315756320953369e-01
-2.360816448926925659e-01 -1.673423349857330322e-01 5.870169997215270996e-01
-1.541837006807327271e-01 -1.673423349857330322e-01 7.980617880821228027e-01
3.749086260795593262e-01 1.407915651798248291e-01 4.333618879318237305e-01
-3.740054070949554443e-01 -8.138865232467651367e-02 4.237186610698699951e-01
-6.599082797765731812e-02 -1.373855024576187134e-01 -1.331052631139755249e-01
-4.339191019535064697e-01 -1.381388902664184570e-01 1.835833340883255005e-01
4.907322227954864502e-01 1.951992958784103394e-01 1.557098180055618286e-01
-3.740054070949554443e-01 -4.883391037583351135e-02 3.401091098785400391e-01
-2.763531804084777832e-01 -1.373855024576187134e-01 -6.846544742584228516e-01
2.898451983928680420e-01 2.640118002891540527e-01 -3.853498399257659912e-01
-3.740054070949554443e-01 6.437753140926361084e-02 -1.898555010557174683e-01
-1.470018830150365829e-02 -1.373855024576187134e-01 5.839749053120613098e-02
6.661812961101531982e-02 -1.373855024576187134e-01 -9.182774228975176811e-04
3.749086260795593262e-01 6.822048872709274292e-02 7.762553691864013672e-01
-3.740054070949554443e-01 6.255637854337692261e-02 3.193712607026100159e-02
1.046372726559638977e-01 -1.373855024576187134e-01 -1.223009824752807617e-01
7.500515133142471313e-02 -1.373855024576187134e-01 -5.052831768989562988e-01
4.068338572978973389e-01 5.733200535178184509e-02 5.629703998565673828e-01
7.114657014608383179e-02 -1.673423349857330322e-01 -5.676897764205932617e-01
4.665003716945648193e-02 -1.373855024576187134e-01 -7.372190356254577637e-01
-5.629264563322067261e-02 2.095647007226943970e-01 -7.938933968544006348e-01
-3.740054070949554443e-01 4.257736727595329285e-02 -6.429141163825988770e-01
-3.740054070949554443e-01 9.581083804368972778e-02 -2.824788093566894531e-01
-1.902765929698944092e-01 1.476653218269348145e-01 7.458728551864624023e-01
5.128643512725830078e-01 4.791689291596412659e-02 3.092160224914550781e-01
2.850401103496551514e-01 -6.496390700340270996e-02 1.319493912160396576e-02
-6.244968250393867493e-02 1.339994370937347412e-01 7.458728551864624023e-01
-3.791882395744323730e-01 -1.673423349857330322e-01 3.198294341564178467e-01
-2.954821102321147919e-02 -1.373855024576187134e-01 -4.001489281654357910e-01
-3.902583420276641846e-01 1.159195229411125183e-01 8.057866096496582031e-01
-2.759055495262145996e-01 -7.326221466064453125e-02 -8.538060188293457031e-01
-4.333665370941162109e-01 2.820072770118713379e-01 5.666884183883666992e-01
-3.012321293354034424e-01 7.185575366020202637e-02 -8.538060188293457031e-01
-4.339191019535064697e-01 1.409643702208995819e-02 4.982195794582366943e-01
5.604329705238342285e-01 -4.285673424601554871e-02 6.383975148200988770e-01
-5.904142186045646667e-02 -1.673423349857330322e-01 -2.074433118104934692e-01
3.685667514801025391e-01 -4.657972976565361023e-02 -6.902809143066406250e-01
-4.108667075634002686e-01 -1.673423349857330322e-01 7.441982626914978027e-01
-2.180581837892532349e-01 2.232556641101837158e-01 -8.538060188293457031e-01
-3.072332739830017090e-01 1.471265554428100586e-01 -7.938933968544006348e-01
-2.281939983367919922e-01 2.749769389629364014e-01 7.605310678482055664e-01
4.340285435318946838e-02 -1.673423349857330322e-01 -1.933866590261459351e-01
-2.921284437179565430e-01 1.727324128150939941e-01 -8.538060188293457031e-01
2.542319297790527344e-01 -1.673423349857330322e-01 5.421022176742553711e-01
4.031608104705810547e-01 1.760956943035125732e-01 -4.507191479206085205e-01
-4.339191019535064697e-01 -3.022911772131919861e-02 -1.279624253511428833e-01
2.688261866569519043e-01 2.696775645017623901e-02 8.057866096496582031e-01
-2.890029847621917725e-01 -1.673423349857330322e-01 1.423176229000091553e-01
-6.370266526937484741e-02 2.820072770118713379e-01 -8.450830578804016113e-01
-3.740054070949554443e-01 -1.822499744594097137e-02 2.082984000444412231e-01
-3.740054070949554443e-01 -3.153846412897109985e-02 -5.861558914184570312e-01
-4.311253726482391357e-01 -1.673423349857330322e-01 3.008737266063690186e-01
4.428628087043762207e-01 3.813365474343299866e-02 -1.757748574018478394e-01
3.090697228908538818e-01 2.484103739261627197e-01 -8.538060188293457031e-01
1.030995175242424011e-01 -3.004436567425727844e-02 7.458728551864624023e-01
5.844066739082336426e-01 -5.305150896310806274e-02 8.044156432151794434e-01
-3.740054070949554443e-01 -6.289356946945190430e-02 1.183153968304395676e-02
2.689450383186340332e-01 -1.673423349857330322e-01 4.051746129989624023e-01
3.481581807136535645e-01 -1.673423349857330322e-01 -5.535971522331237793e-01
-4.339191019535064697e-01 -1.094919964671134949e-01 -5.296044945716857910e-01
3.321530818939208984e-01 2.820072770118713379e-01 -4.378275275230407715e-01
-4.339191019535064697e-01 1.523027718067169189e-01 6.878046989440917969e-01
2.850401103496551514e-01 1.353389117866754532e-02 -4.584509134292602539e-01
2.737691998481750488e-01 -1.373855024576187134e-01 -5.197884440422058105e-01
2.850401103496551514e-01 -3.752233088016510010e-02 -6.302063465118408203e-01
5.695676803588867188e-01 -8.360553532838821411e-03 7.016545534133911133e-01
6.490821391344070435e-02 -1.778914779424667358e-02 8.057866096496582031e-01
3.040506737306714058e-03 -7.136173546314239502e-02 -7.938933968544006348e-01
2.359426915645599365e-01 1.087424159049987793e-01 8.057866096496582031e-01
2.070885896682739258e-02 -1.673423349857330322e-01 -2.562699317932128906e-01
2.850401103496551514e-01 1.221814677119255066e-01 5.243445634841918945e-01
-1.818833649158477783e-01 -1.373855024576187134e-01 -7.257742881774902344e-01
-2.550983130931854248e-01 1.935376375913619995e-01 7.458728551864624023e-01
-1.708592474460601807e-01 1.109147593379020691e-01 -7.938933968544006348e-01
8.062953129410743713e-03 -1.373855024576187134e-01 6.240491867065429688e-01
-4.339191019535064697e-01 -7.538749277591705322e-02 -7.534660100936889648e-01
-1.281636804342269897e-01 9.599778801202774048e-02 8.057866096496582031e-01
-3.511008918285369873e-01 -1.373855024576187134e-01 -4.059142768383026123e-01
-3.740054070949554443e-01 1.016746088862419128e-01 2.830970585346221924e-01
2.757465839385986328e-01 -1.673423349857330322e-01 -5.978460609912872314e-02
-4.437125846743583679e-02 5.440815910696983337e-02 8.057866096496582031e-01
-3.740054070949554443e-01 1.807179749011993408e-01 4.446987211704254150e-01
2.850401103496551514e-01 9.091774933040142059e-03 2.934541739523410797e-02
4.872386157512664795e-02 8.972375094890594482e-02 7.458728551864624023e-01
8.757743239402770996e-02 -1.373855024576187134e-01 -1.651014685630798340e-01
4.476715624332427979e-02 7.976508140563964844e-02 -7.938933968544006348e-01
4.884840250015258789e-01 5.733200535178184509e-02 5.101310014724731445e-01
-4.339191019535064697e-01 1.812705248594284058e-01 5.683690309524536133e-01
-1.119727343320846558e-01 -5.535865202546119690e-02 -7.938933968544006348e-01
1.274717785418033600e-02 2.820072770118713379e-01 -8.334295153617858887e-01
2.850401103496551514e-01 2.310243993997573853e-01 5.540825724601745605e-01
-3.740054070949554443e-01 1.434648185968399048e-01 2.548098862171173096e-01
3.452235460281372070e-01 -1.673423349857330322e-01 1.455300301313400269e-01
2.850401103496551514e-01 -2.981085143983364105e-02 -2.621102333068847656e-01
-3.740054070949554443e-01 2.291229367256164551e-01 1.622845083475112915e-01
2.850401103496551514e-01 2.368297278881072998e-01 -3.590995818376541138e-02
1.274418830871582031e-01 -1.673423349857330322e-01 5.177038908004760742e-01
-3.360600173473358154e-01 2.235913872718811035e-01 -3.330256417393684387e-02
1.396541297435760498e-01 -1.673423349857330322e-01 7.864012122154235840e-01
5.452222228050231934e-01 2.241912670433521271e-02 8.057866096496582031e-01
-4.110825061798095703e-01 -1.673423349857330322e-01 -6.677477061748504639e-02
4.159844815731048584e-01 5.733200535178184509e-02 4.251884520053863525e-01
2.362670563161373138e-02 1.715223789215087891e-01 8.057866096496582031e-01
4.595323801040649414e-01 -1.673423349857330322e-01 4.471117854118347168e-01
-4.339191019535064697e-01 -8.494378626346588135e-02 -1.995596885681152344e-01
3.787944912910461426e-01 2.193937748670578003e-01 -6.194500327110290527e-01
-3.526136577129364014e-01 -1.673423349857330322e-01 -7.485399246215820312e-01
-3.740054070949554443e-01 2.525973692536354065e-02 2.906190156936645508e-01
-8.662618696689605713e-02 -8.686624467372894287e-02 8.057866096496582031e-01
-1.490538269281387329e-01 2.209085524082183838e-01 7.458728551864624023e-01
-3.747308552265167236e-01 2.528497874736785889e-01 -5.190220475196838379e-01
2.199645787477493286e-01 -1.373855024576187134e-01 8.186636120080947876e-02
-1.687209755182266235e-01 -1.673423349857330322e-01 -4.695959389209747314e-01
-3.477315902709960938e-01 -1.673423349857330322e-01 -8.206577897071838379e-01
2.850401103496551514e-01 1.894329488277435303e-01 1.236576661467552185e-01
-4.339191019535064697e-01 -5.964619293808937073e-02 6.570186018943786621e-01
1.245359256863594055e-01 -7.783152163028717041e-02 -8.538060188293457031e-01
2.860502600669860840e-01 2.542856335639953613e-01 -3.066003620624542236e-01
4.785780310630798340e-01 2.758082747459411621e-01 1.023368611931800842e-01
-1.974578201770782471e-01 4.425181820988655090e-02 -8.538060188293457031e-01
-4.339191019535064697e-01 -8.374175429344177246e-02 2.636092342436313629e-02
-3.399578928947448730e-01 -1.673423349857330322e-01 -5.104649066925048828e-01
2.850401103496551514e-01 -6.612496823072433472e-02 -7.169104218482971191e-01
2.850401103496551514e-01 4.825451225042343140e-02 -4.110161662101745605e-01
-3.786456882953643799e-01 -1.673423349857330322e-01 -6.762791872024536133e-01
1.950017064809799194e-01 -1.373855024576187134e-01 -1.902112215757369995e-01
3.256443440914154053e-01 -1.673423349857330322e-01 -7.095953226089477539e-01
-3.970958292484283447e-01 2.094551362097263336e-02 -8.538060188293457031e-01
2.926629483699798584e-01 -1.673423349857330322e-01 -1.687135547399520874e-01
-1.647312045097351074e-01 -1.673423349857330322e-01 -2.272093743085861206e-01
-1.065525133162736893e-02 -5.786363407969474792e-02 8.057866096496582031e-01
-3.460969328880310059e-01 -1.673423349857330322e-01 7.732678055763244629e-01
2.197803184390068054e-02 -1.373855024576187134e-01 -2.175891399383544922e-01
-4.164861738681793213e-01 2.820072770118713379e-01 -8.518016338348388672e-01
-4.339191019535064697e-01 2.270855754613876343e-01 -3.570486903190612793e-01
-1.347983330488204956e-01 1.512244492769241333e-01 7.458728551864624023e-01
2.542845159769058228e-02 3.066877275705337524e-02 8.057866096496582031e-01
-1.429837346076965332e-01 3.336879611015319824e-02 -7.938933968544006348e-01
2.850401103496551514e-01 -1.172777116298675537e-01 -2.887058258056640625e-01
3.923305869102478027e-01 -1.673423349857330322e-01 6.037485003471374512e-01
1.177661865949630737e-01 -1.673423349857330322e-01 3.560486808419227600e-02
2.119540274143218994e-01 1.594331264495849609e-01 7.458728551864624023e-01
-4.339191019535064697e-01 -6.318434327840805054e-02 -3.230431079864501953e-01
2.417539954185485840e-01 -1.373855024576187134e-01 -2.807709574699401855e-02
2.850401103496551514e-01 1.078253462910652161e-01 -9.322533756494522095e-02
-3.262049853801727295e-01 5.680162832140922546e-02 -7.925274372100830078e-01
2.764090299606323242e-01 -1.673423349857330322e-01 -4.860826432704925537e-01
4.475360512733459473e-01 1.170526072382926941e-01 -1.434169560670852661e-01
-4.339191019535064697e-01 7.124858442693948746e-03 -2.793058194220066071e-02
1.793643087148666382e-01 -1.673423349857330322e-01 4.945805072784423828e-01
-2.352473139762878418e-01 -7.284954935312271118e-02 -7.938933968544006348e-01
-6.544426083564758301e-02 -6.993190199136734009e-02 -7.938933968544006348e-01
3.687555491924285889e-01 2.783552408218383789e-01 -6.396077871322631836e-01
4.740176796913146973e-01 -1.673423349857330322e-01 6.439231038093566895e-01
4.821501374244689941e-01 1.727457530796527863e-02 9.628772735595703125e-02
-3.190387487411499023e-01 -1.055311784148216248e-01 7.455461621284484863e-01
-3.740054070949554443e-01 4.896587878465652466e-02 -8.026748895645141602e-02
-1.398122906684875488e-01 -1.373855024576187134e-01 4.370858669281005859e-01
-1.555569656193256378e-02 -1.373855024576187134e-01 1.041024327278137207e-01
-3.331923484802246094e-01 -1.373855024576187134e-01 -3.690110445022583008e-01
-2.414686419069766998e-02 -1.673423349857330322e-01 -5.009636282920837402e-01
-4.339191019535064697e-01 -1.436714380979537964e-01 -8.024334907531738281e-01
2.850401103496551514e-01 1.791752129793167114e-01 6.844263058155775070e-03
-4.677332565188407898e-02 -1.673423349857330322e-01 1.616360247135162354e-01
5.036348104476928711e-01 -1.046775653958320618e-02 2.450667619705200195e-01
3.480668738484382629e-02 -1.673423349857330322e-01 1.001026555895805359e-01
-3.740054070949554443e-01 -1.653875596821308136e-02 -1.360069364309310913e-01
1.421019583940505981e-01 -1.673423349857330322e-01 3.464849591255187988e-01
-4.339191019535064697e-01 1.108432114124298096e-01 3.514809310436248779e-01
-2.418929785490036011e-01 2.820072770118713379e-01 -8.433164954185485840e-01
1.178189441561698914e-01 -1.373855024576187134e-01 -2.120516151189804077e-01
-2.428671717643737793e-01 -1.673423349857330322e-01 1.003594473004341125e-01
-2.278982400894165039e-01 -1.673423349857330322e-01 1.526852548122406006e-01
-4.339191019535064697e-01 3.938728477805852890e-03 -8.057438135147094727e-01
-4.339191019535064697e-01 1.753642857074737549e-01 7.259149551391601562e-01
2.493358850479125977e-01 8.620218187570571899e-02 -7.887005805969238281e-01
9.430200606584548950e-02 -1.373855024576187134e-01 -2.468475550413131714e-01
5.080552101135253906e-01 1.965861767530441284e-01 2.756750583648681641e-01
-3.017446994781494141e-01 -1.673423349857330322e-01 -5.827146768569946289e-01
-4.339191019535064697e-01 -4.253349080681800842e-02 -4.904910624027252197e-01
-2.269340157508850098e-01 -7.206417620182037354e-02 7.458728551864624023e-01
-3.313378393650054932e-01 -1.373855024576187134e-01 6.242249608039855957e-01
3.395211696624755859e-01 -1.673423349857330322e-01 6.561982035636901855e-01
-2.749982774257659912e-01 2.305637747049331665e-01 -8.538060188293457031e-01
-3.329205513000488281e-01 2.450261116027832031e-01 -7.907248735427856445e-01
3.307192623615264893e-01 2.820072770118713379e-01 -2.803785204887390137e-01
-1.418306529521942139e-01 -1.373855024576187134e-01 1.988390386104583740e-01
4.269706308841705322e-01 1.749076545238494873e-01 3.270875811576843262e-01
-1.746182143688201904e-01 -1.673423349857330322e-01 2.649926543235778809e-01
-4.339191019535064697e-01 1.806999891996383667e-01 7.710046172142028809e-01
5.645287036895751953e-01 -7.727697491645812988e-02 6.667577028274536133e-01
-4.339191019535064697e-01 4.904594644904136658e-02 -5.637000203132629395e-01
-4.339191019535064697e-01 1.968369632959365845e-01 2.753892838954925537e-01
-4.078451395034790039e-01 2.818683981895446777e-01 1.548135280609130859e-01
-3.360610306262969971e-01 -1.373855024576187134e-01 -3.164494335651397705e-01
2.850401103496551514e-01 2.312662005424499512e-01 -1.441054046154022217e-01
2.850401103496551514e-01 -8.753269165754318237e-02 -4.546949267387390137e-01
4.142768681049346924e-01 3.500767797231674194e-02 -3.737382292747497559e-01
1.725002378225326538e-01 -1.673423349857330322e-01 -4.038019776344299316e-01
9.686993807554244995e-02 -1.673423349857330322e-01 -4.045004248619079590e-01
2.456098943948745728e-01 -1.373855024576187134e-01 -1.722756773233413696e-01
4.001132845878601074e-01 -4.431655630469322205e-02 -4.718161523342132568e-01
-2.166293263435363770e-01 -1.673423349857330322e-01 2.180375456809997559e-01
-3.836346566677093506e-01 -1.673423349857330322e-01 -6.079483032226562500e-01
4.344226419925689697e-01 -1.673423349857330322e-01 4.786323606967926025e-01
-4.339191019535064697e-01 2.070497274398803711e-01 6.206203252077102661e-02
-3.740054070949554443e-01 1.365181207656860352e-01 6.697162985801696777e-01
-3.719141185283660889e-01 1.880730241537094116e-01 -7.496330142021179199e-01
2.648433744907379150e-01 -1.031880751252174377e-01 -7.786686420440673828e-01
2.850401103496551514e-01 -1.297876238822937012e-01 4.816130101680755615e-01
-4.311783015727996826e-01 2.820072770118713379e-01 6.512002348899841309e-01
-3.740054070949554443e-01 2.455237060785293579e-01 -3.965758085250854492e-01
-2.450893819332122803e-01 -1.673423349857330322e-01 7.228434681892395020e-01
-4.258969426155090332e-02 -1.373855024576187134e-01 6.627958416938781738e-01
4.672181606292724609e-01 -9.994369745254516602e-02 8.057866096496582031e-01
2.885149046778678894e-02 9.052050113677978516e-02 8.057866096496582031e-01
2.850401103496551514e-01 -6.832019239664077759e-02 4.197938144207000732e-01
-4.339191019535064697e-01 -1.197077557444572449e-01 -4.702124297618865967e-01
1.431515216827392578e-01 -1.373855024576187134e-01 2.094704508781433105e-01
2.818136811256408691e-01 7.143544498831033707e-03 -8.538060188293457031e-01
1.983100324869155884e-01 -3.310948982834815979e-02 8.057866096496582031e-01
-7.783427089452743530e-02 -1.673423349857330322e-01 8.847802132368087769e-02
-9.676334448158740997e-03 -1.673423349857330322e-01 -3.474014699459075928e-01
4.050433337688446045e-01 2.820072770118713379e-01 5.008238926529884338e-02
2.290092706680297852e-01 -1.373855024576187134e-01 -3.343410193920135498e-01
-3.740054070949554443e-01 1.982098668813705444e-01 5.008405447006225586e-01
2.581527531147003174e-01 2.475091069936752319e-01 -7.839293479919433594e-01
-3.740793466567993164e-01 2.471803724765777588e-01 -5.992973446846008301e-01
-4.339191019535064697e-01 1.993879079818725586e-01 -4.294553101062774658e-01
-3.279395699501037598e-01 -1.373855024576187134e-01 -6.932285428047180176e-01
-3.134132921695709229e-01 1.801134496927261353e-01 8.057866096496582031e-01
4.740746617317199707e-01 1.274636238813400269e-01 4.035793244838714600e-02
3.358391225337982178e-01 2.820072770118713379e-01 -1.320850998163223267e-01
-3.617343008518218994e-01 -2.214783616364002228e-02 -7.702884078025817871e-01
