1.082670129835605621e-02 5.408038944005966187e-02 3.425100147724151611e-01
-2.732223272323608398e-01 2.021989077329635620e-01 7.011947687715291977e-03
-7.267143577337265015e-02 2.910961210727691650e-01 1.195878162980079651e-01
1.496542245149612427e-01 2.910961210727691650e-01 -2.513741552829742432e-01
-2.495692670345306396e-01 2.910961210727691650e-01 2.074855864048004150e-01
-2.404296696186065674e-01 2.910961210727691650e-01 -1.954795867204666138e-01
-3.196041882038116455e-01 2.629346251487731934e-01 -1.679834276437759399e-01
1.126648113131523132e-02 -1.122599095106124878e-01 -3.507033884525299072e-01
-9.731186926364898682e-02 -6.920740008354187012e-01 -2.937051057815551758e-01
3.131068944931030273e-01 2.423252612352371216e-01 6.567984074354171753e-02
-2.533712387084960938e-01 2.423252612352371216e-01 -1.267022937536239624e-01
-1.659629046916961670e-01 3.171828016638755798e-02 2.616480290889739990e-01
2.108212113380432129e-01 2.910961210727691650e-01 -3.784281760454177856e-02
-3.300723731517791748e-01 -8.653762936592102051e-01 -1.038936991244554520e-02
-1.622347086668014526e-01 2.910961210727691650e-01 3.307549282908439636e-02
-9.096029214560985565e-03 -6.796786189079284668e-01 3.430264294147491455e-01
-1.238958463072776794e-01 2.910961210727691650e-01 -1.170718297362327576e-01
4.305758699774742126e-02 2.910961210727691650e-01 3.109860979020595551e-02
1.407646015286445618e-02 2.350292168557643890e-02 2.990229129791259766e-01
6.513120234012603760e-02 2.910961210727691650e-01 -3.072134256362915039e-01
-2.835834026336669922e-01 -6.958518028259277344e-01 1.042558178305625916e-01
3.939003869891166687e-02 2.423252612352371216e-01 -8.208096772432327271e-02
-7.754346821457147598e-03 2.409754246473312378e-01 1.781182438135147095e-01
3.356434702873229980e-01 -2.990878224372863770e-01 4.762900527566671371e-03
-6.731449067592620850e-02 2.423252612352371216e-01 7.658233493566513062e-02
-2.240095585584640503e-01 -6.841898560523986816e-01 -2.174948304891586304e-01
4.013809189200401306e-02 2.423252612352371216e-01 7.266475260257720947e-02
-2.562057077884674072e-01 2.910961210727691650e-01 -6.594360619783401489e-02
-1.124456617981195450e-02 2.279019057750701904e-01 -1.625124216079711914e-01
1.790400296449661255e-01 2.548057734966278076e-01 2.938008606433868408e-01
-3.528352379798889160e-01 -3.677653968334197998e-01 -6.063398439437150955e-03
2.695594727993011475e-01 2.971658669412136078e-02 -1.600808650255203247e-01
1.266459524631500244e-01 2.910961210727691650e-01 2.983859181404113770e-01
-3.529217839241027832e-01 -7.941915988922119141e-01 -5.643628537654876709e-03
-2.797268331050872803e-01 -6.814271211624145508e-01 -1.540331840515136719e-01
3.133341670036315918e-02 2.423252612352371216e-01 -2.126139849424362183e-01
2.778924303129315376e-03 2.910961210727691650e-01 -6.163050234317779541e-02
-1.703961640596389771e-01 1.045140624046325684e-02 -2.810671031475067139e-01
-3.396475017070770264e-01 -5.299847126007080078e-01 7.372779771685600281e-03
-2.594104111194610596e-01 2.910961210727691650e-01 -1.660796105861663818e-01
4.112712573260068893e-03 2.444482594728469849e-01 -1.280897259712219238e-01
-1.093944609165191650e-01 7.795001845806837082e-03 2.933625280857086182e-01
-3.308511972427368164e-01 2.574969530105590820e-01 8.309532701969146729e-02
1.185078993439674377e-01 2.423252612352371216e-01 -2.965998351573944092e-01
-3.557294141501188278e-03 -5.764636024832725525e-02 3.245024681091308594e-01
1.907564583234488964e-03 -7.706037759780883789e-01 -3.349947333335876465e-01
1.220488399267196655e-01 2.423252612352371216e-01 -1.758178919553756714e-01
-2.278725355863571167e-01 2.423252612352371216e-01 1.431841254234313965e-01
-1.772014051675796509e-01 2.423252612352371216e-01 2.221456728875637054e-02
1.992450803518295288e-01 2.423252612352371216e-01 -7.010045461356639862e-03
-3.286253511905670166e-01 -2.004144638776779175e-01 -3.899135859683156013e-03
2.078988105058670044e-01 2.423252612352371216e-01 -2.568536698818206787e-01
-2.306055575609207153e-01 2.423252612352371216e-01 6.156846880912780762e-02
8.704592287540435791e-02 2.739610373973846436e-01 -3.460963368415832520e-01
-1.599246053956449032e-03 -6.067396998405456543e-01 3.238676190376281738e-01
1.262504607439041138e-02 -1.344645321369171143e-01 3.376149833202362061e-01
3.174337446689605713e-01 9.996020235121250153e-03 -7.106802612543106079e-02
2.383478730916976929e-01 2.423252612352371216e-01 -2.905012853443622589e-02
3.518330156803131104e-01 -7.382941842079162598e-01 -1.266365405172109604e-02
3.216549158096313477e-01 2.537836432456970215e-01 -1.107517704367637634e-01
1.205620914697647095e-01 2.910961210727691650e-01 6.266458332538604736e-02
5.490653589367866516e-02 2.452568858861923218e-01 -4.754365887492895126e-03
1.286887973546981812e-01 2.910961210727691650e-01 2.510862052440643311e-01
1.763538271188735962e-01 -6.866512298583984375e-01 -2.805209159851074219e-01
1.692563444375991821e-01 2.551457285881042480e-02 -2.605499625205993652e-01
-3.293055891990661621e-01 -4.219605922698974609e-01 -8.473674766719341278e-03
-8.571373671293258667e-02 2.476132512092590332e-01 -3.268602490425109863e-01
1.227371860295534134e-02 -7.946973443031311035e-01 3.324972391128540039e-01
-3.291538059711456299e-01 -6.514702439308166504e-01 -8.017651736736297607e-03
-2.934607267379760742e-01 2.378027141094207764e-02 -8.775838464498519897e-02
6.888514012098312378e-02 2.910961210727691650e-01 -2.056228965520858765e-01
2.445501834154129028e-01 2.423252612352371216e-01 4.522100090980529785e-02
1.139642857015132904e-02 1.242493614554405212e-01 3.180568516254425049e-01
5.862699821591377258e-02 2.423252612352371216e-01 2.051944732666015625e-01
1.270555425435304642e-02 -7.354682087898254395e-01 3.349720537662506104e-01
-3.234423398971557617e-01 -6.950056552886962891e-01 4.801750928163528442e-02
-5.815733224153518677e-03 -6.584847569465637207e-01 3.256253302097320557e-01
-3.115051686763763428e-01 3.163955733180046082e-02 -4.351193085312843323e-02
2.345728725194931030e-01 2.910961210727691650e-01 4.783840477466583252e-02
-8.485616743564605713e-02 2.423252612352371216e-01 2.768275141716003418e-01
-8.622374385595321655e-02 2.423252612352371216e-01 3.541469201445579529e-02
9.445012547075748444e-03 -7.425684928894042969e-01 -3.396705985069274902e-01
3.490158915519714355e-02 2.423252612352371216e-01 -1.327315419912338257e-01
3.893359005451202393e-02 2.910961210727691650e-01 5.878501757979393005e-02
1.523915082216262817e-01 2.048689313232898712e-02 -2.968580424785614014e-01
-3.405972719192504883e-01 -9.008161425590515137e-01 -1.487113535404205322e-02
-8.080522716045379639e-02 2.930660918354988098e-02 -3.193903565406799316e-01
-1.590704321861267090e-01 2.423252612352371216e-01 -2.890647351741790771e-01
-2.974428236484527588e-01 -7.053731083869934082e-01 -1.035713031888008118e-01
3.309434950351715088e-01 -2.433809489011764526e-01 -1.038488652557134628e-02
-9.139541536569595337e-02 2.910961210727691650e-01 3.271134793758392334e-01
6.839822046458721161e-03 -5.783774852752685547e-01 -3.568645417690277100e-01
-4.087143577635288239e-03 -8.218281865119934082e-01 -3.354295492172241211e-01
-1.292327791452407837e-01 2.287920862436294556e-01 -1.603179983794689178e-02
-1.864743530750274658e-01 2.910961210727691650e-01 1.138834506273269653e-01
1.066324189305305481e-01 -6.816973686218261719e-01 -3.062565624713897705e-01
-2.014481425285339355e-01 2.423252612352371216e-01 -4.120826348662376404e-02
3.497192561626434326e-01 -8.670452833175659180e-01 -1.490156631916761398e-02
1.421175315044820309e-03 -4.557938277721405029e-01 -3.349663615226745605e-01
-3.747770935297012329e-02 2.423252612352371216e-01 1.172002404928207397e-01
-1.416650712490081787e-01 2.910961210727691650e-01 2.126501649618148804e-01
3.166644275188446045e-02 1.513292640447616577e-02 -3.317134082317352295e-01
-3.351089730858802795e-02 2.423252612352371216e-01 -3.193031251430511475e-01
-3.322748243808746338e-01 8.221708238124847412e-02 5.068689119070768356e-03
7.840526290237903595e-03 -3.628682494163513184e-01 -3.559750616550445557e-01
-7.246360182762145996e-02 -7.054028511047363281e-01 3.052975833415985107e-01
3.307065665721893311e-01 1.462135463953018188e-01 1.774625503458082676e-03
2.298771440982818604e-01 2.910961210727691650e-01 2.357059717178344727e-01
-3.469471633434295654e-01 -8.299186080694198608e-02 -1.508258562535047531e-02
-1.711218059062957764e-01 2.423252612352371216e-01 2.844640612602233887e-01
1.023640297353267670e-02 -3.458770737051963806e-02 -3.530583381652832031e-01
2.224860191345214844e-01 2.910961210727691650e-01 -9.856696124188601971e-05
4.944290965795516968e-02 2.910961210727691650e-01 2.733248770236968994e-01
2.461851686239242554e-01 2.423252612352371216e-01 9.322657436132431030e-02
-2.569114565849304199e-01 -6.935117840766906738e-01 1.565314382314682007e-01
-2.731237411499023438e-01 2.423252612352371216e-01 -2.032012790441513062e-01
1.210188940167427063e-01 3.103594109416007996e-02 2.830291092395782471e-01
3.540965020656585693e-01 2.849080264568328857e-01 9.085650555789470673e-03
-9.524459950625896454e-03 2.473011463880538940e-01 -3.617220222949981689e-01
-5.843845754861831665e-02 2.861975729465484619e-01 -3.322858512401580811e-01
2.494622617959976196e-01 -6.828740835189819336e-01 -2.103115171194076538e-01
3.133963048458099365e-01 2.910961210727691650e-01 4.640493169426918030e-02
-1.315409094095230103e-01 -7.005794644355773926e-01 2.929298281669616699e-01
1.065331175923347473e-01 2.423252612352371216e-01 -2.504194378852844238e-01
3.385729789733886719e-01 -4.293290078639984131e-01 -1.713671162724494934e-02
1.396024376153945923e-01 2.910961210727691650e-01 -9.802582114934921265e-02
-2.014963924884796143e-01 2.910961210727691650e-01 -1.591594666242599487e-01
2.321001738309860229e-01 -7.008703351020812988e-01 1.957385092973709106e-01
2.210350520908832550e-02 2.423252612352371216e-01 3.033355772495269775e-01
-5.485673621296882629e-02 2.910961210727691650e-01 2.972708940505981445e-01
2.405765652656555176e-01 2.423252612352371216e-01 -2.214726954698562622e-01
5.358345806598663330e-03 2.910961210727691650e-01 -1.429571211338043213e-01
3.360215425491333008e-01 2.426317036151885986e-01 -5.668148770928382874e-02
1.527248919010162354e-01 2.423252612352371216e-01 -8.917277306318283081e-02
3.392595946788787842e-01 2.784411311149597168e-01 -3.866456449031829834e-02
3.228480219841003418e-01 -6.834607124328613281e-01 -2.953871339559555054e-02
1.938457190990447998e-01 2.423252612352371216e-01 1.235486716032028198e-01
-3.496262729167938232e-01 2.423252612352371216e-01 7.568291574716567993e-02
-3.507923781871795654e-01 -2.327893376350402832e-01 2.104324987158179283e-03
-2.225743047893047333e-02 2.423252612352371216e-01 -1.930856406688690186e-01
-1.035744696855545044e-01 2.910961210727691650e-01 2.415394484996795654e-01
-2.103246003389358521e-01 2.500172890722751617e-02 2.446767687797546387e-01
1.945323497056961060e-01 1.730699092149734497e-02 2.595746815204620361e-01
-3.612073659896850586e-01 2.557775676250457764e-01 -4.465642571449279785e-02
1.142115369439125061e-01 2.423252612352371216e-01 2.592540383338928223e-01
3.647900419309735298e-03 -4.111772403120994568e-02 3.475838005542755127e-01
1.737477779388427734e-01 2.910961210727691650e-01 -1.983402818441390991e-01
-3.491793572902679443e-01 -6.023312211036682129e-01 -1.341553684324026108e-02
2.420491129159927368e-01 2.910961210727691650e-01 -1.665378361940383911e-01
2.153998911380767822e-01 2.910961210727691650e-01 1.807484179735183716e-01
-1.379602849483489990e-01 1.137281116098165512e-02 -2.996740341186523438e-01
-6.298266351222991943e-02 2.910961210727691650e-01 5.691091343760490417e-02
-2.707560062408447266e-01 1.275387220084667206e-02 1.370364278554916382e-01
3.493901193141937256e-01 -6.634436249732971191e-01 4.084291867911815643e-03
-2.009601444005966187e-01 2.910961210727691650e-01 -1.197175979614257812e-01
-9.962709248065948486e-02 2.910961210727691650e-01 1.955030113458633423e-01
-3.347290456295013428e-01 2.910961210727691650e-01 1.308997510932385921e-03
-3.396685048937797546e-02 2.423252612352371216e-01 -2.671338915824890137e-01
-5.280641838908195496e-03 2.423252612352371216e-01 2.461245059967041016e-01
2.978309094905853271e-01 2.881505340337753296e-02 -1.361646652221679688e-01
-2.390365600585937500e-01 7.546719163656234741e-03 -2.114627510309219360e-01
2.514142990112304688e-01 1.296735927462577820e-02 2.035247385501861572e-01
-3.272499740123748779e-01 -6.959440708160400391e-01 9.239148348569869995e-03
-4.223974421620368958e-02 1.669272221624851227e-02 -3.075631260871887207e-01
-1.005751546472311020e-02 -8.880469202995300293e-01 -3.399160206317901611e-01
7.014114409685134888e-02 1.612882688641548157e-02 -3.260899186134338379e-01
5.264775245450437069e-04 -2.685479521751403809e-01 -3.349145650863647461e-01
-3.293006122112274170e-01 -8.034176826477050781e-01 -8.460764773190021515e-03
-2.625789344310760498e-01 2.910961210727691650e-01 -1.050807461142539978e-01
5.364772398024797440e-03 2.910961210727691650e-01 9.439836442470550537e-02
3.373004496097564697e-01 2.423252612352371216e-01 -1.937767304480075836e-02
3.105505108833312988e-01 -7.051205039024353027e-01 -5.000918358564376831e-02
-3.498475551605224609e-01 -1.366754919290542603e-01 3.442354733124375343e-03
-1.306840628385543823e-01 2.604753673076629639e-01 -3.117800652980804443e-01
6.270980462431907654e-03 -9.034612178802490234e-01 3.483264744281768799e-01
-5.588646233081817627e-02 2.910961210727691650e-01 1.495247632265090942e-01
3.253497779369354248e-01 1.189203839749097824e-02 -2.864361740648746490e-02
-1.224903669208288193e-02 -1.943646520376205444e-01 -3.453756570816040039e-01
3.124628067016601562e-01 -6.826010346412658691e-01 7.463736832141876221e-02
2.947779893875122070e-01 3.157432004809379578e-02 1.031556576490402222e-01
2.269022613763809204e-01 2.910961210727691650e-01 -5.951834842562675476e-02
8.502931892871856689e-02 2.226586267352104187e-02 -2.984930276870727539e-01
3.490595817565917969e-01 -9.122192263603210449e-01 6.233821157366037369e-03
2.784706950187683105e-01 2.910961210727691650e-01 7.570490241050720215e-02
-1.085610166192054749e-01 2.910961210727691650e-01 -1.987467408180236816e-01
2.180605530738830566e-01 1.827025227248668671e-02 -2.192411720752716064e-01
1.134475916624069214e-01 2.423252612352371216e-01 1.226904019713401794e-01
3.361603943631052971e-03 -1.895093470811843872e-01 3.476788401603698730e-01
-2.467163950204849243e-01 -6.838926672935485840e-01 2.031885385513305664e-01
-3.394985496997833252e-01 2.545554041862487793e-01 2.285728044807910919e-02
1.525847520679235458e-02 2.910961210727691650e-01 -1.105403974652290344e-01
-3.164540827274322510e-01 2.553839087486267090e-01 -1.224470734596252441e-01
1.016338318586349487e-01 2.423252612352371216e-01 -2.485009282827377319e-02
2.329953461885452271e-01 2.423252612352371216e-01 2.184595167636871338e-01
-9.042152017354965210e-02 2.559520304203033447e-01 3.321603238582611084e-01
-3.193790465593338013e-02 2.423252612352371216e-01 3.107260167598724365e-01
-2.552651464939117432e-01 2.689234316349029541e-01 2.281999289989471436e-01
-2.239430556073784828e-03 -4.088657796382904053e-01 -3.589698374271392822e-01
2.800035476684570312e-01 1.795745268464088440e-02 1.672230511903762817e-01
7.018065452575683594e-02 2.910961210727691650e-01 -6.198189780116081238e-02
-7.409970741719007492e-03 2.910961210727691650e-01 -2.671873010694980621e-02
-2.069212794303894043e-01 2.910961210727691650e-01 2.451974153518676758e-01
1.098374556750059128e-02 -3.620838820934295654e-01 3.421972095966339111e-01
-2.039687894284725189e-02 -7.054114341735839844e-01 -3.239130079746246338e-01
-6.372969597578048706e-03 4.095934703946113586e-02 3.259920477867126465e-01
2.816165387630462646e-01 2.580864131450653076e-01 1.959356963634490967e-01
1.276846975088119507e-02 2.013590782880783081e-01 2.641441226005554199e-01
2.940906584262847900e-01 2.618075013160705566e-01 -2.112627178430557251e-01
4.899894446134567261e-02 -6.885756254196166992e-01 2.961458861827850342e-01
2.039925754070281982e-01 2.910961210727691650e-01 6.760586053133010864e-02
-3.485211431980133057e-01 -4.743993580341339111e-01 4.622028209269046783e-03
-1.616637110710144043e-01 2.910961210727691650e-01 -1.920826584100723267e-01
1.537349671125411987e-01 -6.849957108497619629e-01 2.812870144844055176e-01
3.638624250888824463e-01 2.490240931510925293e-01 3.987172245979309082e-02
3.032033443450927734e-01 2.910961210727691650e-01 -1.041855737566947937e-01
-1.131602525711059570e-01 2.423252612352371216e-01 1.057801544666290283e-01
4.828543961048126221e-02 2.910961210727691650e-01 -1.236926391720771790e-01
1.210638973861932755e-02 4.774703178554773331e-03 3.319936096668243408e-01
-2.021695226430892944e-01 -6.838444471359252930e-01 -2.580311596393585205e-01
-2.846076488494873047e-01 2.910961210727691650e-01 -3.647971525788307190e-02
-6.075501441955566406e-03 1.898687779903411865e-01 2.934199869632720947e-01
2.038294225931167603e-01 2.566883265972137451e-01 3.053997159004211426e-01
-1.199871674180030823e-02 1.236088946461677551e-02 -3.440499603748321533e-01
2.544913589954376221e-01 2.247142046689987183e-01 -7.195625919848680496e-03
-2.844899296760559082e-01 1.206013839691877365e-02 1.094799786806106567e-01
-5.561094265431165695e-03 -4.822210371494293213e-01 -3.579441308975219727e-01
8.068259060382843018e-02 2.910961210727691650e-01 1.407476067543029785e-01
3.534985184669494629e-01 -7.708832621574401855e-01 -9.411447681486606598e-03
-2.445366382598876953e-01 -6.910377144813537598e-01 -1.867187470197677612e-01
-1.893834676593542099e-03 -6.708468198776245117e-01 -3.589903712272644043e-01
-3.190573155879974365e-01 -6.826364398002624512e-01 -4.418465122580528259e-02
1.445520818233489990e-01 2.423252612352371216e-01 6.835986673831939697e-02
-4.790651425719261169e-02 2.217485457658767700e-01 -3.434459795244038105e-04
-2.490436732769012451e-01 1.578480377793312073e-02 -1.807079613208770752e-01
3.586744368076324463e-01 2.511655092239379883e-01 -6.587260216474533081e-02
1.956707984209060669e-01 2.910961210727691650e-01 1.413611769676208496e-01
1.729270964860916138e-01 2.910961210727691650e-01 1.971067935228347778e-01
-8.867343887686729431e-03 5.438044294714927673e-02 -3.384789228439331055e-01
2.783217132091522217e-01 -6.815753579139709473e-01 -1.536061763763427734e-01
1.077740360051393509e-02 -5.118898153305053711e-01 3.426086306571960449e-01
9.497502818703651428e-03 -1.572791635990142822e-01 -3.541804850101470947e-01
1.939109861850738525e-01 -6.911448240280151367e-01 2.600484788417816162e-01
-1.558096706867218018e-01 2.244163006544113159e-01 3.750839503481984138e-03
7.999059744179248810e-03 5.831591319292783737e-03 -3.558339178562164307e-01
2.338053882122039795e-01 2.423252612352371216e-01 -1.748106628656387329e-01
-5.261092446744441986e-03 -4.396283626556396484e-01 3.464035093784332275e-01
-3.193147778511047363e-01 2.423252612352371216e-01 1.184692233800888062e-01
-3.250113725662231445e-01 1.046196073293685913e-01 -1.137970387935638428e-02
2.825453318655490875e-02 2.910961210727691650e-01 -3.114154636859893799e-01
1.635292768478393555e-01 2.667643874883651733e-02 2.778390049934387207e-01
-1.191228181123733521e-01 2.423252612352371216e-01 -5.409324541687965393e-02
8.425219915807247162e-03 -5.191234946250915527e-01 -3.554551303386688232e-01
3.375522494316101074e-01 -8.220373988151550293e-01 5.720414221286773682e-03
-3.438729345798492432e-01 -9.120085835456848145e-01 8.663533255457878113e-03
-2.721597552299499512e-01 2.910961210727691650e-01 8.504879474639892578e-02
3.371330499649047852e-01 2.824438214302062988e-01 -1.096799895167350769e-01
-2.223951369524002075e-01 2.910961210727691650e-01 1.314622582867741585e-03
-3.399007320404052734e-01 -5.124977231025695801e-01 -1.683042570948600769e-02
-1.929518878459930420e-01 2.423252612352371216e-01 -9.153694659471511841e-02
-3.294375240802764893e-01 -7.319436073303222656e-01 -3.188112750649452209e-04
-1.714615672826766968e-01 2.423252612352371216e-01 2.010853886604309082e-01
-2.810241580009460449e-01 2.423252612352371216e-01 -3.799518803134560585e-03
-3.334147036075592041e-01 -3.168097138404846191e-01 4.954062402248382568e-03
2.850539088249206543e-01 2.910961210727691650e-01 -3.179698437452316284e-02
3.416677415370941162e-01 2.579559087753295898e-01 -1.928468816913664341e-03
-3.270407319068908691e-01 2.898349463939666748e-01 -1.104708760976791382e-01
2.996907532215118408e-01 2.847952768206596375e-02 -8.031333237886428833e-02
1.701876968145370483e-01 2.423252612352371216e-01 -2.842271327972412109e-01
1.665956825017929077e-01 2.910961210727691650e-01 2.392994016408920288e-01
-2.450622469186782837e-01 2.502739131450653076e-01 -2.332226186990737915e-01
3.440021276473999023e-01 -1.896483600139617920e-01 -1.749009452760219574e-02
-8.539565838873386383e-03 2.252440750598907471e-01 1.167498230934143066e-01
-2.119305133819580078e-01 2.423252612352371216e-01 8.959554880857467651e-02
-3.776973858475685120e-02 2.423252612352371216e-01 -1.254801452159881592e-01
-1.951337754726409912e-01 1.995986513793468475e-02 -2.384375482797622681e-01
2.583990097045898438e-01 -6.820377707481384277e-01 -1.824231147766113281e-01
-4.836764559149742126e-02 2.910961210727691650e-01 -2.504073679447174072e-01
2.719236314296722412e-01 2.900179624557495117e-01 2.191773504018783569e-01
1.815446615219116211e-01 -7.040033340454101562e-01 -2.576679885387420654e-01
2.793616056442260742e-01 -6.815178394317626953e-01 1.475748419761657715e-01
-4.268113058060407639e-03 -3.396502733230590820e-01 3.247379660606384277e-01
1.050790101289749146e-01 2.423252612352371216e-01 8.697248995304107666e-02
-1.627369076013565063e-01 2.423252612352371216e-01 1.126584559679031372e-01
-9.002642333507537842e-02 2.248269915580749512e-01 -1.348646916449069977e-02
-2.103246003389358521e-01 2.796710431575775146e-01 -2.847931683063507080e-01
-3.362708166241645813e-02 1.643452420830726624e-02 3.209260702133178711e-01
7.458598352968692780e-03 -7.036841511726379395e-01 -3.154287934303283691e-01
2.488011568784713745e-01 2.423252612352371216e-01 -9.802723675966262817e-02
-2.577385306358337402e-01 3.174098581075668335e-02 1.797390580177307129e-01
-3.336828351020812988e-01 -5.811530947685241699e-01 5.130683537572622299e-03
7.929018884897232056e-02 2.741738259792327881e-01 3.541570901870727539e-01
-1.913906782865524292e-01 2.910961210727691650e-01 2.515215240418910980e-02
9.750132262706756592e-02 -6.830648779869079590e-01 2.891533970832824707e-01
-5.430077016353607178e-02 2.910961210727691650e-01 -2.383895404636859894e-02
8.612380176782608032e-02 -7.051886916160583496e-01 -3.141612410545349121e-01
1.248272508382797241e-01 2.451299130916595459e-01 -6.927097216248512268e-03
1.016866322606801987e-02 7.773555815219879150e-02 -3.397365510463714600e-01
8.257506787776947021e-02 2.910961210727691650e-01 -1.717917770147323608e-01
-2.366808801889419556e-01 2.423252612352371216e-01 2.694633305072784424e-01
1.835215389728546143e-01 2.910961210727691650e-01 5.516767501831054688e-03
-2.297862768173217773e-01 1.241481676697731018e-02 1.968854963779449463e-01
7.209151051938533783e-03 -6.393769979476928711e-01 -3.565361201763153076e-01
-3.291587829589843750e-01 2.442361861467361450e-01 -8.499202132225036621e-02
-1.198009327054023743e-01 2.143880166113376617e-02 2.744378149509429932e-01
1.616502851247787476e-01 2.215811163187026978e-01 -9.535026736557483673e-03
3.058789074420928955e-01 -7.052935957908630371e-01 -7.688234746456146240e-02
-5.481947679072618484e-03 2.423252612352371216e-01 -2.106832116842269897e-01
1.121732499450445175e-02 2.910961210727691650e-01 -1.835204213857650757e-01
-1.227308344095945358e-02 1.327186673879623413e-01 -3.301933407783508301e-01
1.085727289319038391e-02 1.731883138418197632e-01 -2.992300093173980713e-01
1.814886182546615601e-01 2.809832990169525146e-01 3.105933666229248047e-01
-7.679826766252517700e-02 2.423252612352371216e-01 -1.675159782171249390e-01
-2.464432865381240845e-01 2.901179492473602295e-01 2.463926225900650024e-01
-1.228499878197908401e-02 2.212158292531967163e-01 -2.425587177276611328e-01
-3.436650931835174561e-01 -2.622337341308593750e-01 7.077630609273910522e-03
-2.618643641471862793e-02 2.910961210727691650e-01 3.022333085536956787e-01
-7.506185024976730347e-02 2.910961210727691650e-01 -1.204737350344657898e-01
-3.275549709796905518e-01 1.395451873540878296e-01 -1.574076525866985321e-02
-3.329252600669860840e-01 -6.998722553253173828e-01 -1.386219728738069534e-02
1.765673309564590454e-01 2.423252612352371216e-01 -1.330195218324661255e-01
-1.949124634265899658e-01 2.910961210727691650e-01 -2.474991381168365479e-01
-1.248784246854484081e-03 2.450561374425888062e-01 4.072162881493568420e-02
-1.211334392428398132e-02 -1.251489967107772827e-01 -3.492244482040405273e-01
-6.683066487312316895e-02 1.082379836589097977e-02 2.952053248882293701e-01
4.105115775018930435e-03 -2.145618796348571777e-01 3.474327325820922852e-01
3.149411976337432861e-01 1.752716153860092163e-01 -4.115255083888769150e-03
1.174931600689888000e-02 -6.912482976913452148e-01 3.309182822704315186e-01
8.176886476576328278e-03 2.417989373207092285e-01 -6.234400719404220581e-02
2.707057297229766846e-01 2.337099052965641022e-02 -1.915059685707092285e-01
2.308347523212432861e-01 2.423252612352371216e-01 -5.402202904224395752e-02
-7.908198051154613495e-03 -5.047937110066413879e-02 -3.376263380050659180e-01
3.087530732154846191e-01 2.445390671491622925e-01 1.486955583095550537e-01
-2.132583707571029663e-01 2.182607948780059814e-01 -1.295901741832494736e-02
-9.338333271443843842e-03 2.210129797458648682e-01 -3.455008147284388542e-03
1.927959173917770386e-01 2.218152135610580444e-01 -1.271947845816612244e-02
-9.339144080877304077e-02 -7.010086774826049805e-01 2.865565717220306396e-01
-2.771838903427124023e-01 2.455171942710876465e-01 2.400257587432861328e-01
3.396582305431365967e-01 -1.465081125497817993e-01 6.299717817455530167e-03
7.748141884803771973e-02 8.223413489758968353e-03 2.977461218833923340e-01
2.538316845893859863e-01 1.977486312389373779e-01 -7.351215463131666183e-03
-2.030051052570343018e-01 2.423252612352371216e-01 1.885367631912231445e-01
3.031260073184967041e-01 -6.861270666122436523e-01 -1.282507479190826416e-01
-3.438814580440521240e-01 -8.362444639205932617e-01 -1.637716963887214661e-02
-3.521564006805419922e-01 -6.353346109390258789e-01 -8.951283060014247894e-03
-2.031278163194656372e-01 2.836688160896301270e-01 2.929759323596954346e-01
9.837946295738220215e-02 2.910961210727691650e-01 -9.496509283781051636e-02
-2.763837873935699463e-01 2.910961210727691650e-01 1.568783074617385864e-01
-2.015573978424072266e-01 -6.993544697761535645e-01 2.236403971910476685e-01
-5.468160659074783325e-02 2.910961210727691650e-01 -1.883303374052047729e-01
-1.439654082059860229e-01 2.423252612352371216e-01 -2.056995034217834473e-01
-7.084634900093078613e-02 2.423252612352371216e-01 -2.420160919427871704e-01
-1.183848083019256592e-02 -6.911888122558593750e-01 2.987732291221618652e-01
1.600862294435501099e-01 2.787276804447174072e-01 -3.164105117321014404e-01
-9.028177708387374878e-02 2.910961210727691650e-01 -1.790155172348022461e-01
2.082937397062778473e-03 -8.906770944595336914e-01 -3.588428795337677002e-01
-4.529465362429618835e-02 2.910961210727691650e-01 -7.596945017576217651e-02
-1.687072813510894775e-01 2.972510643303394318e-02 -2.646704018115997314e-01
-1.421204507350921631e-01 2.910961210727691650e-01 -3.031036257743835449e-01
-9.198343753814697266e-02 2.423252612352371216e-01 -9.609717875719070435e-02
-2.844948768615722656e-01 2.910961210727691650e-01 4.033483937382698059e-02
-2.909291386604309082e-01 2.423252612352371216e-01 -1.801263093948364258e-01
2.726669907569885254e-01 1.081954967230558395e-02 1.395566612482070923e-01
1.895954757928848267e-01 -6.950141191482543945e-01 2.335616946220397949e-01
5.807594396173954010e-03 -2.571082115173339844e-01 3.249067962169647217e-01
-1.257202178239822388e-01 2.910961210727691650e-01 -2.383900284767150879e-01
5.882554128766059875e-02 2.910961210727691650e-01 2.323515862226486206e-01
2.563972771167755127e-01 2.910961210727691650e-01 -2.046716958284378052e-01
-2.910582423210144043e-01 -6.989303231239318848e-01 1.425797790288925171e-01
-3.007000386714935303e-01 1.900063604116439819e-01 -2.869079820811748505e-03
7.924833893775939941e-02 2.423252612352371216e-01 -2.275480479001998901e-01
-4.014984238892793655e-03 -5.821077823638916016e-01 3.246542811393737793e-01
4.158893972635269165e-02 2.423252612352371216e-01 -3.296275064349174500e-02
1.244505941867828369e-01 2.910961210727691650e-01 -2.077134884893894196e-02
3.082487285137176514e-01 -7.030159831047058105e-01 2.343509532511234283e-02
-1.930873692035675049e-01 2.423252612352371216e-01 -3.045300841331481934e-01
-1.081226468086242676e-01 2.423252612352371216e-01 3.007791936397552490e-01
-2.865412533283233643e-01 3.185167163610458374e-02 -1.376804709434509277e-01
4.540630057454109192e-02 2.423252612352371216e-01 2.866409718990325928e-01
-3.322379291057586670e-01 5.412935093045234680e-02 3.915544133633375168e-03
-2.701637446880340576e-01 2.195022813975811005e-02 -1.910498887300491333e-01
6.627774238586425781e-02 2.910961210727691650e-01 1.125371530652046204e-01
9.499245136976242065e-02 2.423252612352371216e-01 -1.176442578434944153e-01
8.482361584901809692e-02 2.448483407497406006e-01 -8.535619825124740601e-03
-2.644614875316619873e-01 2.423252612352371216e-01 2.144440412521362305e-01
1.261369604617357254e-02 2.910961210727691650e-01 2.692356407642364502e-01
-1.174098104238510132e-01 2.423252612352371216e-01 -2.336702048778533936e-01
-1.322743594646453857e-01 2.910961210727691650e-01 8.602979779243469238e-02
-2.198507934808731079e-01 2.910961210727691650e-01 1.830437779426574707e-01
-1.241107657551765442e-01 2.696341574192047119e-01 -3.357267677783966064e-01
1.046633422374725342e-01 2.661435902118682861e-01 -3.211310505867004395e-01
-6.148329749703407288e-02 2.910961210727691650e-01 2.588154748082160950e-02
-2.994587421417236328e-01 -7.012951970100402832e-01 5.955406650900840759e-02
4.343958571553230286e-03 2.910961210727691650e-01 -2.301895618438720703e-01
-2.536173760890960693e-01 2.910961210727691650e-01 2.593154786154627800e-03
-1.494846343994140625e-01 2.449916154146194458e-01 -6.870748940855264664e-03
2.710298895835876465e-01 2.423252612352371216e-01 -1.311589628458023071e-01
-3.261895477771759033e-01 1.485557667911052704e-02 -2.438094839453697205e-02
-2.409290224313735962e-01 2.910961210727691650e-01 7.476788759231567383e-02
-3.527721166610717773e-01 -5.565103143453598022e-02 -2.681194571778178215e-03
-1.157499924302101135e-01 3.147640451788902283e-02 -3.033781051635742188e-01
-3.498227298259735107e-01 -4.016931056976318359e-01 -1.269231177866458893e-02
1.457742452621459961e-01 2.423252612352371216e-01 -3.003734350204467773e-01
-6.118778884410858154e-02 2.423252612352371216e-01 -9.237819910049438477e-02
1.152875795960426331e-01 2.910961210727691650e-01 -1.578628271818161011e-01
-1.775610148906707764e-01 -6.859192252159118652e-01 -2.782121002674102783e-01
-8.515662513673305511e-03 -9.779752790927886963e-02 -3.381661176681518555e-01
-3.328784406185150146e-01 2.908457517623901367e-01 8.967783302068710327e-02
-1.083422265946865082e-02 -9.088953137397766113e-01 3.283441662788391113e-01
-1.956515610218048096e-01 2.423252612352371216e-01 -1.910697370767593384e-01
-6.690840423107147217e-02 2.910961210727691650e-01 1.901008337736129761e-01
1.804657876491546631e-01 2.423252612352371216e-01 -1.953058093786239624e-01
4.435515031218528748e-02 2.781063318252563477e-02 2.991172373294830322e-01
2.272179126739501953e-01 2.423252612352371216e-01 2.489859014749526978e-01
6.557106971740722656e-03 2.225429713726043701e-01 3.018862009048461914e-02
3.296993374824523926e-01 1.196011751890182495e-01 6.379586178809404373e-03
3.300376832485198975e-01 -7.919571399688720703e-01 -3.769195405766367912e-03
1.950487345457077026e-01 1.209844369441270828e-02 2.322324216365814209e-01
5.610527005046606064e-04 -1.612166017293930054e-01 3.479554951190948486e-01
-2.214145660400390625e-02 2.423252612352371216e-01 -1.426622644066810608e-02
-1.511891484260559082e-01 2.565542757511138916e-01 3.344138264656066895e-01
2.119029313325881958e-01 -7.047432065010070801e-01 -2.470678687095642090e-01
-7.371981441974639893e-02 2.910961210727691650e-01 -5.803536996245384216e-02
1.030088122934103012e-02 -6.978627443313598633e-01 -3.529604673385620117e-01
2.149969935417175293e-01 -6.846069693565368652e-01 -2.273338139057159424e-01
-2.500764429569244385e-01 2.186041027307510376e-01 6.276380270719528198e-03
-1.219073031097650528e-02 2.910961210727691650e-01 3.336832225322723389e-01
9.689089842140674591e-03 2.153859138488769531e-01 2.190752029418945312e-01
5.828115623444318771e-03 1.034563034772872925e-01 -3.524724245071411133e-01
-1.921163052320480347e-01 2.423252612352371216e-01 2.520062029361724854e-01
3.365358114242553711e-01 1.118908822536468506e-02 5.210553295910358429e-03
-3.034401535987854004e-01 2.423252612352371216e-01 -1.484160721302032471e-01
3.439453840255737305e-01 -9.119575023651123047e-01 -1.911919564008712769e-02
-9.692710824310779572e-03 2.423252612352371216e-01 2.165209501981735229e-01
8.195582032203674316e-02 2.423252612352371216e-01 -3.292315006256103516e-01
-6.092882156372070312e-02 2.423252612352371216e-01 -3.091307282447814941e-01
-1.088596284389495850e-01 2.266733646392822266e-01 5.568547639995813370e-03
-1.925745308399200439e-01 2.910961210727691650e-01 2.024118006229400635e-01
-1.148722507059574127e-02 -4.663081169128417969e-01 3.354026377201080322e-01
1.825994104146957397e-01 2.910961210727691650e-01 -5.837329477071762085e-02
-1.288759857416152954e-01 2.423252612352371216e-01 -1.463150531053543091e-01
2.789736092090606689e-01 2.423252612352371216e-01 -2.275473326444625854e-01
2.153587490320205688e-01 2.886376082897186279e-01 -2.723091244697570801e-01
-3.504348993301391602e-01 -1.608967036008834839e-01 2.647559856995940208e-03
3.487063646316528320e-01 -8.380901217460632324e-01 -1.573253609240055084e-02
3.064435124397277832e-01 -7.026336789131164551e-01 1.027123332023620605e-01
-2.058636844158172607e-01 2.423252612352371216e-01 1.791905052959918976e-02
2.913640439510345459e-01 1.519251894205808640e-02 8.734416961669921875e-02
-2.326824367046356201e-01 -7.055872678756713867e-01 2.097050696611404419e-01
3.539730608463287354e-01 -4.665513932704925537e-01 -3.551220521330833435e-03
3.412279486656188965e-01 -5.647520422935485840e-01 6.605506408959627151e-03
-3.528345227241516113e-01 -7.497461438179016113e-01 -3.751646727323532104e-03
-1.269927471876144409e-01 2.910961210727691650e-01 1.691318452358245850e-01
2.632209658622741699e-01 2.910961210727691650e-01 -5.533817782998085022e-02
-3.108419179916381836e-01 3.111677989363670349e-02 1.657488569617271423e-02
-9.650860913097858429e-03 -7.412201166152954102e-01 3.421837389469146729e-01
1.423694938421249390e-01 2.343049496412277222e-01 6.487616803497076035e-03
-4.504603147506713867e-02 2.439425140619277954e-01 3.660623729228973389e-01
-5.952946841716766357e-02 -7.048510313034057617e-01 -3.117147982120513916e-01
1.055273041129112244e-01 -7.056050300598144531e-01 2.938072681427001953e-01
-2.981556951999664307e-01 3.191762417554855347e-02 -1.104212328791618347e-01
1.621758937835693359e-01 2.910961210727691650e-01 -2.250746488571166992e-01
-4.705539718270301819e-02 2.910961210727691650e-01 2.565756440162658691e-01
-1.367452144622802734e-01 2.423252612352371216e-01 2.114691585302352905e-01
1.086656562983989716e-02 -5.727376341819763184e-01 3.424305915832519531e-01
3.053525984287261963e-01 -7.053802013397216797e-01 7.118793576955795288e-02
1.923582702875137329e-01 1.819436252117156982e-02 -2.422494590282440186e-01
1.218157727271318436e-02 -9.296465516090393066e-01 3.397670686244964600e-01
6.632491946220397949e-02 2.910961210727691650e-01 -2.971554547548294067e-02
7.128274068236351013e-03 -2.181234061717987061e-01 -3.566077947616577148e-01
-3.070628270506858826e-03 8.021678030490875244e-02 3.462765216827392578e-01
2.193912416696548462e-01 2.910961210727691650e-01 -9.825634956359863281e-02
1.120931003242731094e-02 9.748736768960952759e-02 3.378590047359466553e-01
1.127616763114929199e-01 2.423252612352371216e-01 2.947641313076019287e-01
-8.417207747697830200e-03 2.423252612352371216e-01 -2.536475360393524170e-01
-5.463067814707756042e-02 -6.830819249153137207e-01 3.123141825199127197e-01
6.985894870012998581e-04 2.210484445095062256e-01 -1.417257487773895264e-01
1.093030199408531189e-01 2.910961210727691650e-01 1.144757345318794250e-01
-7.297968491911888123e-03 9.548635035753250122e-02 -3.332817256450653076e-01
-2.605729699134826660e-01 2.423252612352371216e-01 6.087957322597503662e-02
-3.036196231842041016e-01 -6.830556988716125488e-01 1.013532802462577820e-01
4.631742462515830994e-02 2.651058435440063477e-01 -3.569163382053375244e-01
-3.590492904186248779e-02 2.910961210727691650e-01 -2.238886654376983643e-01
-3.474436700344085693e-01 -5.612884759902954102e-01 5.510667338967323303e-03
-3.209845423698425293e-01 2.910961210727691650e-01 -5.795536190271377563e-02
1.330461651086807251e-01 2.910961210727691650e-01 -1.827664077281951904e-01
-3.214874267578125000e-01 2.423252612352371216e-01 -4.558067023754119873e-02
1.334134372882544994e-03 -5.342973470687866211e-01 3.236959874629974365e-01
-3.134479820728302002e-01 2.428423762321472168e-01 1.902370154857635498e-01
3.454619050025939941e-01 -2.551589608192443848e-01 6.050674244761466980e-03
-2.906184494495391846e-01 -6.821286082267761230e-01 -1.191969588398933411e-01
3.430516421794891357e-01 -1.256497800350189209e-01 -1.768622361123561859e-02
1.557877510786056519e-01 -7.056752443313598633e-01 2.698981463909149170e-01
-2.455410361289978027e-01 3.111610189080238342e-02 1.997738629579544067e-01
-2.034803628921508789e-01 -6.842835545539855957e-01 2.464969009160995483e-01
-3.667113929986953735e-02 2.423252612352371216e-01 1.145031861960887909e-02
1.899901404976844788e-02 2.423252612352371216e-01 -3.607048392295837402e-01
2.473094612360000610e-01 2.670600116252899170e-01 -2.320635765790939331e-01
8.285767398774623871e-03 2.910961210727691650e-01 1.930785477161407471e-01
-1.342221647500991821e-01 2.423252612352371216e-01 -3.203309178352355957e-01
-3.830837085843086243e-03 -1.215539313852787018e-02 3.471220433712005615e-01
-6.570602953433990479e-02 -6.818810105323791504e-01 -3.114714920520782471e-01
-2.108693569898605347e-01 2.910961210727691650e-01 -5.820539593696594238e-02
2.899312078952789307e-01 1.863058507442474365e-01 6.498753558844327927e-03
3.310470581054687500e-01 -6.029121875762939453e-01 -3.024615580216050148e-04
-1.991378813982009888e-01 2.452639788389205933e-01 2.795491814613342285e-01
-2.334555983543395996e-01 2.423252612352371216e-01 -4.739234969019889832e-02
-3.299157833680510521e-03 2.423252612352371216e-01 7.269950211048126221e-02
1.325560212135314941e-01 2.423252612352371216e-01 9.551414102315902710e-02
1.728263646364212036e-01 2.910961210727691650e-01 -8.427277207374572754e-02
-5.069391336292028427e-03 -1.428671628236770630e-01 3.251337707042694092e-01
-1.197030469775199890e-01 -6.999410986900329590e-01 -2.874566912651062012e-01
-9.502683766186237335e-03 2.910961210727691650e-01 -9.601134806871414185e-02
-1.682036519050598145e-01 2.629750370979309082e-01 -2.932773828506469727e-01
-9.024844318628311157e-02 2.423252612352371216e-01 -2.223501354455947876e-01
1.785839498043060303e-01 2.521039843559265137e-01 3.220588564872741699e-01
-1.771489083766937256e-01 2.688411474227905273e-01 3.185888528823852539e-01
5.140971764922142029e-02 2.539836764335632324e-01 3.405395448207855225e-01
3.100830316543579102e-01 2.910961210727691650e-01 9.091466665267944336e-03
-9.639046341180801392e-02 2.423252612352371216e-01 1.860250532627105713e-01
2.701524794101715088e-01 2.910961210727691650e-01 -1.074030622839927673e-01
2.338070794939994812e-02 2.910961210727691650e-01 1.648865491151809692e-01
7.295168936252593994e-02 2.910961210727691650e-01 3.310374617576599121e-01
6.080674752593040466e-02 2.209569215774536133e-01 -6.225550081580877304e-03
-2.318692579865455627e-02 2.910961210727691650e-01 -2.824396491050720215e-01
2.797254920005798340e-01 -7.008703351020812988e-01 1.220491677522659302e-01
3.381863832473754883e-01 2.423252612352371216e-01 5.211944133043289185e-02
1.030988898128271103e-02 -3.885429501533508301e-01 -3.529469668865203857e-01
-2.800772190093994141e-01 9.315076284110546112e-03 -1.372648179531097412e-01
-2.758383154869079590e-01 -6.953184008598327637e-01 -1.331039369106292725e-01
1.887726634740829468e-01 2.423252612352371216e-01 7.215545326471328735e-02
-2.596701728180050850e-03 -3.070396780967712402e-01 -3.351224064826965332e-01
-2.913696169853210449e-01 2.423252612352371216e-01 1.123279035091400146e-01
2.853440046310424805e-01 2.019322477281093597e-02 -1.131925508379936218e-01
-1.088025793433189392e-02 2.230409234762191772e-01 2.095412164926528931e-01
3.565652295947074890e-02 2.423252612352371216e-01 1.410270780324935913e-01
-3.300624489784240723e-01 -1.762492656707763672e-01 9.259711951017379761e-04
-3.304404914379119873e-01 -3.680638968944549561e-01 -1.094934437423944473e-02
1.187270805239677429e-01 2.611109614372253418e-01 3.469574749469757080e-01
-9.773999452590942383e-03 -3.346099853515625000e-01 -3.544408082962036133e-01
1.427652984857559204e-01 2.910961210727691650e-01 1.854462623596191406e-01
3.536936044692993164e-01 3.119694069027900696e-02 -8.823413401842117310e-03
2.568640112876892090e-01 -6.846268773078918457e-01 1.654667705297470093e-01
-2.687833905220031738e-01 -6.823697686195373535e-01 -1.800184994935989380e-01
7.225515786558389664e-03 -1.879268437623977661e-01 3.256196379661560059e-01
2.385812550783157349e-01 -6.981174349784851074e-01 2.198455333709716797e-01
-3.307781517505645752e-01 -2.951020002365112305e-01 -1.146203558892011642e-02
-2.034682929515838623e-01 1.258646883070468903e-02 2.232439070940017700e-01
2.165726944804191589e-02 2.595795392990112305e-01 3.433215022087097168e-01
-1.433206349611282349e-01 2.423252612352371216e-01 -7.992178946733474731e-02
1.175130251795053482e-02 -3.989430963993072510e-01 3.309246897697448730e-01
-6.715432554483413696e-02 7.604894693940877914e-03 -3.138562142848968506e-01
-7.642415352165699005e-03 2.423252612352371216e-01 -3.345081508159637451e-01
-2.757687866687774658e-01 2.423252612352371216e-01 -1.054864749312400818e-01
2.358021140098571777e-01 2.156426757574081421e-01 5.770492367446422577e-03
3.040623068809509277e-01 3.109834529459476471e-02 6.946854293346405029e-02
-7.971712946891784668e-02 2.910961210727691650e-01 2.265436649322509766e-01
-1.769460588693618774e-01 -6.952759027481079102e-01 2.418643087148666382e-01
1.379461586475372314e-01 2.910961210727691650e-01 -2.880723774433135986e-01
3.090396523475646973e-01 2.423252612352371216e-01 -1.331706047058105469e-01
3.465280234813690186e-01 -3.526505231857299805e-01 -1.682496443390846252e-02
-4.602806642651557922e-03 -9.203182458877563477e-01 -3.339981436729431152e-01
-3.366177156567573547e-02 2.423252612352371216e-01 2.821644544601440430e-01
6.890828721225261688e-03 2.423252612352371216e-01 -9.923237562179565430e-02
1.042827498167753220e-02 -9.207360148429870605e-01 -3.555622398853302002e-01
-2.666653394699096680e-01 2.423252612352371216e-01 -1.749766319990158081e-01
-3.331919610500335693e-01 3.521525114774703979e-02 -1.409925241023302078e-02
6.894623860716819763e-03 2.434637099504470825e-01 1.168264299631118774e-01
-7.724443078041076660e-02 2.423252612352371216e-01 -2.941096387803554535e-02
3.024464845657348633e-01 -6.880329847335815430e-01 4.352636262774467468e-02
-2.568298876285552979e-01 1.559894531965255737e-02 1.580784767866134644e-01
2.984785437583923340e-01 2.423252612352371216e-01 2.093731164932250977e-01
-4.542408045381307602e-03 1.555049121379852295e-01 -3.325284123420715332e-01
-1.755781657993793488e-02 2.910961210727691650e-01 2.560675516724586487e-02
-1.040483042597770691e-01 2.910961210727691650e-01 -9.510270506143569946e-02
-1.123789791017770767e-02 2.278820276260375977e-01 -5.402968823909759521e-02
-1.011099759489297867e-02 1.589423269033432007e-01 2.988675832748413086e-01
-4.263263940811157227e-02 3.190130740404129028e-02 3.085370659828186035e-01
1.665226221084594727e-01 2.423252612352371216e-01 2.503087818622589111e-01
-9.342731907963752747e-03 -6.254005432128906250e-01 3.426519036293029785e-01
-4.474591836333274841e-02 2.910961210727691650e-01 -3.137469887733459473e-01
-2.982067763805389404e-01 2.560804486274719238e-01 1.675841063261032104e-01
3.005228042602539062e-01 2.642482519149780273e-01 1.653830707073211670e-01
2.219419777393341064e-01 2.423252612352371216e-01 8.109149336814880371e-02
-2.236333116888999939e-02 2.423252612352371216e-01 1.622691452503204346e-01
-8.700045198202133179e-02 2.910961210727691650e-01 3.004784286022186279e-01
3.299376666545867920e-01 -1.681757718324661255e-01 -5.480272695422172546e-03
-1.543158292770385742e-01 2.910961210727691650e-01 -9.362661093473434448e-02
-2.216255366802215576e-01 2.423252612352371216e-01 -1.015341356396675110e-01
-9.340137988328933716e-02 2.423252612352371216e-01 7.963502779603004456e-03
1.262175142765045166e-01 2.423252612352371216e-01 -3.179230168461799622e-02
-1.514792442321777344e-01 -6.927010416984558105e-01 2.855571508407592773e-01
3.025656342506408691e-01 2.602314576506614685e-02 4.471915587782859802e-02
1.280812080949544907e-02 -7.660875320434570312e-01 3.367269337177276611e-01
3.035047948360443115e-01 1.417108159512281418e-02 1.197580620646476746e-01
2.956568598747253418e-01 2.803144156932830811e-01 2.031934857368469238e-01
-1.878383755683898926e-01 7.662351708859205246e-03 -2.610301971435546875e-01
3.355079889297485352e-01 -6.976584792137145996e-01 -1.572204008698463440e-02
-1.317771226167678833e-01 2.423252612352371216e-01 -3.050828538835048676e-02
-2.620001435279846191e-01 2.759076096117496490e-02 -1.653475761413574219e-01
2.425998635590076447e-02 2.423252612352371216e-01 2.703471481800079346e-01
3.475402295589447021e-01 -4.406604170799255371e-01 5.301771685481071472e-03
-1.555138826370239258e-01 2.910961210727691650e-01 -1.657816916704177856e-01
-3.511881828308105469e-01 -6.927464008331298828e-01 1.503224018961191177e-03
-9.622417390346527100e-03 -2.982429563999176025e-01 3.293577730655670166e-01
-9.648946113884449005e-03 -6.265269517898559570e-01 -3.545812666416168213e-01
-3.381650149822235107e-01 2.494014352560043335e-01 1.402688175439834595e-01
-2.734344005584716797e-01 2.910961210727691650e-01 -1.402751803398132324e-01
3.401561677455902100e-01 2.778629958629608154e-01 3.159882873296737671e-02
-1.085018273442983627e-02 -8.114607334136962891e-01 3.318028151988983154e-01
-1.148942392319440842e-02 -7.879523038864135742e-01 -3.425142765045166016e-01
3.452022969722747803e-01 8.775333315134048462e-02 -1.650215312838554382e-02
3.275316655635833740e-01 2.537169754505157471e-01 1.644042134284973145e-01
9.586734697222709656e-03 -8.705621361732482910e-01 3.439818918704986572e-01
2.085832953453063965e-01 2.247184664011001587e-01 5.992793478071689606e-03
1.025144103914499283e-02 2.910961210727691650e-01 -2.799605429172515869e-01
-3.406654000282287598e-01 -4.602703452110290527e-01 -1.678566820919513702e-02
1.207145974040031433e-01 2.859444171190261841e-02 -3.075602948665618896e-01
3.210948407649993896e-02 2.423252612352371216e-01 -3.101968467235565186e-01
8.973921090364456177e-02 2.910961210727691650e-01 -2.306719124317169189e-01
-3.422677516937255859e-01 -2.166239023208618164e-01 -1.669196598231792450e-02
2.998950481414794922e-01 2.666968405246734619e-01 -1.600439846515655518e-01
3.517833948135375977e-01 -7.091828584671020508e-01 1.686676172539591789e-03
3.480459451675415039e-01 2.817025482654571533e-01 7.909617573022842407e-02
-2.073558047413825989e-02 2.910961210727691650e-01 -1.573797762393951416e-01
-6.163069233298301697e-02 2.423252612352371216e-01 -5.645478889346122742e-02
-2.608226835727691650e-01 2.423252612352371216e-01 1.515924334526062012e-01
8.177312090992927551e-03 3.299294784665107727e-02 3.453601002693176270e-01
-1.509096622467041016e-01 2.910961210727691650e-01 -1.957202702760696411e-02
