-1.029643602669239044e-02 2.547072805464267731e-02 3.680982291698455811e-01
-7.642689347267150879e-02 -4.061860144138336182e-01 7.004095315933227539e-01
-3.286874890327453613e-01 2.547072805464267731e-02 -7.127173542976379395e-01
-1.419896334409713745e-01 2.547072805464267731e-02 6.427090167999267578e-01
2.744227461516857147e-02 2.547072805464267731e-02 -4.745428860187530518e-01
-1.698168665170669556e-01 2.547072805464267731e-02 3.585902154445648193e-01
2.477757036685943604e-01 2.547072805464267731e-02 -6.912458539009094238e-01
3.508131206035614014e-01 2.547072805464267731e-02 -1.617135256528854370e-01
-3.596748411655426025e-01 4.680863022804260254e-02 -4.160892665386199951e-01
-1.266758441925048828e-01 2.547072805464267731e-02 -2.455215007066726685e-01
1.326461881399154663e-02 2.547072805464267731e-02 -5.826900005340576172e-01
-5.826857686042785645e-02 1.841480098664760590e-02 -6.789057850837707520e-01
-1.192170381546020508e-01 4.859430715441703796e-02 -6.043324470520019531e-01
1.425933986902236938e-01 -2.459070272743701935e-02 -6.932622790336608887e-01
-1.726385504007339478e-01 -5.591052770614624023e-01 7.024737000465393066e-01
9.443736821413040161e-02 2.547072805464267731e-02 -2.763569653034210205e-01
-1.442898362874984741e-01 4.859430715441703796e-02 5.439380407333374023e-01
2.417922168970108032e-01 4.859430715441703796e-02 2.822147309780120850e-01
-1.179945617914199829e-01 4.859430715441703796e-02 -4.596422314643859863e-01
-1.458950489759445190e-01 4.859430715441703796e-02 -3.941995501518249512e-01
3.027905151247978210e-02 2.547072805464267731e-02 -3.331264257431030273e-01
-2.105594724416732788e-01 4.859430715441703796e-02 -1.434662938117980957e-01
2.092022895812988281e-01 -5.365942716598510742e-01 7.209569811820983887e-01
1.562740355730056763e-01 4.859430715441703796e-02 6.806542873382568359e-01
1.979893147945404053e-01 -4.546075165271759033e-01 7.213335633277893066e-01
-2.769522964954376221e-01 4.859430715441703796e-02 6.005478501319885254e-01
6.896742619574069977e-03 2.547072805464267731e-02 -1.908752471208572388e-01
9.886945784091949463e-02 4.859430715441703796e-02 -6.011454463005065918e-01
2.941755652427673340e-01 2.547072805464267731e-02 -2.680940926074981689e-01
8.533699437975883484e-03 4.859430715441703796e-02 -5.930101126432418823e-02
2.798424065113067627e-01 2.547072805464267731e-02 -1.562358886003494263e-01
-2.161336317658424377e-02 2.547072805464267731e-02 -1.371895223855972290e-01
-9.031891077756881714e-02 4.859430715441703796e-02 2.093698680400848389e-01
2.491457611322402954e-01 2.547072805464267731e-02 3.559507429599761963e-01
-3.079224750399589539e-02 4.859430715441703796e-02 5.558894202113151550e-02
2.809348106384277344e-01 4.859430715441703796e-02 5.956688523292541504e-01
2.225280553102493286e-01 4.859430715441703796e-02 -4.516223371028900146e-01
-1.665674149990081787e-01 2.547072805464267731e-02 2.964438125491142273e-02
2.545149326324462891e-01 4.859430715441703796e-02 6.762811541557312012e-01
1.333352923393249512e-01 -2.238149791955947876e-01 -7.075625061988830566e-01
-8.628473430871963501e-02 4.859430715441703796e-02 -1.270498633384704590e-01
3.431359231472015381e-01 2.547072805464267731e-02 -3.621848821640014648e-01
-7.172608375549316406e-02 2.547072805464267731e-02 -4.698331058025360107e-01
4.124100878834724426e-02 1.159659586846828461e-02 -6.894818544387817383e-01
-2.339398711919784546e-01 -6.071146726608276367e-01 7.220762372016906738e-01
-1.473978459835052490e-01 4.859430715441703796e-02 -2.840619385242462158e-01
3.206579089164733887e-01 4.859430715441703796e-02 3.689915640279650688e-03
3.213945627212524414e-01 2.547072805464267731e-02 -4.546141028404235840e-01
4.500151798129081726e-02 2.547072805464267731e-02 -5.579065680503845215e-01
-3.056237995624542236e-01 4.859430715441703796e-02 -1.645369380712509155e-01
-2.017291337251663208e-01 4.859430715441703796e-02 -3.655237257480621338e-01
4.551759921014308929e-03 4.859430715441703796e-02 -4.239755868911743164e-01
3.266153633594512939e-01 2.547072805464267731e-02 -4.923310503363609314e-02
1.484415382146835327e-01 4.859430715441703796e-02 -7.366825938224792480e-01
8.510291576385498047e-02 4.859430715441703796e-02 -3.448009490966796875e-02
2.153315693140029907e-01 1.432456634938716888e-02 -7.036172151565551758e-01
1.293472480028867722e-02 2.547072805464267731e-02 5.769556760787963867e-01
1.187468413263559341e-02 2.547072805464267731e-02 -6.599209904670715332e-01
1.558471471071243286e-01 2.547072805464267731e-02 -4.583303034305572510e-01
-2.557680010795593262e-01 4.859430715441703796e-02 -7.040275931358337402e-01
-1.163275912404060364e-01 2.547072805464267731e-02 2.279650792479515076e-02
2.545227408409118652e-01 2.547072805464267731e-02 5.381037592887878418e-01
-1.708493977785110474e-01 4.859430715441703796e-02 -4.441360235214233398e-01
-1.416616588830947876e-01 4.859430715441703796e-02 -5.239231586456298828e-01
-3.221365511417388916e-01 2.547072805464267731e-02 6.787939667701721191e-01
2.250894457101821899e-01 4.859430715441703796e-02 -6.594689488410949707e-01
-9.196992963552474976e-02 2.547072805464267731e-02 3.341373503208160400e-01
1.530853360891342163e-01 4.859430715441703796e-02 4.735824763774871826e-01
1.184763386845588684e-01 2.547072805464267731e-02 -1.913411915302276611e-01
5.503619089722633362e-02 1.159659586846828461e-02 6.829015612602233887e-01
2.688183821737766266e-02 -2.300469577312469482e-01 7.216892838478088379e-01
2.264560312032699585e-01 4.859430715441703796e-02 -4.152519702911376953e-01
-2.922824025154113770e-01 4.859430715441703796e-02 9.904137998819351196e-02
5.818933248519897461e-02 4.859430715441703796e-02 -1.239956468343734741e-01
-5.666195601224899292e-02 4.859430715441703796e-02 -1.955216675996780396e-01
-2.202080339193344116e-01 4.859430715441703796e-02 4.425639510154724121e-01
2.680159807205200195e-01 2.547072805464267731e-02 -3.868381679058074951e-01
-1.488598883152008057e-01 4.859430715441703796e-02 2.547016143798828125e-01
2.490806877613067627e-01 4.859430715441703796e-02 4.742523133754730225e-01
-2.299520373344421387e-01 4.859430715441703796e-02 3.057183623313903809e-01
2.002641372382640839e-02 -4.115898162126541138e-02 -7.012267112731933594e-01
-8.358599990606307983e-02 2.547072805464267731e-02 -6.354308128356933594e-01
-4.661425203084945679e-02 4.859430715441703796e-02 -7.011694312095642090e-01
1.537187397480010986e-01 4.859430715441703796e-02 -5.700687766075134277e-01
-1.393380165100097656e-01 4.859430715441703796e-02 4.018690288066864014e-01
5.520018562674522400e-02 2.547072805464267731e-02 -4.022108018398284912e-01
1.039262861013412476e-01 4.859430715441703796e-02 3.897085487842559814e-01
-3.116714954376220703e-01 4.859430715441703796e-02 3.516722321510314941e-01
3.557779788970947266e-01 2.547072805464267731e-02 -1.301969289779663086e-01
6.433421373367309570e-02 4.859430715441703796e-02 -3.158388435840606689e-01
-3.694014847278594971e-01 3.720693662762641907e-02 6.043664216995239258e-01
-9.079413861036300659e-02 4.859430715441703796e-02 4.255045056343078613e-01
-2.398426830768585205e-01 4.859430715441703796e-02 2.396309524774551392e-01
1.575148254632949829e-01 2.547072805464267731e-02 1.085632666945457458e-01
-3.143509030342102051e-01 2.547072805464267731e-02 4.206542074680328369e-01
1.542645096778869629e-01 4.859430715441703796e-02 2.911422848701477051e-01
-2.312795668840408325e-01 1.159659586846828461e-02 6.931219100952148438e-01
9.468292444944381714e-02 2.547072805464267731e-02 6.581927537918090820e-01
7.531985640525817871e-02 4.859430715441703796e-02 2.525662779808044434e-01
-2.660369575023651123e-01 4.672184959053993225e-02 7.389491200447082520e-01
1.884290389716625214e-02 -1.863401979207992554e-01 -7.172284126281738281e-01
-5.822818353772163391e-02 1.159659586846828461e-02 7.161231637001037598e-01
-1.917100846767425537e-01 4.859430715441703796e-02 -7.407736182212829590e-01
2.881200313568115234e-01 2.547072805464267731e-02 -5.391647815704345703e-01
2.107519507408142090e-01 -5.301812887191772461e-01 -6.944024562835693359e-01
-1.364036202430725098e-01 2.547072805464267731e-02 -5.950101092457771301e-02
-1.689743548631668091e-01 2.547072805464267731e-02 -1.279834806919097900e-01
-1.719426810741424561e-01 2.547072805464267731e-02 2.982676327228546143e-01
-2.733731567859649658e-01 4.859430715441703796e-02 -7.191971689462661743e-02
-1.407445222139358521e-01 4.859430715441703796e-02 6.207559704780578613e-01
3.705145716667175293e-01 2.892496809363365173e-02 -2.534793224185705185e-03
1.724614053964614868e-01 -1.370111703872680664e-01 7.173925638198852539e-01
-1.019923612475395203e-01 2.547072805464267731e-02 2.506912052631378174e-01
4.451736062765121460e-02 4.859430715441703796e-02 4.585517644882202148e-01
1.406532824039459229e-01 4.859430715441703796e-02 -6.425423026084899902e-01
-3.976558148860931396e-02 2.547072805464267731e-02 -6.418238878250122070e-01
1.211991086602210999e-01 4.859430715441703796e-02 -1.562237292528152466e-01
2.222686260938644409e-01 4.859430715441703796e-02 3.553850054740905762e-01
8.877555839717388153e-03 2.547072805464267731e-02 -5.156351327896118164e-01
-1.620555073022842407e-01 4.859430715441703796e-02 3.297260999679565430e-01
2.201582491397857666e-02 -7.214803248643875122e-02 7.004633545875549316e-01
-2.141258306801319122e-02 2.547072805464267731e-02 -3.299385607242584229e-01
-8.581775426864624023e-02 4.859430715441703796e-02 6.667011380195617676e-01
-2.651206851005554199e-01 2.547072805464267731e-02 3.660166561603546143e-01
3.431929647922515869e-02 4.859430715441703796e-02 7.882626354694366455e-02
9.853713959455490112e-02 2.547072805464267731e-02 1.700476557016372681e-01
-3.254085481166839600e-01 4.859430715441703796e-02 5.523796081542968750e-01
-2.289108335971832275e-01 2.547072805464267731e-02 -1.756336539983749390e-01
-2.450999170541763306e-01 2.547072805464267731e-02 1.277710050344467163e-01
-3.229946792125701904e-01 2.547072805464267731e-02 -4.663051366806030273e-01
-3.294996321201324463e-01 2.547072805464267731e-02 -3.937830626964569092e-01
7.768081128597259521e-02 -2.385278046131134033e-01 7.094507217407226562e-01
-9.026607125997543335e-02 4.859430715441703796e-02 -3.310856521129608154e-01
1.120824366807937622e-01 2.547072805464267731e-02 1.279549598693847656e-01
1.438202857971191406e-01 2.547072805464267731e-02 3.145131468772888184e-01
1.525126844644546509e-01 4.859430715441703796e-02 -4.112328886985778809e-01
-1.325130462646484375e-01 4.859430715441703796e-02 9.555684402585029602e-03
1.170386001467704773e-01 2.547072805464267731e-02 -4.899406433105468750e-01
1.585612297058105469e-01 2.547072805464267731e-02 1.726038455963134766e-01
2.012361586093902588e-01 4.859430715441703796e-02 -3.408192396163940430e-01
-3.225027024745941162e-01 4.729193076491355896e-02 -7.409515380859375000e-01
-4.894200712442398071e-02 2.547072805464267731e-02 -5.820583701133728027e-01
-9.797666966915130615e-02 2.547072805464267731e-02 5.342712402343750000e-01
2.355640381574630737e-01 -6.084916591644287109e-01 7.219409346580505371e-01
1.187930405139923096e-01 4.859430715441703796e-02 -5.209999680519104004e-01
2.232829332351684570e-01 4.859430715441703796e-02 6.247672438621520996e-01
1.085553243756294250e-01 4.859430715441703796e-02 3.483663797378540039e-01
2.161541134119033813e-01 -6.055632233619689941e-01 -7.137498855590820312e-01
1.945715248584747314e-01 -4.589780271053314209e-01 -7.127034664154052734e-01
4.673755262047052383e-03 4.859430715441703796e-02 1.450256444513797760e-02
-2.459042519330978394e-01 2.547072805464267731e-02 6.393840909004211426e-01
1.191860958933830261e-01 -5.675719678401947021e-02 -7.066748738288879395e-01
1.835242807865142822e-01 4.859430715441703796e-02 5.036422610282897949e-01
2.931551635265350342e-01 2.547072805464267731e-02 -4.151148796081542969e-01
3.946054354310035706e-02 4.859430715441703796e-02 -1.883416324853897095e-01
-2.442515268921852112e-02 4.859430715441703796e-02 -1.783199906349182129e-01
-2.483997046947479248e-01 2.547072805464267731e-02 -5.666397213935852051e-01
-5.951918289065361023e-02 4.859430715441703796e-02 -1.258054515346884727e-03
-1.067140027880668640e-01 4.859430715441703796e-02 -4.121057689189910889e-01
-2.704464793205261230e-01 4.859430715441703796e-02 -5.134398937225341797e-01
8.398100733757019043e-02 1.159659586846828461e-02 -6.803877353668212891e-01
4.108830168843269348e-02 2.547072805464267731e-02 -2.217636555433273315e-01
1.698722690343856812e-01 2.547072805464267731e-02 6.492010354995727539e-01
1.585359126329421997e-02 2.547072805464267731e-02 6.223282217979431152e-01
-2.005334794521331787e-01 4.859430715441703796e-02 -4.041838943958282471e-01
5.069521069526672363e-02 -2.553797066211700439e-01 -7.127451300621032715e-01
2.466995641589164734e-02 4.859430715441703796e-02 -5.560792088508605957e-01
-4.287461191415786743e-02 2.547072805464267731e-02 2.254713326692581177e-01
2.953234910964965820e-01 4.859430715441703796e-02 -1.326758712530136108e-01
1.350975483655929565e-01 2.547072805464267731e-02 -2.545704841613769531e-01
2.178408801555633545e-01 4.859430715441703796e-02 7.850479334592819214e-02
-2.831102013587951660e-01 2.547072805464267731e-02 4.999746084213256836e-01
-2.825141251087188721e-01 2.547072805464267731e-02 -6.000878214836120605e-01
1.421291977167129517e-01 -2.672578990459442139e-01 -7.056926488876342773e-01
-2.079356312751770020e-01 2.547072805464267731e-02 -4.808699488639831543e-01
3.057694435119628906e-01 4.859430715441703796e-02 4.088052511215209961e-01
-3.548887372016906738e-01 4.859430715441703796e-02 -6.250282526016235352e-01
4.601648077368736267e-03 -3.293440639972686768e-01 6.967739462852478027e-01
3.120713829994201660e-01 2.547072805464267731e-02 -2.238660454750061035e-01
2.380039393901824951e-01 2.547072805464267731e-02 6.042328476905822754e-01
7.885043323040008545e-02 4.859430715441703796e-02 4.552632570266723633e-01
3.015898466110229492e-01 4.859430715441703796e-02 1.154448017477989197e-01
2.182328701019287109e-02 -3.144348273053765297e-03 7.103192806243896484e-01
3.437406718730926514e-01 2.656401135027408600e-02 3.821476101875305176e-01
-3.106200695037841797e-02 2.547072805464267731e-02 -6.041372194886207581e-02
2.061454802751541138e-01 -3.638277947902679443e-01 -7.023009061813354492e-01
9.095712006092071533e-02 2.547072805464267731e-02 -4.586283117532730103e-03
-3.614370822906494141e-01 4.290581867098808289e-02 4.166724681854248047e-01
5.648261308670043945e-02 2.547072805464267731e-02 6.615245938301086426e-01
7.472810894250869751e-02 2.547072805464267731e-02 2.079876661300659180e-01
-2.895396947860717773e-01 4.859430715441703796e-02 3.075699806213378906e-01
-3.193816840648651123e-01 2.547072805464267731e-02 1.779938340187072754e-01
-2.276665866374969482e-01 2.547072805464267731e-02 3.439473211765289307e-01
1.992656737565994263e-01 4.859430715441703796e-02 2.330045104026794434e-01
1.068659573793411255e-01 4.859430715441703796e-02 6.421849727630615234e-01
-4.593760520219802856e-02 -4.062805771827697754e-01 -7.094280123710632324e-01
-1.944215595722198486e-01 2.547072805464267731e-02 -5.952010750770568848e-01
-1.415878981351852417e-01 1.159659586846828461e-02 7.105925679206848145e-01
-5.962469428777694702e-02 4.859430715441703796e-02 8.629348129034042358e-02
1.815737485885620117e-01 -2.244694679975509644e-01 7.210932374000549316e-01
-1.829179227352142334e-01 4.859430715441703796e-02 5.000188946723937988e-01
-2.064416743814945221e-02 2.547072805464267731e-02 -4.513255953788757324e-01
-2.188223451375961304e-01 4.859430715441703796e-02 5.342590808868408203e-01
3.172141015529632568e-01 2.547072805464267731e-02 1.807521879673004150e-01
-3.057531118392944336e-01 2.547072805464267731e-02 6.375819444656372070e-01
-2.148008719086647034e-02 2.547072805464267731e-02 1.551184207201004028e-01
2.510520517826080322e-01 2.547072805464267731e-02 -1.922800242900848389e-01
2.103337347507476807e-01 4.859430715441703796e-02 1.303818374872207642e-01
-7.392381876707077026e-02 4.859430715441703796e-02 -2.829383015632629395e-01
1.514601856470108032e-01 2.547072805464267731e-02 6.454943120479583740e-02
3.138770163059234619e-01 2.547072805464267731e-02 -3.704061210155487061e-01
-2.435008138418197632e-01 4.859430715441703796e-02 3.812166154384613037e-01
-1.197684481739997864e-01 -4.840018153190612793e-01 -7.199832201004028320e-01
-2.090097963809967041e-01 2.547072805464267731e-02 -6.420694589614868164e-01
9.618400037288665771e-02 4.859430715441703796e-02 -4.585567712783813477e-01
-2.870869822800159454e-02 2.547072805464267731e-02 6.352244615554809570e-01
-1.109677776694297791e-01 4.859430715441703796e-02 1.233527958393096924e-01
-8.574434369802474976e-02 4.859430715441703796e-02 5.548802614212036133e-01
-3.025808632373809814e-01 2.547072805464267731e-02 -3.147099912166595459e-01
2.096404731273651123e-01 4.859430715441703796e-02 4.483105540275573730e-01
-1.636624485254287720e-01 4.859430715441703796e-02 1.229311078786849976e-01
2.257775068283081055e-01 2.547072805464267731e-02 3.165799379348754883e-01
3.466734290122985840e-01 4.859430715441703796e-02 2.547346241772174835e-02
8.337536454200744629e-02 4.859430715441703796e-02 -6.607314348220825195e-01
2.690407037734985352e-01 2.547072805464267731e-02 4.035740196704864502e-01
-2.598929405212402344e-01 2.547072805464267731e-02 -2.101550251245498657e-01
-2.801046073436737061e-01 2.547072805464267731e-02 1.626013033092021942e-02
2.403978705406188965e-01 4.859430715441703796e-02 -3.141711652278900146e-01
6.837498396635055542e-02 4.859430715441703796e-02 1.272686123847961426e-01
-1.611444503068923950e-01 2.547072805464267731e-02 1.745708435773849487e-01
5.487284623086452484e-03 2.547072805464267731e-02 2.673853039741516113e-01
2.075432986021041870e-01 4.859430715441703796e-02 -2.523934841156005859e-01
-2.340275049209594727e-01 2.547072805464267731e-02 4.583807885646820068e-01
-5.789634957909584045e-02 4.859430715441703796e-02 5.209141969680786133e-01
4.533123970031738281e-02 2.547072805464267731e-02 5.540724992752075195e-01
2.422034740447998047e-01 2.547072805464267731e-02 6.339408457279205322e-03
3.987268730998039246e-02 4.859430715441703796e-02 3.049339950084686279e-01
1.516692936420440674e-01 2.547072805464267731e-02 -8.302024006843566895e-02
2.748315632343292236e-01 3.764857724308967590e-02 -7.219190597534179688e-01
3.068982660770416260e-01 2.547072805464267731e-02 5.750572085380554199e-01
9.779788553714752197e-02 2.547072805464267731e-02 -3.650569021701812744e-01
-2.765367031097412109e-01 4.859430715441703796e-02 -3.989986777305603027e-01
-1.248950287699699402e-01 4.859430715441703796e-02 -6.999538540840148926e-01
8.970506489276885986e-02 2.547072805464267731e-02 5.647232383489608765e-02
-3.189001083374023438e-01 4.859430715441703796e-02 -2.476247400045394897e-01
-2.038141489028930664e-01 4.859430715441703796e-02 -5.333573818206787109e-01
-9.665823727846145630e-02 4.859430715441703796e-02 -1.665820628404617310e-01
3.603098392486572266e-01 2.897355519235134125e-02 2.337186038494110107e-01
7.183267176151275635e-02 4.859430715441703796e-02 -5.509634613990783691e-01
-9.695481508970260620e-03 4.859430715441703796e-02 -3.516599833965301514e-01
3.083898127079010010e-01 4.859430715441703796e-02 -5.622883439064025879e-01
6.141187623143196106e-02 2.547072805464267731e-02 -9.542393684387207031e-02
-6.469269841909408569e-02 4.859430715441703796e-02 -5.391569733619689941e-01
-1.488060951232910156e-01 2.547072805464267731e-02 -1.635660082101821899e-01
-2.101577371358871460e-01 1.159659586846828461e-02 -7.243312001228332520e-01
6.372076272964477539e-02 -2.115332782268524170e-01 -7.075659632682800293e-01
3.002249896526336670e-01 4.859430715441703796e-02 -4.526947438716888428e-01
1.527486741542816162e-01 4.859430715441703796e-02 1.590290665626525879e-02
2.789174616336822510e-01 2.547072805464267731e-02 4.074430465698242188e-02
2.984254360198974609e-01 2.547072805464267731e-02 3.205790519714355469e-01
-4.392597451806068420e-02 4.859430715441703796e-02 5.589913129806518555e-01
3.123143315315246582e-01 4.859430715441703796e-02 -2.833452522754669189e-01
-1.002165824174880981e-01 2.547072805464267731e-02 7.337326407432556152e-01
-1.093172058463096619e-01 2.547072805464267731e-02 1.744849532842636108e-01
-7.875174283981323242e-02 1.285558100789785385e-02 6.826117634773254395e-01
-1.210741251707077026e-01 2.547072805464267731e-02 3.145365715026855469e-01
-2.646859884262084961e-01 4.859430715441703796e-02 -2.850371897220611572e-01
-2.889921963214874268e-01 2.547072805464267731e-02 1.288434565067291260e-01
3.170475065708160400e-01 4.859430715441703796e-02 -6.397232413291931152e-02
-2.079703211784362793e-01 2.547072805464267731e-02 -3.128453493118286133e-01
-2.531198561191558838e-01 4.859430715441703796e-02 -4.245439171791076660e-01
-8.039677143096923828e-02 2.547072805464267731e-02 -7.159746289253234863e-01
-3.678492009639739990e-01 2.764425985515117645e-02 7.389491200447082520e-01
-2.348023355007171631e-01 4.859430715441703796e-02 6.799037456512451172e-01
1.251990944147109985e-01 4.859430715441703796e-02 5.485436320304870605e-01
4.830563068389892578e-02 2.547072805464267731e-02 2.452022880315780640e-01
2.669979818165302277e-02 -3.024409115314483643e-01 7.231183648109436035e-01
-2.094846218824386597e-02 4.859430715441703796e-02 3.040099143981933594e-01
1.845429390668869019e-01 2.547072805464267731e-02 -2.894120216369628906e-01
-1.612043082714080811e-01 2.547072805464267731e-02 -2.613713443279266357e-01
1.120373085141181946e-01 4.859430715441703796e-02 -4.889844357967376709e-02
2.613253295421600342e-01 4.859430715441703796e-02 -6.625214219093322754e-01
1.047948300838470459e-01 4.859430715441703796e-02 -3.056948482990264893e-01
-2.218036800622940063e-01 -6.195700764656066895e-01 -7.015668153762817383e-01
-5.470718815922737122e-02 2.547072805464267731e-02 4.500623941421508789e-01
-2.322531342506408691e-01 2.547072805464267731e-02 -1.234845891594886780e-01
1.881646066904067993e-01 4.859430715441703796e-02 -3.914559483528137207e-01
-1.296015530824661255e-01 4.859430715441703796e-02 -3.201112747192382812e-01
-1.867757923901081085e-02 4.859430715441703796e-02 3.955792486667633057e-01
2.167266048491001129e-02 2.547072805464267731e-02 3.948486745357513428e-01
6.531642377376556396e-02 4.859430715441703796e-02 3.718258067965507507e-02
-2.432404905557632446e-01 4.859430715441703796e-02 -3.682438731193542480e-01
-1.513284295797348022e-01 2.547072805464267731e-02 -2.069437503814697266e-01
3.024208731949329376e-02 2.547072805464267731e-02 -6.186681613326072693e-02
-7.176192104816436768e-02 4.859430715441703796e-02 4.643391668796539307e-01
8.552460372447967529e-02 2.547072805464267731e-02 -5.856453180313110352e-01
-3.076075203716754913e-02 -3.618451654911041260e-01 7.234029769897460938e-01
3.324565589427947998e-01 2.547072805464267731e-02 2.948038876056671143e-01
1.558862030506134033e-01 -8.144865930080413818e-02 7.236129641532897949e-01
1.237171068787574768e-01 2.547072805464267731e-02 4.854661822319030762e-01
-1.294908374547958374e-01 2.547072805464267731e-02 2.709158957004547119e-01
1.633594930171966553e-01 -2.041813582181930542e-01 6.986247301101684570e-01
1.182212382555007935e-01 2.547072805464267731e-02 -1.255045235157012939e-01
-3.148176968097686768e-01 2.547072805464267731e-02 2.781662046909332275e-01
2.366798669099807739e-01 2.547072805464267731e-02 2.114540338516235352e-01
-1.737769544124603271e-01 2.547072805464267731e-02 6.068817973136901855e-01
2.411805093288421631e-01 2.547072805464267731e-02 -4.788898825645446777e-01
1.036772504448890686e-01 2.547072805464267731e-02 2.426469773054122925e-01
-2.952481210231781006e-01 2.547072805464267731e-02 3.377911448478698730e-01
2.487470861524343491e-03 2.547072805464267731e-02 -6.958124637603759766e-01
-2.521194219589233398e-01 4.859430715441703796e-02 -3.938472270965576172e-02
1.624909490346908569e-01 2.547072805464267731e-02 -1.197995543479919434e-01
1.664796620607376099e-01 1.159659586846828461e-02 -6.907521486282348633e-01
-5.364303477108478546e-03 4.859430715441703796e-02 -2.047632783651351929e-01
-9.010389447212219238e-02 4.859430715441703796e-02 6.142067909240722656e-01
-2.869557440280914307e-01 2.547072805464267731e-02 -8.825692534446716309e-02
-1.256279498338699341e-01 4.859430715441703796e-02 1.926983445882797241e-01
-1.889812350273132324e-01 4.859430715441703796e-02 4.071011245250701904e-01
3.482376784086227417e-02 4.859430715441703796e-02 -2.685695327818393707e-02
3.261615633964538574e-01 4.859430715441703796e-02 -1.940283775329589844e-01
-1.863487064838409424e-01 4.859430715441703796e-02 6.795184612274169922e-01
2.066469788551330566e-01 2.547072805464267731e-02 2.038948386907577515e-01
-3.169886171817779541e-01 2.547072805464267731e-02 3.793146610260009766e-01
-6.152326706796884537e-03 4.859430715441703796e-02 5.157471895217895508e-01
-7.653929293155670166e-03 4.859430715441703796e-02 1.444451510906219482e-01
-8.174878358840942383e-02 4.859430715441703796e-02 3.153096735477447510e-01
-2.439242303371429443e-01 2.547072805464267731e-02 5.211458802223205566e-01
-5.247439071536064148e-02 4.859430715441703796e-02 6.089625358581542969e-01
-2.364891022443771362e-01 2.547072805464267731e-02 -6.148781776428222656e-01
2.456993460655212402e-01 2.547072805464267731e-02 7.943884283304214478e-02
2.168508470058441162e-01 4.859430715441703796e-02 -1.848092861473560333e-02
-2.418860644102096558e-01 4.859430715441703796e-02 1.879469603300094604e-01
-1.404772698879241943e-01 4.859430715441703796e-02 7.173032164573669434e-01
1.705829054117202759e-01 4.859430715441703796e-02 -6.146673560142517090e-01
1.786288470029830933e-01 4.859430715441703796e-02 5.715439915657043457e-01
-3.304757773876190186e-01 4.859430715441703796e-02 6.086874604225158691e-01
1.821073740720748901e-01 2.547072805464267731e-02 -2.619804441928863525e-01
1.652918010950088501e-01 2.547072805464267731e-02 7.064806222915649414e-01
1.922374963760375977e-01 2.547072805464267731e-02 -6.107237935066223145e-01
1.093683391809463501e-01 2.547072805464267731e-02 -7.252509593963623047e-01
-3.960254415869712830e-02 2.547072805464267731e-02 -2.527058720588684082e-01
3.255776166915893555e-01 4.859430715441703796e-02 4.931459724903106689e-01
1.689950376749038696e-01 -2.097024768590927124e-01 -6.932197809219360352e-01
1.901394426822662354e-01 4.859430715441703796e-02 -2.099632620811462402e-01
5.198197811841964722e-02 2.547072805464267731e-02 3.370510339736938477e-01
2.489245086908340454e-01 4.859430715441703796e-02 5.107216238975524902e-01
1.808015108108520508e-01 2.547072805464267731e-02 2.776707410812377930e-01
2.319232523441314697e-01 2.547072805464267731e-02 6.899540424346923828e-01
-2.297403365373611450e-01 2.547072805464267731e-02 2.597801089286804199e-01
2.650502622127532959e-01 4.859430715441703796e-02 -5.842223167419433594e-01
-1.368330419063568115e-01 2.547072805464267731e-02 -9.379877895116806030e-02
-3.400499373674392700e-02 -3.488689661026000977e-01 7.066949605941772461e-01
2.484490126371383667e-01 4.859430715441703796e-02 -9.353847801685333252e-02
-1.881094276905059814e-02 1.159659586846828461e-02 7.025969624519348145e-01
-8.891517668962478638e-02 2.547072805464267731e-02 -5.955047607421875000e-01
-3.342519104480743408e-01 2.547072805464267731e-02 4.874791800975799561e-01
2.121445834636688232e-01 4.859430715441703796e-02 -6.358411908149719238e-02
1.305439770221710205e-01 4.859430715441703796e-02 -4.465976059436798096e-01
-2.695840001106262207e-01 4.859430715441703796e-02 -5.903498530387878418e-01
-1.066383346915245056e-01 4.859430715441703796e-02 -2.784454822540283203e-01
2.656880319118499756e-01 2.547072805464267731e-02 -3.457597792148590088e-01
3.320270478725433350e-01 4.490495845675468445e-02 4.559452533721923828e-01
-1.655132025480270386e-01 2.547072805464267731e-02 -5.973962545394897461e-01
-1.149047166109085083e-03 2.547072805464267731e-02 4.415305554866790771e-01
1.058403775095939636e-01 4.859430715441703796e-02 7.027878165245056152e-01
1.638202220201492310e-01 4.859430715441703796e-02 -1.732518821954727173e-01
5.478977039456367493e-02 2.547072805464267731e-02 -4.250744357705116272e-03
4.546919465065002441e-02 2.547072805464267731e-02 1.935504078865051270e-01
-8.964446187019348145e-02 2.547072805464267731e-02 -1.992257684469223022e-01
1.508623510599136353e-01 -2.702575623989105225e-01 7.113178968429565430e-01
1.790887266397476196e-01 4.859430715441703796e-02 -2.446980774402618408e-01
3.129997849464416504e-01 2.547072805464267731e-02 -2.353444695472717285e-02
2.137289643287658691e-01 -4.230970144271850586e-01 7.168918848037719727e-01
1.463676244020462036e-02 -1.646362394094467163e-01 7.009621858596801758e-01
-3.066815137863159180e-01 2.547072805464267731e-02 2.372005879878997803e-01
1.383001357316970825e-01 4.859430715441703796e-02 1.859313398599624634e-01
2.363050132989883423e-01 4.859430715441703796e-02 3.532887250185012817e-02
-1.785916835069656372e-01 4.859430715441703796e-02 -3.328175246715545654e-01
-8.890312165021896362e-02 4.859430715441703796e-02 3.160706534981727600e-02
-2.141195386648178101e-01 -5.735026001930236816e-01 -6.995286345481872559e-01
-1.666014641523361206e-02 4.859430715441703796e-02 -5.141262412071228027e-01
1.920353323221206665e-01 2.751930989325046539e-02 -7.409515380859375000e-01
2.143432796001434326e-01 4.859430715441703796e-02 -5.259075164794921875e-01
9.344822168350219727e-02 4.859430715441703796e-02 -7.429193705320358276e-02
1.926218569278717041e-01 4.859430715441703796e-02 -4.745229184627532959e-01
3.147696703672409058e-02 -1.891706436872482300e-01 7.235834002494812012e-01
-3.318987786769866943e-01 4.859430715441703796e-02 -4.441004395484924316e-01
-2.134922146797180176e-01 4.859430715441703796e-02 -8.329538255929946899e-02
1.323565542697906494e-01 2.547072805464267731e-02 1.973682083189487457e-02
-3.658787012100219727e-01 2.547072805464267731e-02 -6.423010826110839844e-01
-1.418612152338027954e-01 1.159659586846828461e-02 6.862369179725646973e-01
-2.027677446603775024e-01 2.547072805464267731e-02 3.207135498523712158e-01
1.044087037444114685e-01 -3.428960219025611877e-02 7.103261947631835938e-01
-2.176935076713562012e-01 4.859430715441703796e-02 -2.699734568595886230e-01
-1.723348647356033325e-01 2.547072805464267731e-02 3.929519355297088623e-01
-2.363676428794860840e-01 4.859430715441703796e-02 4.102785289287567139e-01
2.251206934452056885e-01 2.547072805464267731e-02 -3.391107618808746338e-01
3.510196208953857422e-01 2.547072805464267731e-02 -2.866597771644592285e-01
-3.304603695869445801e-02 2.547072805464267731e-02 -4.148892760276794434e-01
1.570506244897842407e-01 4.859430715441703796e-02 7.199079394340515137e-01
1.301231533288955688e-01 1.159659586846828461e-02 -6.793968081474304199e-01
1.953376978635787964e-01 4.859430715441703796e-02 2.851839661598205566e-01
1.222611442208290100e-01 4.859430715441703796e-02 2.504343688488006592e-01
1.956446655094623566e-02 -1.029791682958602905e-01 -6.934992074966430664e-01
1.812310218811035156e-01 -3.753166794776916504e-01 7.088528871536254883e-01
2.160404622554779053e-01 2.547072805464267731e-02 -6.350907087326049805e-01
-1.346952654421329498e-02 2.547072805464267731e-02 5.307007431983947754e-01
-2.824889421463012695e-01 4.859430715441703796e-02 5.581150054931640625e-01
-2.499510943889617920e-01 2.547072805464267731e-02 2.109820246696472168e-01
3.380174934864044189e-01 3.313839435577392578e-02 -4.202289581298828125e-01
-1.972198188304901123e-01 4.859430715441703796e-02 -5.710319280624389648e-01
2.904306650161743164e-01 4.859430715441703796e-02 4.633274078369140625e-01
-2.020928636193275452e-02 4.859430715441703796e-02 -8.609485626220703125e-02
2.287562489509582520e-01 4.859430715441703796e-02 -1.937880367040634155e-01
5.023533850908279419e-02 2.547072805464267731e-02 -6.143063902854919434e-01
-6.029159203171730042e-02 4.859430715441703796e-02 4.276260137557983398e-01
7.896474562585353851e-03 2.547072805464267731e-02 -3.722403943538665771e-01
-2.218679189682006836e-01 2.547072805464267731e-02 -3.619835972785949707e-01
-9.177828207612037659e-03 4.859430715441703796e-02 -7.224865555763244629e-01
5.868217349052429199e-02 -5.361359566450119019e-02 -7.066757082939147949e-01
-3.694014847278594971e-01 4.406242817640304565e-02 4.596311151981353760e-01
-8.227606862783432007e-02 -4.496461451053619385e-01 -7.122800350189208984e-01
2.198183238506317139e-01 4.859430715441703796e-02 1.846402436494827271e-01
-1.385867875069379807e-02 4.859430715441703796e-02 2.044917941093444824e-01
2.932211160659790039e-01 4.859430715441703796e-02 3.568904399871826172e-01
-1.520546823740005493e-01 -4.995965659618377686e-01 -7.172613739967346191e-01
-3.070138096809387207e-01 4.859430715441703796e-02 -5.820462107658386230e-01
8.243047446012496948e-02 1.159659586846828461e-02 7.301768660545349121e-01
-2.484658360481262207e-02 4.859430715441703796e-02 -3.090292774140834808e-02
7.087735831737518311e-02 2.547072805464267731e-02 -5.295830368995666504e-01
9.063781052827835083e-02 2.547072805464267731e-02 5.893018245697021484e-01
6.626045703887939453e-02 4.859430715441703796e-02 6.199438571929931641e-01
-2.354626357555389404e-01 2.547072805464267731e-02 5.839743018150329590e-01
1.247669830918312073e-01 4.859430715441703796e-02 2.985157966613769531e-01
2.159372121095657349e-01 4.859430715441703796e-02 5.402417182922363281e-01
-1.465527415275573730e-01 4.859430715441703796e-02 -3.695540502667427063e-02
1.701594591140747070e-01 4.859430715441703796e-02 -6.924484372138977051e-01
-3.220627903938293457e-01 4.859430715441703796e-02 -4.178819060325622559e-01
-1.768624037504196167e-01 2.547072805464267731e-02 -4.003322720527648926e-01
-2.612638771533966064e-01 2.547072805464267731e-02 7.140077352523803711e-01
1.708464883267879486e-02 4.859430715441703796e-02 -6.873257160186767578e-01
-1.150941923260688782e-01 2.547072805464267731e-02 6.169365048408508301e-01
2.178996801376342773e-02 4.859430715441703796e-02 -3.091073930263519287e-01
-2.686512470245361328e-01 2.547072805464267731e-02 -6.777760386466979980e-01
1.861559450626373291e-01 4.859430715441703796e-02 -4.407772123813629150e-01
-4.817700013518333435e-02 4.859430715441703796e-02 -3.733692467212677002e-01
-3.746693208813667297e-02 2.547072805464267731e-02 -5.341408848762512207e-01
1.069403719156980515e-02 -1.230858340859413147e-01 -7.178947925567626953e-01
3.359854221343994141e-01 4.859430715441703796e-02 1.080010011792182922e-01
-2.991309762001037598e-01 2.547072805464267731e-02 5.130782723426818848e-02
-2.577343583106994629e-02 4.859430715441703796e-02 -5.929676294326782227e-01
1.277214288711547852e-01 4.859430715441703796e-02 -1.721759326756000519e-02
1.087158545851707458e-01 4.859430715441703796e-02 -3.449537158012390137e-01
1.528033465147018433e-01 -1.660713702440261841e-01 7.169413566589355469e-01
-2.855943739414215088e-01 2.547072805464267731e-02 -2.393106520175933838e-01
2.695133909583091736e-02 -2.497555315494537354e-01 -6.976267695426940918e-01
-3.379751145839691162e-01 2.547072805464267731e-02 -5.574033260345458984e-01
2.716393768787384033e-01 2.547072805464267731e-02 6.522595882415771484e-01
3.768440708518028259e-02 4.859430715441703796e-02 -9.342567622661590576e-02
4.210087656974792480e-02 2.547072805464267731e-02 3.671133816242218018e-01
1.652527600526809692e-01 4.859430715441703796e-02 -3.019994199275970459e-01
5.690169334411621094e-02 2.547072805464267731e-02 -4.463468492031097412e-01
1.874904483556747437e-01 2.547072805464267731e-02 -8.870812505483627319e-02
6.120103597640991211e-02 2.547072805464267731e-02 3.076237738132476807e-01
-3.127777874469757080e-01 2.547072805464267731e-02 -6.047489121556282043e-02
3.183247148990631104e-01 2.547072805464267731e-02 -3.079577386379241943e-01
2.707179486751556396e-01 4.859430715441703796e-02 -2.719795145094394684e-02
-2.876386344432830811e-01 2.547072805464267731e-02 -1.760839819908142090e-01
-8.854789286851882935e-02 2.547072805464267731e-02 -5.944192409515380859e-02
2.641964852809906006e-01 4.859430715441703796e-02 -4.062749743461608887e-01
3.529224395751953125e-01 4.859430715441703796e-02 -2.199961990118026733e-01
-3.060168623924255371e-01 4.859430715441703796e-02 -3.557701408863067627e-01
-1.124665490351617336e-03 -3.125857114791870117e-01 -6.985707283020019531e-01
6.490167230367660522e-02 2.547072805464267731e-02 4.676406383514404297e-01
2.183016091585159302e-01 -6.040977239608764648e-01 7.004867196083068848e-01
2.971360683441162109e-01 4.859430715441703796e-02 2.419085800647735596e-01
-3.565971851348876953e-01 4.859430715441703796e-02 5.749469995498657227e-01
-2.672600327059626579e-03 4.859430715441703796e-02 -1.114325523376464844e-01
2.031268328428268433e-01 -5.076832771301269531e-01 7.190029621124267578e-01
-1.884935945272445679e-01 4.859430715441703796e-02 1.506524831056594849e-01
-3.209070563316345215e-01 4.859430715441703796e-02 4.526133537292480469e-01
-1.466126143932342529e-01 4.859430715441703796e-02 5.686181783676147461e-02
-7.236122339963912964e-02 4.859430715441703796e-02 -4.084624052047729492e-01
-2.333038747310638428e-01 2.547072805464267731e-02 -8.858317136764526367e-02
-1.701804399490356445e-01 4.859430715441703796e-02 -6.607530713081359863e-01
1.842652857303619385e-01 4.859430715441703796e-02 -5.099232196807861328e-01
2.577843368053436279e-01 4.859430715441703796e-02 6.339941024780273438e-01
1.620059162378311157e-01 4.859430715441703796e-02 2.365810573101043701e-01
1.591174155473709106e-01 2.547072805464267731e-02 -2.218443155288696289e-02
-2.857012674212455750e-02 2.547072805464267731e-02 -2.027424573898315430e-01
8.207558840513229370e-02 1.159659586846828461e-02 7.082880139350891113e-01
-3.368384540081024170e-01 2.547072805464267731e-02 -4.306401908397674561e-01
-1.620190739631652832e-01 4.859430715441703796e-02 -5.542215108871459961e-01
-1.545034348964691162e-02 2.547072805464267731e-02 6.738785505294799805e-01
2.086686640977859497e-01 2.547072805464267731e-02 -4.024277329444885254e-01
2.853963971138000488e-01 2.547072805464267731e-02 5.187633037567138672e-01
-1.913803517818450928e-01 2.547072805464267731e-02 -1.547165811061859131e-01
1.142523251473903656e-02 4.859430715441703796e-02 5.256543308496475220e-02
-2.072345465421676636e-01 2.547072805464267731e-02 -5.663638114929199219e-01
-3.301087617874145508e-01 4.859430715441703796e-02 5.158556699752807617e-01
2.571735084056854248e-01 4.859430715441703796e-02 1.330369263887405396e-01
4.956376180052757263e-02 -2.532624304294586182e-01 7.175018787384033203e-01
2.009142488241195679e-01 -5.052676796913146973e-01 -7.120562195777893066e-01
3.480192124843597412e-01 2.547072805464267731e-02 2.008310705423355103e-01
1.709230244159698486e-01 -1.246866956353187561e-01 -7.000171542167663574e-01
-1.457978636026382446e-01 4.859430715441703796e-02 5.096786618232727051e-01
-2.885203994810581207e-02 4.859430715441703796e-02 7.350835800170898438e-01
-1.860042363405227661e-01 4.859430715441703796e-02 9.358716756105422974e-02
1.699442863464355469e-01 2.547072805464267731e-02 3.983141481876373291e-01
6.811034679412841797e-02 4.859430715441703796e-02 -6.285840272903442383e-01
1.275062412023544312e-01 2.547072805464267731e-02 4.022100269794464111e-01
-1.930202692747116089e-01 1.159659586846828461e-02 -7.118592262268066406e-01
-3.634231984615325928e-01 4.859430715441703796e-02 -7.057412266731262207e-01
2.139120548963546753e-01 2.547072805464267731e-02 -3.107490241527557373e-01
1.323817223310470581e-01 2.547072805464267731e-02 -7.096605300903320312e-01
2.214000821113586426e-01 2.547072805464267731e-02 -1.300320625305175781e-01
1.318246722221374512e-01 1.159659586846828461e-02 7.357187271118164062e-01
-3.265538811683654785e-01 2.888938598334789276e-02 2.133785337209701538e-01
-2.871501147747039795e-01 4.859430715441703796e-02 -4.418166875839233398e-01
-2.945565879344940186e-01 2.547072805464267731e-02 -1.312659084796905518e-01
2.165072560310363770e-01 -6.433635950088500977e-01 -7.171269059181213379e-01
-7.235402613878250122e-02 4.859430715441703796e-02 1.476563960313796997e-01
5.468739569187164307e-02 2.547072805464267731e-02 -3.480643332004547119e-01
-5.581409856677055359e-02 2.547072805464267731e-02 -7.261290550231933594e-01
-1.828111857175827026e-01 1.159659586846828461e-02 7.332987785339355469e-01
7.989338040351867676e-02 4.859430715441703796e-02 -1.486766785383224487e-01
3.519426658749580383e-02 4.859430715441703796e-02 6.827089190483093262e-01
2.977807521820068359e-01 4.859430715441703796e-02 -4.864985644817352295e-01
1.401326656341552734e-01 -8.121333085000514984e-03 -7.200387716293334961e-01
4.713947698473930359e-02 2.421435341238975525e-02 7.103114724159240723e-01
-5.783129110932350159e-02 4.859430715441703796e-02 -6.547071337699890137e-01
2.077697664499282837e-01 4.859430715441703796e-02 6.555784344673156738e-01
-2.904221117496490479e-01 2.547072805464267731e-02 7.325456738471984863e-01
1.951025724411010742e-01 -2.835418879985809326e-01 7.127452492713928223e-01
-7.349839806556701660e-02 2.547072805464267731e-02 2.223572432994842529e-01
-1.211585476994514465e-01 2.547072805464267731e-02 4.193223416805267334e-01
-2.508708536624908447e-01 4.859430715441703796e-02 -7.348508834838867188e-01
2.976818382740020752e-01 2.547072805464267731e-02 -5.076212286949157715e-01
5.425095185637474060e-02 2.547072805464267731e-02 -2.543292641639709473e-01
2.964618802070617676e-01 2.547072805464267731e-02 -8.407412469387054443e-02
-2.125915735960006714e-01 -5.833438038825988770e-01 6.961431503295898438e-01
2.273037582635879517e-01 -5.440536737442016602e-01 -7.171946167945861816e-01
-4.794975370168685913e-02 4.859430715441703796e-02 -4.886287152767181396e-01
-1.705170869827270508e-01 2.547072805464267731e-02 -5.321842804551124573e-02
-1.866497844457626343e-01 4.859430715441703796e-02 2.493176907300949097e-01
1.974591612815856934e-01 4.859430715441703796e-02 3.156637400388717651e-02
-1.655236035585403442e-01 2.547072805464267731e-02 -5.014694333076477051e-01
-3.490902110934257507e-02 4.859430715441703796e-02 -1.260329484939575195e-01
-2.825123667716979980e-01 2.547072805464267731e-02 -4.941774904727935791e-01
1.351981908082962036e-01 -1.750439219176769257e-02 6.996546387672424316e-01
-2.016970366239547729e-01 4.859430715441703796e-02 -2.141012102365493774e-01
9.745167195796966553e-02 4.859430715441703796e-02 2.744724750518798828e-01
-6.331621855497360229e-02 4.859430715441703796e-02 6.869119405746459961e-01
1.064338609576225281e-01 4.859430715441703796e-02 1.413735598325729370e-01
1.255357563495635986e-01 2.547072805464267731e-02 6.104401946067810059e-01
1.448276638984680176e-01 2.547072805464267731e-02 -3.952659070491790771e-01
-9.966534376144409180e-02 1.609201170504093170e-02 -7.343971133232116699e-01
2.229200303554534912e-02 -3.849695250391960144e-02 7.103287577629089355e-01
-1.048340052366256714e-01 4.859430715441703796e-02 -6.455600857734680176e-01
4.678980261087417603e-02 4.859430715441703796e-02 -6.695183515548706055e-01
-1.664372682571411133e-01 4.859430715441703796e-02 -1.710852980613708496e-01
-1.314427554607391357e-01 2.547072805464267731e-02 -5.866310000419616699e-01
1.960049420595169067e-01 2.547072805464267731e-02 1.386941820383071899e-01
-2.528986036777496338e-01 2.547072805464267731e-02 7.730825990438461304e-02
9.332934767007827759e-02 -3.580021858215332031e-02 -7.066817879676818848e-01
2.768411040306091309e-01 4.859430715441703796e-02 -1.854635626077651978e-01
-3.414293229579925537e-01 2.547072805464267731e-02 7.019227743148803711e-01
-8.254392445087432861e-02 4.859430715441703796e-02 -2.271432578563690186e-01
3.625866174697875977e-01 4.859430715441703796e-02 7.702097296714782715e-02
2.331232577562332153e-01 4.859430715441703796e-02 7.372189164161682129e-01
2.369098067283630371e-01 2.547072805464267731e-02 -2.730728089809417725e-01
-1.418213099241256714e-01 2.547072805464267731e-02 3.533156216144561768e-01
7.615023106336593628e-02 -2.741338908672332764e-01 -7.056909203529357910e-01
-1.092971637845039368e-01 2.547072805464267731e-02 7.675980031490325928e-02
1.782357990741729736e-01 4.859430715441703796e-02 3.763758540153503418e-01
7.103441655635833740e-02 4.859430715441703796e-02 7.913923263549804688e-02
-2.757505774497985840e-01 4.859430715441703796e-02 6.350500583648681641e-01
-1.401249915361404419e-01 4.859430715441703796e-02 -3.618508577346801758e-01
1.816750504076480865e-02 2.547072805464267731e-02 6.891435980796813965e-01
1.085553243756294250e-01 2.547072805464267731e-02 1.964189261198043823e-01
-1.138779670000076294e-01 4.859430715441703796e-02 3.847523629665374756e-01
1.718608103692531586e-02 4.859430715441703796e-02 3.808964490890502930e-01
3.207837045192718506e-01 4.859430715441703796e-02 3.234883844852447510e-01
-2.828412353992462158e-01 4.859430715441703796e-02 -1.111254021525382996e-01
4.085209686309099197e-03 -2.299937978386878967e-02 -7.207615971565246582e-01
-2.550894916057586670e-01 2.547072805464267731e-02 -6.269562244415283203e-02
-2.491042464971542358e-01 2.547072805464267731e-02 -2.072525955736637115e-02
1.726080477237701416e-01 4.859430715441703796e-02 4.479530751705169678e-01
3.147394955158233643e-01 2.547072805464267731e-02 3.497269153594970703e-01
-2.347702533006668091e-01 4.859430715441703796e-02 -6.514620184898376465e-01
-3.735795244574546814e-02 2.547072805464267731e-02 5.853157639503479004e-01
1.907787472009658813e-02 -9.430067986249923706e-02 7.232224941253662109e-01
-2.393038570880889893e-01 -6.429470181465148926e-01 -6.941334605216979980e-01
-3.469503521919250488e-01 2.547072805464267731e-02 -6.881117820739746094e-01
4.067355021834373474e-02 2.547072805464267731e-02 7.378289699554443359e-01
2.705122828483581543e-01 4.859430715441703796e-02 3.016472458839416504e-01
1.702800691127777100e-01 1.790199615061283112e-02 7.381039857864379883e-01
2.686962485313415527e-01 4.859430715441703796e-02 -4.783449769020080566e-01
-3.328048065304756165e-02 2.547072805464267731e-02 8.045298606157302856e-02
-3.157296478748321533e-01 2.547072805464267731e-02 5.207589268684387207e-01
-1.042426005005836487e-01 4.859430715441703796e-02 -5.378979444503784180e-02
2.762378938496112823e-02 2.547072805464267731e-02 -4.198758304119110107e-01
-1.052794754505157471e-01 2.547072805464267731e-02 -6.841621398925781250e-01
-8.827632293105125427e-03 4.859430715441703796e-02 1.086430922150611877e-01
-9.379690140485763550e-02 4.859430715441703796e-02 -5.270702242851257324e-01
2.695943117141723633e-01 4.859430715441703796e-02 2.664247751235961914e-01
-2.857186645269393921e-02 4.859430715441703796e-02 2.182878926396369934e-02
-2.470339685678482056e-01 4.859430715441703796e-02 2.785037159919738770e-01
8.669596910476684570e-02 4.859430715441703796e-02 1.041268333792686462e-01
1.953455060720443726e-01 2.547072805464267731e-02 -5.430545806884765625e-01
-1.853439360857009888e-01 4.859430715441703796e-02 1.198561210185289383e-02
-3.204940557479858398e-01 2.547072805464267731e-02 -1.736258566379547119e-01
3.263307511806488037e-01 4.859430715441703796e-02 -3.539654016494750977e-01
-2.430634945631027222e-01 2.547072805464267731e-02 1.593839228153228760e-01
7.475761324167251587e-02 2.547072805464267731e-02 5.195450186729431152e-01
-2.200615778565406799e-02 4.859430715441703796e-02 -4.013014733791351318e-01
-1.836511045694351196e-01 4.859430715441703796e-02 -6.159393787384033203e-01
-2.553237378597259521e-01 2.547072805464267731e-02 -5.272958278656005859e-01
-1.412418950349092484e-02 4.859430715441703796e-02 3.559550642967224121e-01
-2.427381128072738647e-01 4.859430715441703796e-02 -1.368571966886520386e-01
1.159028112888336182e-01 4.859430715441703796e-02 -6.647886633872985840e-01
-1.828372180461883545e-01 2.547072805464267731e-02 -2.051624059677124023e-01
2.160977125167846680e-01 -6.407223343849182129e-01 7.146836519241333008e-01
1.742167323827743530e-01 2.547072805464267731e-02 -2.021463662385940552e-01
2.900133132934570312e-01 2.547072805464267731e-02 2.394140213727951050e-01
8.941873162984848022e-02 -2.106572538614273071e-01 7.112979888916015625e-01
2.400984913110733032e-01 2.547072805464267731e-02 7.154732942581176758e-01
-3.111604452133178711e-01 2.547072805464267731e-02 -2.874215841293334961e-01
-9.322848916053771973e-02 2.547072805464267731e-02 1.449518650770187378e-01
1.767225712537765503e-01 2.547072805464267731e-02 -3.592911958694458008e-01
