3.168914094567298889e-02 -3.107104264199733734e-02 5.844525694847106934e-01
-1.643615514039993286e-01 2.131272256374359131e-01 -1.233617961406707764e-01
5.781855434179306030e-02 -1.991751790046691895e-01 3.393306732177734375e-01
-1.396982073783874512e-01 1.589350402355194092e-01 -6.709722876548767090e-01
2.327430695295333862e-01 1.134646609425544739e-01 -8.762243390083312988e-01
7.717202603816986084e-02 -2.084131687879562378e-01 -5.696895718574523926e-01
-1.606640517711639404e-01 2.054174393415451050e-01 -2.809547483921051025e-01
-1.287431567907333374e-01 1.313072741031646729e-01 7.221749424934387207e-01
2.786095440387725830e-01 -7.882846891880035400e-02 -2.643749713897705078e-01
2.592852115631103516e-01 -4.575584456324577332e-02 -5.749549865722656250e-01
2.446752488613128662e-01 -3.701535239815711975e-02 8.042883276939392090e-01
-2.213932275772094727e-01 -3.987850248813629150e-01 -8.488647937774658203e-01
6.365061551332473755e-02 -1.884157657623291016e-01 -3.470007702708244324e-02
1.176069900393486023e-01 -2.027192339301109314e-02 -6.245218962430953979e-02
-1.151142418384552002e-01 -9.691479615867137909e-03 7.208085060119628906e-01
-1.736557185649871826e-01 2.306008636951446533e-01 -7.798689603805541992e-01
-1.211273148655891418e-01 2.978091128170490265e-03 1.805291324853897095e-01
-1.074354574084281921e-01 6.888525187969207764e-02 -9.577643871307373047e-02
6.512023508548736572e-02 -2.535238116979598999e-02 -6.777862906455993652e-01
6.166008487343788147e-02 -1.899420469999313354e-01 -3.856764435768127441e-01
-8.914057165384292603e-02 -4.552013054490089417e-02 2.229101657867431641e-01
1.364351958036422729e-01 -1.905420422554016113e-02 -4.967366456985473633e-01
-8.885488659143447876e-02 -1.161056458950042725e-01 -8.248900175094604492e-01
-1.942322403192520142e-01 2.051540315151214600e-01 7.215260863304138184e-01
1.051835939288139343e-01 -3.261338546872138977e-02 -6.344067454338073730e-01
-8.930134773254394531e-02 2.571925288066267967e-03 1.710780151188373566e-02
-2.855318225920200348e-02 -1.794891618192195892e-02 -8.549591898918151855e-01
1.258941590785980225e-01 -1.973598636686801910e-02 7.076066732406616211e-01
-3.768783807754516602e-02 -5.737727135419845581e-02 5.007915496826171875e-01
2.602207846939563751e-02 -5.903185904026031494e-02 -3.334453403949737549e-01
-1.882269233465194702e-01 1.749879717826843262e-01 8.390274047851562500e-01
-1.977709382772445679e-01 2.220068871974945068e-01 4.933355152606964111e-01
1.177843846380710602e-02 -6.019030883908271790e-02 2.471067458391189575e-01
6.746502965688705444e-02 -2.516169473528862000e-02 -2.822785675525665283e-01
2.573347687721252441e-01 7.874304056167602539e-02 7.887506484985351562e-01
-1.204009726643562317e-01 5.437602475285530090e-02 5.387158393859863281e-01
1.330398172140121460e-01 -1.927374862134456635e-02 -1.862941831350326538e-01
-8.910280466079711914e-02 -4.553726688027381897e-02 6.654744744300842285e-01
-1.864207684993743896e-01 1.888686716556549072e-01 6.906898617744445801e-01
1.056718751788139343e-01 -4.016211628913879395e-02 6.304613947868347168e-01
1.791019290685653687e-01 -1.825576573610305786e-01 8.402379751205444336e-01
-1.603522002696990967e-01 2.047675997018814087e-01 -4.529367983341217041e-01
2.790027260780334473e-01 -7.833343744277954102e-02 -8.353598415851593018e-02
-1.020818948745727539e-01 4.516418650746345520e-02 6.686471104621887207e-01
4.756999760866165161e-02 -2.677977085113525391e-02 7.725911736488342285e-01
-1.362205147743225098e-01 1.099104732275009155e-01 -3.225009739398956299e-01
2.358885556459426880e-01 -6.716004759073257446e-02 -3.695421814918518066e-01
1.451414972543716431e-01 -4.893476516008377075e-02 2.665618062019348145e-01
-4.041129350662231445e-02 -3.125960007309913635e-02 3.582327961921691895e-01
1.316036134958267212e-01 -4.981033504009246826e-02 1.415202021598815918e-01
-1.631132364273071289e-01 2.105240523815155029e-01 3.496146202087402344e-01
1.616437882184982300e-01 -4.652082175016403198e-02 3.752706348896026611e-01
-1.210111007094383240e-01 2.592936623841524124e-03 2.919079363346099854e-01
-1.489773672074079514e-02 -6.235991790890693665e-02 -8.027920126914978027e-01
-1.065231710672378540e-01 -2.798184752464294434e-01 -8.430202603340148926e-01
-1.104017943143844604e-01 7.827819138765335083e-02 -2.346156686544418335e-01
9.011497721076011658e-03 -2.993408963084220886e-02 -2.070886194705963135e-01
-1.357711553573608398e-01 1.607842557132244110e-02 8.385509252548217773e-01
8.894327282905578613e-02 -5.389581248164176941e-02 -4.607937932014465332e-01
1.720216274261474609e-01 -4.589433595538139343e-02 5.769315958023071289e-01
-1.210333853960037231e-01 -1.682629808783531189e-02 -8.494449257850646973e-01
-2.246713936328887939e-01 2.684089243412017822e-01 -3.689117133617401123e-01
-1.596122980117797852e-01 2.032258659601211548e-01 1.824233978986740112e-01
-2.245551943778991699e-01 2.674055993556976318e-01 4.809530377388000488e-01
-1.194015443325042725e-01 -3.674423396587371826e-01 8.372183442115783691e-01
-7.093531545251607895e-03 -3.124410472810268402e-02 -3.495844900608062744e-01
-1.421716064214706421e-01 1.651737540960311890e-01 8.288732171058654785e-02
-1.564513146877288818e-01 1.966346204280853271e-01 2.977796196937561035e-01
2.653980255126953125e-01 -8.334127068519592285e-02 -4.350758194923400879e-01
-1.901434659957885742e-01 1.966317296028137207e-01 -4.978261291980743408e-01
1.957901418209075928e-01 -1.991640962660312653e-02 -3.732852041721343994e-01
1.509279459714889526e-01 1.333778053522109985e-01 7.885928153991699219e-01
2.192216515541076660e-01 1.210756674408912659e-01 -8.033130764961242676e-01
-1.720461547374725342e-01 1.620398759841918945e-01 -2.346776425838470459e-01
-6.175609305500984192e-02 7.826947420835494995e-02 -8.243767619132995605e-01
-5.815842002630233765e-02 -5.707550421357154846e-02 -4.260111749172210693e-01
-1.110196635127067566e-01 8.023444563150405884e-02 -4.062432944774627686e-01
1.691143512725830078e-01 -3.800045326352119446e-02 -4.913481418043375015e-03
-1.578013151884078979e-01 1.221680715680122375e-01 5.954540967941284180e-01
2.555528283119201660e-01 9.275642037391662598e-02 8.612764477729797363e-01
2.133267223834991455e-01 -5.440782755613327026e-02 -1.719864010810852051e-01
-1.340608894824981689e-01 1.447173058986663818e-01 1.399523019790649414e-01
2.453647851943969727e-01 -7.282958924770355225e-02 7.099056988954544067e-02
-1.842495203018188477e-01 2.689134776592254639e-01 8.133878707885742188e-01
-1.089549437165260315e-01 7.369647920131683350e-02 -4.761407077312469482e-01
7.355673611164093018e-02 -2.103248685598373413e-01 -2.018764615058898926e-01
1.401598155498504639e-01 -4.925696551799774170e-02 4.438742101192474365e-01
1.894516795873641968e-01 -1.864813640713691711e-02 -8.045119643211364746e-01
9.644610434770584106e-02 1.255430877208709717e-01 8.573561906814575195e-01
-1.557520925998687744e-01 1.170004531741142273e-01 4.201231300830841064e-01
2.813066542148590088e-01 -7.474626600742340088e-02 3.995495140552520752e-01
-1.984439939260482788e-01 2.803275287151336670e-01 2.308146059513092041e-01
1.768038123846054077e-01 -4.709898307919502258e-02 7.396369427442550659e-02
-1.815737038850784302e-01 1.787649095058441162e-01 -4.019860029220581055e-01
-1.410733759403228760e-01 1.624040156602859497e-01 4.293746650218963623e-01
-6.015273183584213257e-02 -2.392750978469848633e-02 -5.219365358352661133e-01
2.639114558696746826e-01 -4.852337017655372620e-02 7.897384762763977051e-01
1.202481240034103394e-01 -2.010108903050422668e-02 2.268953174352645874e-01
-4.831350967288017273e-02 -6.073196604847908020e-02 -7.198739051818847656e-01
-1.488354653120040894e-01 7.938414812088012695e-02 -8.549591898918151855e-01
2.558162510395050049e-01 -7.908290624618530273e-02 -7.054508328437805176e-01
-1.453907191753387451e-01 8.818924427032470703e-02 -1.210065335035324097e-01
-3.188898786902427673e-02 -3.616466745734214783e-02 9.855616092681884766e-02
2.280209362506866455e-01 -6.240581721067428589e-02 7.917063236236572266e-01
-1.281320750713348389e-01 -4.369814395904541016e-01 -8.637381792068481445e-01
1.069507226347923279e-01 -2.040154635906219482e-01 -8.520334959030151367e-01
-2.166391313076019287e-01 2.837170958518981934e-01 -5.492669939994812012e-01
-7.186645269393920898e-02 -1.957696862518787384e-02 -1.199664324522018433e-01
-4.380239918828010559e-02 -1.940714865922927856e-01 -8.462529182434082031e-01
2.180130332708358765e-01 -5.534557253122329712e-02 -6.155202537775039673e-02
6.956917047500610352e-02 -5.547118186950683594e-02 -1.468707770109176636e-01
1.276053041219711304e-01 -1.962529495358467102e-02 4.583485722541809082e-01
-9.173989295959472656e-02 1.074830070137977600e-02 -3.661217167973518372e-02
1.700004935264587402e-01 -4.419636353850364685e-02 -7.653849124908447266e-01
2.798472046852111816e-01 -5.964585393667221069e-02 2.016973644495010376e-01
-1.282017976045608521e-01 1.124439314007759094e-01 7.896338701248168945e-01
1.203761547803878784e-01 -5.053637549281120300e-02 -2.899641394615173340e-01
2.518957480788230896e-02 -5.909955129027366638e-02 -7.869192957878112793e-01
2.158834338188171387e-01 8.831850253045558929e-03 8.224098682403564453e-01
2.878281772136688232e-01 -1.528385430574417114e-01 8.169081807136535645e-01
6.799031794071197510e-02 -1.852504722774028778e-02 -8.273159861564636230e-01
-1.148973181843757629e-01 9.251044690608978271e-02 -3.548682928085327148e-01
-1.233208477497100830e-01 1.123693510890007019e-01 -7.215124964714050293e-01
-1.237208098173141479e-01 1.160944532603025436e-02 -1.907848715782165527e-01
-9.003109298646450043e-03 -3.139934688806533813e-02 7.252448797225952148e-01
4.303815960884094238e-02 -4.642746224999427795e-02 -3.023409843444824219e-02
-2.134413272142410278e-01 2.457066476345062256e-01 7.736361026763916016e-01
-1.375482529401779175e-01 1.535136848688125610e-01 5.393918752670288086e-01
-1.696260124444961548e-01 2.241016328334808350e-01 2.878743708133697510e-01
-1.580782979726791382e-01 2.000280469655990601e-01 -8.143475055694580078e-01
2.538619339466094971e-01 -3.998367488384246826e-01 8.185477256774902344e-01
2.256153225898742676e-01 -5.808869376778602600e-02 -5.002114176750183105e-01
-2.058496922254562378e-01 2.849082946777343750e-01 6.775907278060913086e-01
-8.527843654155731201e-02 -2.000085636973381042e-02 -6.087129712104797363e-01
2.621818184852600098e-01 -2.786912322044372559e-01 8.357598781585693359e-01
4.606125503778457642e-02 -6.247079744935035706e-02 8.385528922080993652e-01
-2.043253779411315918e-01 2.297534793615341187e-01 -2.549955844879150391e-01
1.683841496706008911e-01 -7.874970324337482452e-03 8.143620491027832031e-01
-1.346109658479690552e-01 1.723441183567047119e-01 8.402379751205444336e-01
-6.554540991783142090e-02 -5.433200299739837646e-02 -4.688086509704589844e-01
9.995351731777191162e-02 -5.894538015127182007e-02 -8.485432267189025879e-01
7.441487163305282593e-02 -2.459651045501232147e-02 -7.296929359436035156e-01
3.245045617222785950e-02 1.108159720897674561e-01 -8.573725819587707520e-01
-5.996610969305038452e-02 -2.399685047566890717e-02 -2.748709619045257568e-01
2.431199401617050171e-01 -3.622064739465713501e-02 -2.369225025177001953e-01
-1.832491159439086914e-01 2.539306581020355225e-01 4.427808225154876709e-01
-1.427952796220779419e-01 7.996909320354461670e-02 -6.612849831581115723e-01
4.472635313868522644e-02 -2.774918451905250549e-02 3.731313347816467285e-01
-1.846194565296173096e-01 2.563934326171875000e-01 5.806765556335449219e-01
-2.220672369003295898e-01 2.789300680160522461e-01 -1.157401353120803833e-01
-7.030241191387176514e-02 -6.196614727377891541e-02 -8.528257012367248535e-01
-1.108066067099571228e-01 -9.951799176633358002e-03 -6.728152036666870117e-01
-6.781350821256637573e-02 -5.348964780569076538e-02 7.926825284957885742e-01
-9.209142625331878662e-02 1.191750261932611465e-02 3.371429741382598877e-01
-1.647431254386901855e-01 2.139213532209396362e-01 -3.789612352848052979e-01
1.434496194124221802e-01 -1.860058121383190155e-02 -5.825378894805908203e-01
2.118687145411968231e-02 -2.894385717809200287e-02 -5.889063477516174316e-01
-4.977288655936717987e-03 -6.155310571193695068e-02 6.182686686515808105e-01
-1.419207751750946045e-01 7.720128446817398071e-02 2.125216722488403320e-01
8.371067047119140625e-02 -5.432125180959701538e-02 7.893345952033996582e-01
2.621556818485260010e-01 -2.792935669422149658e-01 -8.450093865394592285e-01
-1.033350601792335510e-01 4.821672663092613220e-02 -7.805691361427307129e-01
-1.268789023160934448e-01 2.211909368634223938e-02 4.346246123313903809e-01
2.038524448871612549e-01 -2.152964472770690918e-02 6.635153293609619141e-01
-1.648235023021697998e-01 1.398809105157852173e-01 1.724910438060760498e-01
-1.338332891464233398e-01 1.441439986228942871e-01 6.695013046264648438e-01
2.803401648998260498e-01 -7.664725929498672485e-02 6.483359932899475098e-01
-1.686256080865859985e-01 -3.365315198898315430e-01 -8.274631500244140625e-01
-1.388575881719589233e-01 6.750036776065826416e-02 6.371804475784301758e-01
2.111632227897644043e-01 -5.397483706474304199e-02 3.672044575214385986e-01
-1.810429990291595459e-01 2.499697208404541016e-01 -2.433617599308490753e-02
-1.898694038391113281e-01 2.782105207443237305e-01 -8.470828533172607422e-01
-1.456289440393447876e-01 1.716090589761734009e-01 6.085426211357116699e-01
-2.182932347059249878e-01 2.544216811656951904e-01 -4.906770884990692139e-01
1.734655797481536865e-01 -4.642058536410331726e-02 -1.160878092050552368e-01
-3.628523647785186768e-02 -5.360111966729164124e-02 4.186384975910186768e-01
-1.142988204956054688e-01 9.061616659164428711e-02 2.457654774188995361e-01
-2.169722914695739746e-01 -3.900167346000671387e-01 8.301371335983276367e-01
-1.124064773321151733e-01 8.462439477443695068e-02 3.225359320640563965e-01
-2.164420858025550842e-02 -6.058824807405471802e-02 -1.777786612510681152e-01
-8.845297992229461670e-02 -1.071577072143554688e-01 8.104147315025329590e-01
-1.869495362043380737e-01 1.899726837873458862e-01 2.607947587966918945e-01
1.050285473465919495e-01 -2.526386640965938568e-02 -4.145351052284240723e-01
-1.265883743762969971e-01 4.557674378156661987e-02 4.594215378165245056e-02
-1.592801362276077271e-01 -4.369814395904541016e-01 8.379727602005004883e-01
-7.943677902221679688e-02 -4.917290434241294861e-02 5.188142508268356323e-02
1.817602962255477905e-01 -4.809086397290229797e-02 2.552717030048370361e-01
-1.694478243589401245e-01 1.719557791948318481e-01 -5.255886167287826538e-02
-1.860372722148895264e-01 1.880706697702407837e-01 -9.277455508708953857e-02
-1.132683977484703064e-01 -1.019894331693649292e-02 -3.811082839965820312e-01
-1.114244684576988220e-01 8.151473104953765869e-02 -3.999465331435203552e-02
1.971643567085266113e-01 -5.117332190275192261e-02 -5.514333490282297134e-03
4.928801208734512329e-02 -1.925423145294189453e-01 8.376483321189880371e-01
-1.003067418932914734e-01 3.925667703151702881e-02 7.311766743659973145e-01
-5.156108364462852478e-02 -5.952576547861099243e-02 -1.192749477922916412e-02
5.318336654454469681e-03 -6.071569398045539856e-02 5.364109277725219727e-01
-2.448697574436664581e-02 -4.184788838028907776e-02 -6.417185068130493164e-01
-5.275178700685501099e-02 -5.908357352018356323e-02 -3.157034516334533691e-01
2.828048467636108398e-01 -6.872168183326721191e-02 -8.056382536888122559e-01
-2.516241669654846191e-01 2.399967014789581299e-01 -8.541156649589538574e-01
-9.313057363033294678e-02 -1.817770898342132568e-01 8.098587989807128906e-01
1.786147952079772949e-01 -5.420484393835067749e-02 -8.255649805068969727e-01
-1.420098841190338135e-01 7.748310267925262451e-02 -2.804753482341766357e-01
-8.420054614543914795e-02 -4.740336537361145020e-02 -5.676538348197937012e-01
-1.352888643741607666e-01 5.620153620839118958e-02 3.719411194324493408e-01
-1.223717629909515381e-01 7.120513822883367538e-03 -7.858055830001831055e-01
-1.635316014289855957e-01 1.366220861673355103e-01 -7.663398385047912598e-01
2.008938491344451904e-01 -2.093782834708690643e-02 -2.790594995021820068e-01
1.173571273684501648e-01 -2.028809674084186554e-02 3.091016709804534912e-01
-1.706874221563339233e-01 2.263125926256179810e-01 9.544164687395095825e-02
1.360478103160858154e-01 -2.066680341958999634e-01 8.261567950248718262e-01
-1.167954653501510620e-01 9.852156788110733032e-02 -5.646961927413940430e-01
2.072230912744998932e-02 1.070535704493522644e-01 8.160985112190246582e-01
-9.958912432193756104e-02 3.686752915382385254e-02 5.795696377754211426e-01
-1.060302406549453735e-01 -2.979976683855056763e-02 8.113396167755126953e-01
1.375740766525268555e-01 -4.942421615123748779e-02 1.900973469018936157e-01
2.333928942680358887e-01 -1.463030874729156494e-01 -8.292063474655151367e-01
1.413006335496902466e-01 -4.918317124247550964e-02 7.358948588371276855e-01
-1.156459227204322815e-01 9.488118439912796021e-02 5.405161976814270020e-01
2.325164377689361572e-01 -4.428323358297348022e-02 4.744092822074890137e-01
-1.434819102287292480e-01 8.214323967695236206e-02 -8.230916410684585571e-02
-3.330256557092070580e-03 -3.093797713518142700e-02 2.699978649616241455e-01
-4.086801037192344666e-02 -3.108992800116539001e-02 8.024511933326721191e-01
9.125988930463790894e-02 1.320723444223403931e-01 -8.711612820625305176e-01
9.907398372888565063e-02 -5.174567550420761108e-02 -1.745614856481552124e-01
1.920742243528366089e-01 -1.917293481528759003e-02 -4.481313824653625488e-01
-2.418583780527114868e-01 2.294435650110244751e-01 8.098587989807128906e-01
-1.641165465116500854e-01 2.126149237155914307e-01 -5.727111101150512695e-01
2.631415426731109619e-01 6.624720245599746704e-02 -8.564544916152954102e-01
7.379390299320220947e-02 -2.464696578681468964e-02 -3.996423780918121338e-01
9.662187844514846802e-02 -5.313296988606452942e-02 -5.356332063674926758e-01
5.721588805317878723e-02 -5.647565424442291260e-02 3.365435302257537842e-01
-2.243080176413059235e-03 -3.084955923259258270e-02 -4.821296036243438721e-01
2.734293341636657715e-01 -3.937336206436157227e-01 -8.488821983337402344e-01
-1.818022727966308594e-01 2.513332962989807129e-01 -8.368047326803207397e-02
7.534380257129669189e-02 -2.452087402343750000e-02 6.818363666534423828e-01
-8.292414247989654541e-02 -4.787770658731460571e-02 4.995326101779937744e-01
-2.172037214040756226e-01 2.524653971195220947e-01 -5.783280730247497559e-01
-2.245241999626159668e-01 2.671402692794799805e-01 6.038233041763305664e-01
-1.699494719505310059e-01 1.528106033802032471e-01 -8.144278526306152344e-01
1.633947193622589111e-01 -3.829582780599594116e-02 -6.790423393249511719e-01
2.114866822957992554e-01 1.267342865467071533e-01 -8.616017699241638184e-01
1.290522515773773193e-01 -1.953174173831939697e-02 -7.646954059600830078e-01
8.337956666946411133e-02 -5.434817075729370117e-02 4.752818346023559570e-01
-1.686198115348815918e-01 -3.943417966365814209e-01 -8.488821983337402344e-01
-1.613826155662536621e-01 1.312017142772674561e-01 4.960829913616180420e-01
2.361423075199127197e-01 -6.731154024600982666e-02 -1.357511132955551147e-01
-1.266697198152542114e-01 1.230125576257705688e-01 2.419583871960639954e-02
-1.550393104553222656e-01 -2.773373126983642578e-01 8.402379751205444336e-01
-4.395367205142974854e-02 -6.203800812363624573e-02 -4.991228878498077393e-01
4.662644118070602417e-02 -5.634200945496559143e-02 -2.474126815795898438e-01
-6.897951662540435791e-02 -5.905016139149665833e-02 8.402379751205444336e-01
1.930901259183883667e-01 -5.035818368196487427e-02 -3.418659865856170654e-01
2.243950664997100830e-01 -2.564950101077556610e-02 5.878537297248840332e-01
-1.547255367040634155e-01 1.712226569652557373e-01 -1.649225652217864990e-01
5.406709387898445129e-02 -5.673170834779739380e-02 2.716742455959320068e-01
-1.004200428724288940e-01 -2.488195747137069702e-01 8.257887959480285645e-01
-1.334439963102340698e-01 1.431629657745361328e-01 -5.572682619094848633e-01
1.379275470972061157e-01 -1.895774342119693756e-02 -3.722354173660278320e-01
-9.217472374439239502e-02 1.115742623805999756e-01 -8.245791196823120117e-01
-9.930925071239471436e-02 3.593878820538520813e-02 -5.931714177131652832e-01
-1.994240731000900269e-01 2.190540879964828491e-01 -4.463688433170318604e-01
2.338044792413711548e-01 -4.295970499515533447e-01 -8.093881607055664062e-01
2.284702956676483154e-01 -5.104548856616020203e-02 -6.361353993415832520e-01
-1.251841187477111816e-01 1.128739118576049805e-01 -4.381593167781829834e-01
-5.211748182773590088e-03 -2.132404223084449768e-02 8.375379443168640137e-01
2.404867410659790039e-01 -3.586358204483985901e-02 1.342132836580276489e-01
5.379457026720046997e-02 -5.675388500094413757e-02 -6.182966828346252441e-01
-9.332037717103958130e-02 1.600850000977516174e-02 -4.359667897224426270e-01
-1.964993774890899658e-01 2.777088880538940430e-01 6.246719881892204285e-02
-2.036668360233306885e-01 -4.369814395904541016e-01 -8.120648860931396484e-01
1.327909380197525024e-01 -1.928992196917533875e-02 4.010970890522003174e-01
-1.536704506725072861e-02 -1.922130435705184937e-01 8.105890154838562012e-01
2.235099226236343384e-01 -5.400069802999496460e-02 7.351676225662231445e-01
-1.253197044134140015e-01 1.693094708025455475e-02 -7.235056161880493164e-02
5.215809494256973267e-02 -5.688694864511489868e-02 -5.684499144554138184e-01
6.925442069768905640e-02 -5.549674853682518005e-02 6.133702397346496582e-01
-1.615860015153884888e-01 2.073388248682022095e-01 5.947132110595703125e-01
-1.100734993815422058e-01 7.723808288574218750e-02 5.495342239737510681e-02
-1.854503899812698364e-01 1.868475228548049927e-01 -7.656589746475219727e-01
-1.299856752157211304e-01 3.245529904961585999e-02 -5.054439306259155273e-01
-1.003416106104850769e-01 3.937385603785514832e-02 -1.514825075864791870e-01
-1.669453680515289307e-01 1.452325284481048584e-01 3.120428621768951416e-01
1.334117054939270020e-01 -5.675679072737693787e-02 8.363196253776550293e-01
-1.035326197743415833e-01 4.849369823932647705e-02 7.797663807868957520e-01
1.087925955653190613e-01 -2.110372297465801239e-02 5.717872381210327148e-01
2.827457487583160400e-01 -6.811939924955368042e-02 5.871031880378723145e-01
2.267377376556396484e-01 -5.394113808870315552e-02 -5.569041371345520020e-01
1.932678185403347015e-02 -2.909512445330619812e-02 -4.271858930587768555e-01
-1.782325804233551025e-01 2.410387694835662842e-01 6.739154458045959473e-01
-1.709256768226623535e-01 1.640232503414154053e-01 -5.687230229377746582e-01
2.042737156152725220e-01 -2.161408960819244385e-02 -3.346850350499153137e-02
-8.969549834728240967e-02 3.944884985685348511e-03 4.612723290920257568e-01
2.606759071350097656e-01 -8.184946328401565552e-02 -5.479208827018737793e-01
7.159709185361862183e-02 -5.530625581741333008e-02 1.267020404338836670e-01
-1.784908701665699482e-03 -3.081227280199527740e-02 2.126727402210235596e-01
-1.661309003829956055e-01 1.431794315576553345e-01 -1.206211000680923462e-01
-7.344017177820205688e-02 -1.899260841310024261e-02 3.967613577842712402e-01
2.079034447669982910e-01 -5.332249402999877930e-02 -4.691650271415710449e-01
-1.402850747108459473e-01 7.202009856700897217e-02 -7.597863674163818359e-01
2.187267690896987915e-01 -2.450615540146827698e-02 2.450110465288162231e-01
2.480696588754653931e-01 -5.277183651924133301e-02 -8.480319380760192871e-01
1.724690496921539307e-01 -2.129101753234863281e-02 -6.245073080062866211e-01
2.735513448715209961e-01 -4.248535931110382080e-01 -8.629420995712280273e-01
-4.712464660406112671e-02 -2.876624464988708496e-02 2.516410052776336670e-01
-1.202218160033226013e-01 -3.531972470227628946e-05 1.384889781475067139e-01
1.577448248863220215e-01 -1.794388145208358765e-02 1.325872838497161865e-01
-7.011549919843673706e-02 -2.022718265652656555e-02 3.011420667171478271e-01
2.423761636018753052e-01 -1.406358480453491211e-01 8.341628909111022949e-01
1.600506901741027832e-01 -4.756877571344375610e-02 6.896178126335144043e-01
-2.134941332042217255e-02 -3.283070400357246399e-02 6.614070534706115723e-01
-1.375724673271179199e-01 6.343097239732742310e-02 4.681424498558044434e-01
-1.491744220256805420e-01 1.022171527147293091e-01 -5.262461304664611816e-01
2.906915359199047089e-02 -2.899005077779293060e-02 -1.542396694421768188e-01
-1.537570953369140625e-01 1.134036406874656677e-01 5.400600433349609375e-01
-1.542694121599197388e-01 1.920868307352066040e-01 -6.832454204559326172e-01
-1.266929656267166138e-01 1.229089275002479553e-01 2.583455443382263184e-01
-1.607666909694671631e-01 2.056314647197723389e-01 4.567022323608398438e-01
-1.969012767076492310e-01 2.287172228097915649e-01 1.563267409801483154e-01
6.022097170352935791e-02 -5.623131245374679565e-02 3.526583313941955566e-02
6.656224280595779419e-02 -2.523510158061981201e-02 7.615179568529129028e-02
2.468377798795700073e-01 -7.371111214160919189e-02 2.986860573291778564e-01
-1.638008207082748413e-01 2.263009697198867798e-01 8.402379751205444336e-01
-1.076543256640434265e-01 9.106165170669555664e-02 8.402379751205444336e-01
1.246031224727630615e-01 -5.026308447122573853e-02 -6.546559929847717285e-01
-1.304844170808792114e-01 4.327571764588356018e-02 -3.576283752918243408e-01
1.854878365993499756e-01 -4.883695393800735474e-02 4.887112081050872803e-01
4.174848645925521851e-02 1.136273667216300964e-01 8.434706330299377441e-01
1.930639743804931641e-01 -1.937098056077957153e-02 3.539483845233917236e-01
-1.974077671766281128e-01 2.117752730846405029e-01 -1.553407907485961914e-01
-1.722873002290725708e-01 -4.003732800483703613e-01 8.185477256774902344e-01
1.388049721717834473e-01 -4.934461042284965515e-02 5.636832714080810547e-01
2.793349027633666992e-01 -7.791363447904586792e-02 2.452947944402694702e-01
-5.965543538331985474e-02 -2.411219105124473572e-02 -6.963377594947814941e-01
-4.412634298205375671e-02 -2.987975999712944031e-02 5.419920682907104492e-01
1.120618544518947601e-02 -6.023689359426498413e-02 7.563271522521972656e-01
-1.968034654855728149e-01 2.105153352022171021e-01 -6.438946127891540527e-01
-3.770885616540908813e-02 -3.226329386234283447e-02 -8.508239686489105225e-02
9.708333760499954224e-02 -2.429135516285896301e-02 4.034000337123870850e-01
1.583549529314041138e-01 -4.805164411664009094e-02 -2.123540490865707397e-01
-9.002476930618286133e-02 3.493354469537734985e-02 8.312168717384338379e-01
8.062588423490524292e-02 -1.931553483009338379e-01 -1.574578136205673218e-01
-1.220173090696334839e-01 1.115781292319297791e-01 -1.979600787162780762e-01
2.357550896704196930e-02 -5.923087149858474731e-02 -6.609605997800827026e-02
-1.868294626474380493e-01 1.897228360176086426e-01 5.135740637779235840e-01
2.751822173595428467e-01 -1.010080873966217041e-01 -8.245791196823120117e-01
8.138612657785415649e-02 -2.025937885046005249e-01 4.986968338489532471e-01
-1.368480622768402100e-01 2.697003260254859924e-02 -8.426309227943420410e-01
1.821747869253158569e-01 -1.719198189675807953e-02 4.504480361938476562e-01
-2.120254784822463989e-01 2.431654483079910278e-01 -7.474192976951599121e-01
-2.088809311389923096e-01 2.853557169437408447e-01 2.740905284881591797e-01
2.172886431217193604e-01 -2.407708168029785156e-01 8.359225988388061523e-01
-1.344366371631622314e-01 1.456663906574249268e-01 -5.043815374374389648e-01
1.004571020603179932e-01 -4.035580530762672424e-02 -8.078821897506713867e-01
-5.232073739171028137e-02 -2.683632634580135345e-02 -7.461303472518920898e-01
6.388808041810989380e-02 -2.093331962823867798e-01 2.081413194537162781e-02
1.117956489324569702e-01 -2.064777724444866180e-02 5.184491872787475586e-01
1.878663301467895508e-01 -1.833087205886840820e-02 -8.491756767034530640e-02
-2.047650367021560669e-01 2.302706241607666016e-01 5.456324815750122070e-01
-1.996516585350036621e-01 2.814906537532806396e-01 4.409001469612121582e-01
4.719588533043861389e-02 -2.683313377201557159e-02 2.404157668352127075e-01
8.933666348457336426e-02 -5.386385321617126465e-02 2.754608392715454102e-01
-1.122176349163055420e-01 -1.020824443548917770e-02 -5.214116573333740234e-01
2.668121084570884705e-02 -5.897820740938186646e-02 4.172962605953216553e-01
-9.009546786546707153e-02 5.275821313261985779e-03 -2.915359437465667725e-01
8.052498102188110352e-02 -1.929122656583786011e-01 -4.386571049690246582e-01
8.085957914590835571e-02 -2.407229319214820862e-02 2.923349291086196899e-02
2.525002658367156982e-01 -7.709871232509613037e-02 -5.960563421249389648e-01
1.411573141813278198e-01 -1.874875463545322418e-02 6.233627200126647949e-01
4.849476367235183716e-02 -2.670461870729923248e-02 -5.267971754074096680e-01
1.504214555025100708e-01 -1.814957894384860992e-02 3.715081140398979187e-02
2.740747667849063873e-02 -2.856228873133659363e-02 -1.093668118119239807e-01
1.748117208480834961e-01 -1.773043535649776459e-02 -1.588029712438583374e-01
2.281022816896438599e-01 -3.739149495959281921e-02 -7.590183615684509277e-01
-1.261109262704849243e-01 4.572103917598724365e-02 1.103401929140090942e-01
-7.655275613069534302e-02 -1.783648133277893066e-02 7.785771489143371582e-01
1.258553266525268555e-01 -5.018211901187896729e-02 -7.127413153648376465e-01
2.366110384464263916e-01 -3.774032741785049438e-02 -6.854776740074157715e-01
1.268256008625030518e-01 -5.011936649680137634e-02 -2.329557687044143677e-01
-1.847666651010513306e-01 1.854210048913955688e-01 6.982291489839553833e-02
2.639176324009895325e-02 -2.853023260831832886e-02 6.455836296081542969e-01
-5.969485267996788025e-02 -2.409756928682327271e-02 -1.716203391551971436e-01
-1.793414503335952759e-01 2.469123601913452148e-01 7.485776543617248535e-01
1.693051457405090332e-01 -2.044948488473892212e-01 -8.534126281738281250e-01
-5.264690518379211426e-02 -5.912250280380249023e-02 6.900565028190612793e-01
1.959048770368099213e-02 -1.599372737109661102e-02 -8.399773836135864258e-01
-2.170197367668151855e-01 2.835660278797149658e-01 -7.781703472137451172e-01
6.007125228643417358e-02 -2.576309815049171448e-02 -4.524758160114288330e-01
9.021862596273422241e-02 -2.331109717488288879e-02 1.786174178123474121e-01
-1.480742692947387695e-01 -2.406507283449172974e-01 -8.253451585769653320e-01
-2.107064276933670044e-01 2.407956570386886597e-01 9.214312583208084106e-02
2.705656588077545166e-01 -5.250406265258789062e-02 6.939641833305358887e-01
1.437914818525314331e-01 1.278954446315765381e-01 8.539636731147766113e-01
-1.683786660432815552e-01 2.215003967285156250e-01 -7.296231985092163086e-01
1.609813719987869263e-01 -1.990207657217979431e-02 -5.442485213279724121e-01
-1.367454081773757935e-01 1.514886766672134399e-01 2.919495999813079834e-01
2.010701000690460205e-01 -5.195495113730430603e-02 6.109849810600280762e-01
2.189214229583740234e-01 1.245417147874832153e-01 8.381655216217041016e-01
-7.214535772800445557e-02 -1.947334781289100647e-02 -4.057251513004302979e-01
1.636106967926025391e-01 -4.210762307047843933e-02 7.639052271842956543e-01
2.215846627950668335e-01 -2.363905459642410278e-01 -8.245791196823120117e-01
5.575547739863395691e-02 -2.611406147480010986e-02 5.409646034240722656e-01
-1.998753547668457031e-01 2.816678881645202637e-01 -2.489273250102996826e-01
-9.206915646791458130e-02 -3.801313787698745728e-02 -7.115791440010070801e-01
3.128296881914138794e-02 -5.798632651567459106e-02 -7.164116501808166504e-01
1.816518455743789673e-01 1.245756149291992188e-01 7.896997332572937012e-01
-1.727434396743774414e-01 1.390557885169982910e-01 8.122102022171020508e-01
1.255416423082351685e-01 1.278402358293533325e-01 -8.129500150680541992e-01
7.401510328054428101e-02 -5.510966107249259949e-02 -2.161164581775665283e-01
-1.626328825950622559e-01 2.095226943492889404e-01 2.348946630954742432e-01
-1.078576892614364624e-01 5.901681259274482727e-02 -6.829500198364257812e-01
-1.419110894203186035e-01 1.126627847552299500e-01 -8.332679867744445801e-01
-1.694216728210449219e-01 1.514789909124374390e-01 6.829161643981933594e-01
-9.039471298456192017e-02 6.273027975112199783e-03 6.840579509735107422e-01
2.436351478099822998e-01 -7.179450988769531250e-02 -3.250073194503784180e-01
-1.481062322854995728e-01 -3.189281225204467773e-01 8.341628909111022949e-01
5.809872224926948547e-02 -1.962698549032211304e-01 6.950807571411132812e-01
2.681135535240173340e-01 -7.478741556406021118e-02 8.193979859352111816e-01
2.754601538181304932e-01 -8.138440549373626709e-02 -4.420777410268783569e-02
-1.809083819389343262e-01 1.773780882358551025e-01 -6.593964695930480957e-01
2.683746069669723511e-02 -2.852374315261840820e-02 -6.488636732101440430e-01
-1.206372827291488647e-01 -4.074332416057586670e-01 -8.245791196823120117e-01
-1.075003370642662048e-01 -8.957882411777973175e-03 2.492547631263732910e-01
-2.147167623043060303e-01 2.479989528656005859e-01 -2.109284996986389160e-01
-7.952877134084701538e-02 -4.913871735334396362e-02 6.139029264450073242e-01
-3.140651062130928040e-02 -4.032965749502182007e-02 -3.924352228641510010e-01
5.360930785536766052e-02 -2.628867141902446747e-02 -7.671891450881958008e-01
2.610739171504974365e-01 -3.205357491970062256e-01 8.185477256774902344e-01
-8.088219910860061646e-03 -3.132496774196624756e-02 6.378272920846939087e-02
-1.132703274488449097e-01 -1.017221212387084961e-01 8.185477256774902344e-01
-2.135943472385406494e-01 2.459826618432998657e-01 3.321816623210906982e-01
1.694823801517486572e-01 1.261474043130874634e-01 -8.059743642807006836e-01
-1.853676140308380127e-02 -3.217477723956108093e-02 5.767301917076110840e-01
1.300676763057708740e-01 -1.946608163416385651e-02 -1.472831238061189651e-02
-1.344724744558334351e-01 5.448642000555992126e-02 -6.157032251358032227e-01
2.765486836433410645e-01 -1.933722794055938721e-01 8.344979882240295410e-01
-1.856629736721515656e-02 -2.167727798223495483e-01 -8.295443654060363770e-01
-1.812415421009063721e-01 2.503261268138885498e-01 -2.719821035861968994e-01
-1.879179775714874268e-01 2.337192445993423462e-01 3.935432136058807373e-01
2.624529898166656494e-01 -2.577791363000869751e-02 -8.306444883346557617e-01
-6.615940481424331665e-02 -2.893746457993984222e-02 -8.332679867744445801e-01
2.465966343879699707e-01 -4.370066225528717041e-01 8.395213484764099121e-01
-1.362747550010681152e-01 1.503023356199264526e-01 -5.147546157240867615e-02
-1.347145885229110718e-01 -1.371676623821258545e-01 -8.447372913360595703e-01
-1.397349983453750610e-01 7.028078287839889526e-02 1.297893561422824860e-02
-8.668266981840133667e-02 -4.648179560899734497e-02 -2.980051636695861816e-01
2.830914855003356934e-01 -4.396025463938713074e-02 8.329523801803588867e-01
-1.318034380674362183e-01 3.994911909103393555e-02 -7.134056687355041504e-01
9.338087588548660278e-02 -5.482145398855209351e-02 8.392675518989562988e-01
7.719731330871582031e-02 -2.437018603086471558e-02 -4.439352080225944519e-02
2.314869910478591919e-01 -6.452623009681701660e-02 -2.857930958271026611e-01
2.343894243240356445e-01 -6.626271456480026245e-02 5.612263679504394531e-01
-1.194344758987426758e-01 -1.879102438688278198e-01 8.341628909111022949e-01
6.798914819955825806e-02 -2.008588612079620361e-02 8.333116173744201660e-01
-1.079981178045272827e-01 7.066621631383895874e-02 7.037609219551086426e-01
1.211782246828079224e-01 -2.004095166921615601e-02 -4.557085037231445312e-01
-1.829363107681274414e-01 2.533699274063110352e-01 -2.027935683727264404e-01
1.836381107568740845e-01 -1.770060695707798004e-02 -8.480319380760192871e-01
4.403972625732421875e-02 -5.364159867167472839e-02 -2.875207960605621338e-01
3.220745921134948730e-02 -3.196201100945472717e-02 3.108603656291961670e-01
6.462729722261428833e-02 -2.539247460663318634e-02 -3.323694169521331787e-01
-1.866493374109268188e-01 2.277245819568634033e-01 8.078919053077697754e-01
-1.902311295270919800e-02 -6.672827154397964478e-02 -8.502351641654968262e-01
2.631967365741729736e-01 6.540950387716293335e-02 8.467682003974914551e-01
-1.850388050079345703e-01 2.571468651294708252e-01 -1.168015524744987488e-01
-9.759896248579025269e-02 7.079792767763137817e-02 -8.549591898918151855e-01
-1.949701905250549316e-01 -4.369814395904541016e-01 -8.451585769653320312e-01
-1.716849207878112793e-01 1.709243655204772949e-01 2.349914908409118652e-01
-9.713701903820037842e-02 -1.620772927999496460e-01 -8.332679867744445801e-01
-3.408028930425643921e-02 8.832967281341552734e-02 8.032327890396118164e-01
7.738809287548065186e-02 -2.082466036081314087e-01 5.984843373298645020e-01
-1.294016987085342407e-01 3.051356412470340729e-02 6.067568063735961914e-01
-1.084649115800857544e-01 -9.247836656868457794e-03 6.239776313304901123e-02
-9.208367764949798584e-02 1.189116574823856354e-02 5.290759801864624023e-01
1.939452737569808960e-01 -5.052930861711502075e-02 1.785118579864501953e-01
-1.690033078193664551e-01 2.228029668331146240e-01 -5.908016860485076904e-02
-1.479367464780807495e-01 9.625153243541717529e-02 3.525654375553131104e-01
8.989486843347549438e-02 -5.381843447685241699e-02 -7.935347408056259155e-02
-1.083980873227119446e-01 -9.227791801095008850e-03 6.029091477394104004e-01
-1.862522661685943604e-01 2.593258917331695557e-01 4.943310618400573730e-01
2.046281546354293823e-01 -5.266695469617843628e-02 -4.031074643135070801e-01
2.785553038120269775e-01 -5.790546163916587830e-02 -2.269872426986694336e-01
2.063355296850204468e-01 -5.300881341099739075e-02 7.710465192794799805e-01
2.855319678783416748e-01 -4.370066225528717041e-01 8.054649829864501953e-01
-1.021690592169761658e-01 4.545278102159500122e-02 3.052947521209716797e-01
6.679216027259826660e-02 -2.105301767587661743e-01 1.101000159978866577e-01
-2.246646136045455933e-01 2.721800506114959717e-01 8.151329755783081055e-01
-1.294191330671310425e-01 3.056973591446876526e-02 -2.372198104858398438e-01
8.458440750837326050e-02 -1.856808811426162720e-01 -8.373073935508728027e-01
-2.174284160137176514e-01 2.528682947158813477e-01 -3.143418431282043457e-01
2.453705817461013794e-01 -3.743100538849830627e-02 3.952283263206481934e-01
-5.724352598190307617e-02 -2.500800229609012604e-02 1.984627693891525269e-01
-1.027142852544784546e-01 -2.344691455364227295e-01 -8.283666968345642090e-01
2.534919679164886475e-01 -4.228998348116874695e-02 -1.109947636723518372e-01
-1.265254169702529907e-01 2.094253152608871460e-02 6.885524988174438477e-01
5.492910370230674744e-02 -5.666159093379974365e-02 -3.692274391651153564e-01
1.326969861984252930e-01 -4.973963648080825806e-02 8.678889274597167969e-02
-9.632546454668045044e-02 2.600739523768424988e-02 -6.984499692916870117e-01
8.014689385890960693e-02 -2.052541077136993408e-01 -5.224769115447998047e-01
-2.193856239318847656e-01 2.563837170600891113e-01 7.134114503860473633e-01
-8.795230090618133545e-02 -4.601006582379341125e-02 -5.094339251518249512e-01
-1.191032752394676208e-01 -4.144021570682525635e-01 8.338026404380798340e-01
-1.280235946178436279e-01 1.294895112514495850e-01 -6.429397463798522949e-01
-1.322653889656066895e-01 -5.201780423521995544e-02 -8.514563441276550293e-01
1.306574493646621704e-01 -5.693691968917846680e-02 -8.277265429496765137e-01
1.543882042169570923e-01 -1.789304055273532867e-02 -2.456268817186355591e-01
1.782051473855972290e-01 -4.737944155931472778e-02 3.139370307326316833e-02
1.825398951768875122e-01 -1.726500317454338074e-02 6.055791974067687988e-01
1.836923509836196899e-01 -1.749559119343757629e-02 2.799021601676940918e-01
-1.344860345125198364e-01 -3.216814100742340088e-01 -8.488821983337402344e-01
-1.551177650690078735e-01 1.788297891616821289e-01 7.331493496894836426e-01
-8.707489818334579468e-02 -2.456261590123176575e-02 -7.890275716781616211e-01
-8.596505969762802124e-02 -2.157244645059108734e-02 1.658126562833786011e-01
2.811216711997985840e-01 -1.787448972463607788e-01 -8.549591898918151855e-01
-2.135652899742126465e-01 2.459303587675094604e-01 2.193162739276885986e-01
-1.837662607431411743e-01 2.548603713512420654e-01 -6.379677653312683105e-01
-1.035849228501319885e-01 4.856729507446289062e-02 -6.205154582858085632e-02
8.094703406095504761e-02 -1.939291357994079590e-01 -7.031227648258209229e-02
1.886827349662780762e-01 -4.947622120380401611e-02 5.506722927093505859e-01
-1.339804977178573608e-01 1.445149183273315430e-01 -2.941962480545043945e-01
2.382176667451858521e-01 -6.855326145887374878e-02 1.186387911438941956e-01
2.351639419794082642e-02 -5.923562124371528625e-02 2.037059217691421509e-01
2.783218920230865479e-01 -7.919154316186904907e-02 -3.530408442020416260e-01
-3.175737708806991577e-02 -4.141005128622055054e-02 -6.057901978492736816e-01
1.700520166195929050e-03 1.007334962487220764e-01 -8.189234137535095215e-01
-1.598728299140930176e-01 1.273937970399856567e-01 2.104821354150772095e-01
1.352430433034896851e-01 -1.018500328063964844e-02 8.399949073791503906e-01
6.575582176446914673e-02 -2.101060152053833008e-01 3.008815348148345947e-01
-1.374601274728775024e-01 4.829032346606254578e-02 8.107371926307678223e-01
-1.006224527955055237e-01 4.030840471386909485e-02 -2.593313157558441162e-01
-1.290056109428405762e-01 1.319687217473983765e-01 5.760580897331237793e-01
-1.729700565338134766e-01 -4.353137910366058350e-01 7.946687936782836914e-01
-1.380218118429183960e-01 6.485555320978164673e-02 -3.307763040065765381e-01
2.347787320613861084e-01 -6.649587303400039673e-02 1.081194635480642319e-02
-1.565830260515213013e-01 1.091947853565216064e-01 8.389508724212646484e-01
-2.100130170583724976e-01 2.448176145553588867e-01 -8.480319380760192871e-01
-1.479909867048263550e-01 9.642296284437179565e-02 4.565065801143646240e-01
2.218054533004760742e-01 -3.066618144512176514e-01 -8.332679867744445801e-01
2.142370790243148804e-01 -2.360763028264045715e-02 7.045163512229919434e-01
-1.554906070232391357e-01 2.090239226818084717e-01 -8.549591898918151855e-01
-1.124636158347129822e-01 8.480647206306457520e-02 -5.197284817695617676e-01
-8.883648365736007690e-02 -2.930518239736557007e-02 -4.491308331489562988e-01
2.734578773379325867e-02 -5.892416834831237793e-02 8.029974102973937988e-01
-1.804658025503158569e-01 2.489315569400787354e-01 -6.830343008041381836e-01
7.453603297472000122e-02 -1.876623332500457764e-01 -6.055674552917480469e-01
-2.085748910903930664e-01 2.369674146175384521e-01 4.295887053012847900e-01
-8.595103397965431213e-03 -3.136622160673141479e-02 5.170382261276245117e-01
9.085614234209060669e-02 -5.374028161168098450e-02 1.608987599611282349e-01
2.620830237865447998e-01 -2.678049206733703613e-01 8.098587989807128906e-01
-1.192068904638290405e-01 1.061577573418617249e-01 -6.962990760803222656e-02
-1.978329271078109741e-01 2.126623690128326416e-01 5.798824429512023926e-01
-9.880372136831283569e-02 -1.313885021954774857e-02 -8.332679867744445801e-01
-1.657987385988235474e-01 1.423417180776596069e-01 5.121416971087455750e-02
-1.783691346645355225e-01 2.406571805477142334e-01 -8.220059871673583984e-01
-1.398986577987670898e-01 1.594415456056594849e-01 -2.118214070796966553e-01
-9.900321066379547119e-02 3.491804376244544983e-02 5.002231001853942871e-01
-1.177406609058380127e-01 5.521664023399353027e-02 1.847960799932479858e-01
1.213357821106910706e-01 -5.047439411282539368e-02 7.872747182846069336e-01
-6.401459127664566040e-02 -1.938429176807403564e-01 8.400346040725708008e-01
1.077924892306327820e-01 -2.158571593463420868e-02 6.617246866226196289e-01
-1.664621084928512573e-01 2.175045907497406006e-01 1.737373322248458862e-02
2.525922954082489014e-01 3.735755756497383118e-02 -8.190125226974487305e-01
-1.560155153274536133e-01 1.176628619432449341e-01 7.547194957733154297e-01
8.730834722518920898e-02 -5.402877926826477051e-02 -3.134576380252838135e-01
2.032094001770019531e-01 -2.140103280544281006e-02 7.896997332572937012e-01
-6.148792058229446411e-02 -5.583899468183517456e-02 3.755717873573303223e-01
-1.136770844459533691e-01 8.864828944206237793e-02 -6.303799748420715332e-01
-5.591937154531478882e-02 8.042425662279129028e-02 8.402146697044372559e-01
-1.467126309871673584e-01 1.722705215215682983e-01 -4.236132800579071045e-01
-4.066309332847595215e-02 8.597248047590255737e-02 -8.552806973457336426e-01
2.332602143287658691e-01 -1.975220441818237305e-01 -8.332679867744445801e-01
-9.024558216333389282e-02 -2.454883186146616936e-03 -1.959214806556701660e-01
2.475135400891304016e-02 -2.865390293300151825e-02 7.043449282646179199e-01
1.582236960530281067e-02 -5.986142531037330627e-02 -1.975533217191696167e-01
2.541272640228271484e-01 -7.807226479053497314e-02 5.003054141998291016e-01
-1.152333691716194153e-01 -9.636959061026573181e-03 4.087361693382263184e-01
-5.416242033243179321e-02 -2.615231461822986603e-02 -2.235589474439620972e-01
-9.481565654277801514e-02 2.098281681537628174e-02 -9.944809973239898682e-02
5.790474638342857361e-02 -1.977496445178985596e-01 4.051422774791717529e-01
2.616946995258331299e-01 -4.719737544655799866e-02 -6.544641852378845215e-01
-1.923302114009857178e-01 2.011901736259460449e-01 -8.038040399551391602e-01
2.463680803775787354e-01 -1.840592734515666962e-02 8.402379751205444336e-01
1.623149216175079346e-01 -2.261478267610073090e-02 -3.344748318195343018e-01
-1.935194730758666992e-01 2.723766267299652100e-01 7.795872092247009277e-01
-1.331437677145004272e-01 5.307927355170249939e-02 3.350114524364471436e-01
-2.323623187839984894e-02 -3.427068516612052917e-02 3.197855651378631592e-01
2.592135071754455566e-01 -1.280225515365600586e-01 -8.332679867744445801e-01
2.597055137157440186e-01 -3.113306760787963867e-01 -8.529574275016784668e-01
-1.913714557886123657e-01 -3.706856369972229004e-01 -8.545156717300415039e-01
-1.940985918045043945e-01 2.048760652542114258e-01 -7.000043392181396484e-01
5.926453694701194763e-02 -2.045500427484512329e-01 -7.015470266342163086e-01
7.529586553573608398e-02 -5.500555038452148438e-02 -7.078990936279296875e-01
-4.487359151244163513e-02 -2.960220351815223694e-02 6.111322045326232910e-01
2.453735023736953735e-01 -3.743294253945350647e-02 -3.991465270519256592e-01
2.370245456695556641e-01 -3.734346106648445129e-02 6.680515408515930176e-01
-1.841304004192352295e-01 2.555140852928161621e-01 -5.707606077194213867e-01
2.498186677694320679e-01 1.018268689513206482e-01 -8.324564695358276367e-01
-1.072141900658607483e-02 -3.153919056057929993e-02 -2.458544522523880005e-01
-4.464465379714965820e-02 -2.968723326921463013e-02 4.738010764122009277e-01
1.108148023486137390e-01 -5.092501640319824219e-02 -3.893187642097473145e-01
-1.105776149779558182e-02 -3.156650066375732422e-02 6.812950596213340759e-03
1.106969490647315979e-01 -2.071885950863361359e-02 3.426650464534759521e-01
6.042151246219873428e-03 -3.017562068998813629e-02 1.177836582064628601e-01
-1.382987946271896362e-01 1.092548370361328125e-01 1.480601131916046143e-01
-1.474554389715194702e-01 1.725716888904571533e-01 -1.202839706093072891e-02
-1.694362163543701172e-01 1.975585222244262695e-01 8.193979859352111816e-01
-1.553472876548767090e-01 1.159768104553222656e-01 -7.594580948352813721e-02
-1.544747203588485718e-01 -3.776623010635375977e-01 8.185477256774902344e-01
-2.292933315038681030e-02 -5.847606807947158813e-02 2.882743477821350098e-01
-1.819388121366500854e-01 2.515783011913299561e-01 -3.349590301513671875e-01
-1.639451235532760620e-01 1.376660764217376709e-01 -3.363700509071350098e-01
-1.283315718173980713e-01 1.302681267261505127e-01 -3.516114056110382080e-01
-1.295624524354934692e-01 5.182707309722900391e-02 -8.093338608741760254e-01
2.063926756381988525e-01 -5.302024260163307190e-02 -7.851063609123229980e-01
6.979046016931533813e-02 -5.545316636562347412e-02 5.763621926307678223e-01
-2.074331045150756836e-01 2.349152863025665283e-01 3.824156895279884338e-02
-1.835067272186279297e-01 2.292314767837524414e-01 1.967137604951858521e-01
2.611746191978454590e-01 -3.512460589408874512e-01 8.341628909111022949e-01
-1.315206438302993774e-01 3.756481036543846130e-02 -2.927145361900329590e-01
3.328393399715423584e-02 -4.009490832686424255e-02 1.620937325060367584e-02
-1.956568211317062378e-01 2.762165069580078125e-01 -5.137134790420532227e-01
1.836749166250228882e-01 -4.847407713532447815e-02 -6.540216207504272461e-01
1.798505336046218872e-01 -4.770881310105323792e-02 -5.580052733421325684e-01
2.240207418799400330e-02 -2.884497493505477905e-02 -6.945975422859191895e-01
-1.323283314704895020e-01 -3.385619074106216431e-02 8.402379751205444336e-01
-4.603039845824241638e-02 -3.770865872502326965e-02 8.333116173744201660e-01
