1.214169263839721680e-01 -2.437368333339691162e-01 -8.725607767701148987e-03
1.571103632450103760e-01 5.423703789710998535e-01 4.589233919978141785e-02
1.114181280136108398e-01 4.082283973693847656e-01 1.904953569173812866e-01
2.531331181526184082e-01 2.178130447864532471e-01 -1.594350337982177734e-01
-9.183991700410842896e-02 3.843305706977844238e-01 2.132802456617355347e-01
9.434195607900619507e-02 4.043806493282318115e-01 -2.016918808221817017e-01
6.808667629957199097e-02 6.427406668663024902e-01 1.016332805156707764e-01
2.286713719367980957e-01 3.362292051315307617e-01 -9.694650769233703613e-02
7.389494683593511581e-03 -9.558506011962890625e-01 -4.672585800290107727e-02
-1.882058978080749512e-01 2.936275005340576172e-01 1.965814381837844849e-01
-1.885474175214767456e-01 2.337338030338287354e-01 2.275066524744033813e-01
2.782105207443237305e-01 2.152915149927139282e-01 1.066064238548278809e-01
-3.072796948254108429e-02 -9.440391659736633301e-01 1.673805862665176392e-01
-2.026630342006683350e-01 4.590412378311157227e-01 2.319324575364589691e-02
-1.694186925888061523e-01 5.347564816474914551e-01 -3.736699372529983521e-02
-1.218179911375045776e-01 -9.558506011962890625e-01 7.814024575054645538e-03
-1.716353595256805420e-01 3.666895925998687744e-01 -1.725443452596664429e-01
-1.035147607326507568e-01 5.484639406204223633e-01 1.288723498582839966e-01
-9.792516380548477173e-02 2.673372328281402588e-01 2.630726695060729980e-01
4.240627586841583252e-02 1.510727703571319580e-01 9.711904451251029968e-03
-1.931907236576080322e-01 3.172020912170410156e-01 -1.791693866252899170e-01
-2.040183693170547485e-01 2.576116621494293213e-01 2.032023221254348755e-01
-1.133261322975158691e-01 -9.558506011962890625e-01 1.122093498706817627e-01
-1.014088764786720276e-01 -9.440391659736633301e-01 3.435777872800827026e-02
1.063191741704940796e-01 5.738820433616638184e-01 1.078476309776306152e-01
2.511626295745372772e-02 -9.440391659736633301e-01 -5.741898342967033386e-02
-4.802789539098739624e-02 -9.440391659736633301e-01 -5.878831073641777039e-02
1.083650887012481689e-01 2.794910371303558350e-01 -2.517258226871490479e-01
-1.353038102388381958e-01 4.844501316547393799e-01 1.378132104873657227e-01
-1.052408665418624878e-02 -9.558506011962890625e-01 -1.141726877540349960e-02
2.242688238620758057e-01 3.880291879177093506e-01 3.102476149797439575e-02
-3.245100006461143494e-02 3.197195231914520264e-01 -2.572071254253387451e-01
-3.540565446019172668e-02 -9.440391659736633301e-01 1.552433520555496216e-02
1.978178024291992188e-01 3.212797343730926514e-01 1.600199788808822632e-01
-1.772457808256149292e-01 -9.440391659736633301e-01 1.252820044755935669e-01
-1.562635451555252075e-01 5.172471404075622559e-01 -9.154351055622100830e-02
-9.752281010150909424e-02 3.399378061294555664e-01 -2.320681214332580566e-01
1.426940411329269409e-01 2.273078709840774536e-01 -2.608391344547271729e-01
-4.916276084259152412e-04 4.920081794261932373e-01 -1.888416409492492676e-01
2.267512530088424683e-01 3.847579061985015869e-01 -2.381634339690208435e-02
2.307322621345520020e-01 3.078214228153228760e-01 1.213426366448402405e-01
1.875099390745162964e-01 4.351850748062133789e-01 8.820658177137374878e-02
2.250468730926513672e-01 2.393300980329513550e-01 1.801450252532958984e-01
1.308809220790863037e-01 -9.558506011962890625e-01 -9.524130821228027344e-02
-8.041015267372131348e-02 4.967139363288879395e-01 -1.690556406974792480e-01
-6.491988897323608398e-02 5.054740309715270996e-01 1.702636778354644775e-01
7.304608821868896484e-02 -9.558506011962890625e-01 -1.881627291440963745e-01
-3.904722258448600769e-02 1.423068642616271973e-01 -3.123392909765243530e-02
-2.017042189836502075e-01 2.783090174198150635e-01 -1.944662183523178101e-01
6.973798573017120361e-02 4.159772098064422607e-01 -2.066975235939025879e-01
-1.085395663976669312e-01 -9.464048743247985840e-01 -2.132534086704254150e-01
1.229655295610427856e-01 -9.440391659736633301e-01 -4.290560632944107056e-02
-1.591624915599822998e-01 4.253170490264892578e-01 -1.501493155956268311e-01
-1.249547302722930908e-02 4.280410408973693848e-01 2.134093642234802246e-01
2.028417736291885376e-01 2.944646775722503662e-01 1.716689914464950562e-01
-1.559399254620075226e-02 5.932898521423339844e-01 1.441475152969360352e-01
-1.174479350447654724e-01 2.543762028217315674e-01 -2.620728313922882080e-01
-9.788051247596740723e-03 5.057572722434997559e-01 -1.826756000518798828e-01
-1.351118087768554688e-02 4.381631314754486084e-01 -2.103495150804519653e-01
1.711251884698867798e-01 3.444819748401641846e-01 1.778741925954818726e-01
7.807165384292602539e-02 2.491039782762527466e-01 -2.778611481189727783e-01
-1.208525076508522034e-01 6.433429718017578125e-01 -4.250000789761543274e-02
-1.562985479831695557e-01 4.958067834377288818e-01 -1.060473024845123291e-01
5.115545168519020081e-02 -9.558506011962890625e-01 2.127662114799022675e-02
-1.753714829683303833e-01 3.669961392879486084e-01 1.673106104135513306e-01
-1.072033941745758057e-01 -9.440391659736633301e-01 -1.875004768371582031e-01
1.309925466775894165e-01 -9.440391659736633301e-01 1.498020887374877930e-01
-1.093750894069671631e-01 5.057731270790100098e-01 -1.478968113660812378e-01
-1.761203557252883911e-01 3.846445977687835693e-01 1.543579101562500000e-01
-1.166290715336799622e-01 3.459522724151611328e-01 -2.214653789997100830e-01
7.221057265996932983e-02 -9.558506011962890625e-01 -6.792101263999938965e-02
1.552852243185043335e-01 -4.233877658843994141e-01 -4.293982870876789093e-03
1.066782101988792419e-01 -9.440391659736633301e-01 1.178156062960624695e-01
-7.452242076396942139e-02 5.962429046630859375e-01 1.256993561983108521e-01
-4.060539603233337402e-02 4.388386905193328857e-01 -2.065009325742721558e-01
1.451539844274520874e-01 4.947796761989593506e-01 1.109156608581542969e-01
-1.065353080630302429e-01 -9.440391659736633301e-01 1.884711086750030518e-01
1.896608173847198486e-01 2.551350891590118408e-01 2.101747542619705200e-01
4.885905236005783081e-02 -9.440391659736633301e-01 -1.245029717683792114e-01
-1.899994015693664551e-01 3.362958729267120361e-01 1.690799593925476074e-01
-1.571865528821945190e-01 -9.558506011962890625e-01 -3.692523762583732605e-02
-1.592757701873779297e-01 5.628436207771301270e-01 -2.551563084125518799e-02
-1.396692823618650436e-02 4.640835225582122803e-01 1.981983333826065063e-01
2.584669888019561768e-01 3.018561005592346191e-01 -4.528672248125076294e-02
1.500513255596160889e-01 3.544691205024719238e-01 1.888443082571029663e-01
2.376663535833358765e-01 2.838261127471923828e-01 -1.317986100912094116e-01
-1.867597699165344238e-01 2.556132376194000244e-01 2.174862027168273926e-01
7.591278105974197388e-02 4.597975909709930420e-01 1.832547038793563843e-01
-1.008515805006027222e-01 3.114767074584960938e-01 2.421237528324127197e-01
2.104805856943130493e-01 4.302127063274383545e-01 -3.543619066476821899e-03
7.156897336244583130e-02 -9.558506011962890625e-01 3.803133219480514526e-02
1.157440170645713806e-01 -2.355365306138992310e-01 6.175255868583917618e-03
-1.181310191750526428e-01 4.996528327465057373e-01 1.430729180574417114e-01
-1.428368687629699707e-01 5.146422982215881348e-01 -1.108088791370391846e-01
-1.838458329439163208e-01 -9.440391659736633301e-01 9.706746786832809448e-02
1.883929520845413208e-01 -9.440391659736633301e-01 -3.590570017695426941e-02
-1.871979236602783203e-01 4.949596226215362549e-01 2.698367275297641754e-02
-2.213902771472930908e-01 3.749931752681732178e-01 -8.946260809898376465e-02
-1.589009165763854980e-01 2.292413264513015747e-01 2.525932192802429199e-01
1.366213113069534302e-01 4.010452032089233398e-01 1.748969703912734985e-01
1.103635132312774658e-01 -9.558506011962890625e-01 -1.698370128870010376e-01
1.643568426370620728e-01 -9.558506011962890625e-01 -1.532123386859893799e-01
-2.106967270374298096e-01 4.147726297378540039e-01 -7.233703881502151489e-02
1.160230934619903564e-01 5.115334391593933105e-01 1.331707537174224854e-01
2.576602250337600708e-02 4.962907433509826660e-01 -1.836010962724685669e-01
-2.251230627298355103e-01 2.685359418392181396e-01 -1.705784052610397339e-01
-7.944359444081783295e-03 -9.440391659736633301e-01 -2.124012410640716553e-01
-1.130637228488922119e-01 5.830510854721069336e-01 1.018965095281600952e-01
7.348818331956863403e-02 -9.440391659736633301e-01 2.079897075891494751e-01
1.345199998468160629e-02 -9.558506011962890625e-01 -1.410668343305587769e-01
1.506735831499099731e-01 4.464608728885650635e-01 -1.378038823604583740e-01
-7.604113779962062836e-04 -2.173988148570060730e-02 -8.177693933248519897e-03
2.726825773715972900e-01 2.664000689983367920e-01 -4.952640458941459656e-02
1.767056137323379517e-01 -9.558506011962890625e-01 -9.382432699203491211e-02
1.165029034018516541e-01 6.309334039688110352e-01 4.832376912236213684e-02
-2.059534788131713867e-01 4.022030830383300781e-01 9.606533497571945190e-02
2.366842329502105713e-01 2.755275070667266846e-01 1.404147297143936157e-01
-3.080040216445922852e-01 2.122293114662170410e-01 -5.470605567097663879e-03
-2.075287401676177979e-01 -9.440391659736633301e-01 -6.560354959219694138e-04
4.041551426053047180e-02 6.239018440246582031e-01 -1.258724629878997803e-01
3.731666132807731628e-02 4.301594495773315430e-01 -2.096347659826278687e-01
1.958810240030288696e-01 -9.440391659736633301e-01 -1.632686108350753784e-01
2.433476001024246216e-01 2.929827272891998291e-01 1.069063097238540649e-01
1.606548875570297241e-01 2.835112214088439941e-01 2.176553010940551758e-01
-2.728920280933380127e-01 2.974435687065124512e-01 -2.478455193340778351e-03
1.460461318492889404e-01 -2.774818241596221924e-01 -8.190316730178892612e-04
2.600268274545669556e-02 -6.925405859947204590e-01 5.934137385338544846e-03
7.868192344903945923e-02 -5.893279910087585449e-01 6.412293761968612671e-03
8.231640607118606567e-02 3.381001949310302734e-01 2.350180298089981079e-01
-1.795915961265563965e-01 -9.558506011962890625e-01 1.955601423978805542e-01
8.314110338687896729e-02 -9.440391659736633301e-01 1.919814646244049072e-01
-2.567009255290031433e-02 1.297790110111236572e-01 4.086186736822128296e-02
-2.057402282953262329e-01 3.268651962280273438e-01 -1.562562137842178345e-01
2.676394283771514893e-01 2.827090322971343994e-01 -3.621483594179153442e-02
-2.152850329875946045e-01 4.211169481277465820e-01 4.734604805707931519e-02
2.628220319747924805e-01 2.200372070074081421e-01 1.386337280273437500e-01
-1.226589176803827286e-02 -9.440391659736633301e-01 7.660195976495742798e-02
4.828534647822380066e-02 -9.440391659736633301e-01 -2.021367251873016357e-01
-1.723126173019409180e-01 4.357531964778900146e-01 1.246372535824775696e-01
-1.268169730901718140e-01 6.145169734954833984e-01 5.792971327900886536e-02
-1.449531596153974533e-02 8.946893364191055298e-02 2.583443373441696167e-02
3.755990415811538696e-02 4.079818129539489746e-01 -2.188438475131988525e-01
8.252966403961181641e-02 -9.558506011962890625e-01 1.417359113693237305e-01
7.631988730281591415e-03 3.749981820583343506e-01 -2.365264743566513062e-01
-2.041583061218261719e-01 -9.440391659736633301e-01 9.306894987821578979e-02
-3.117963671684265137e-02 3.688862919807434082e-01 2.355978190898895264e-01
-4.736064374446868896e-02 3.308362364768981934e-01 2.493219226598739624e-01
-7.548897713422775269e-02 -9.440391659736633301e-01 -1.825781315565109253e-01
-2.265583574771881104e-01 4.086149334907531738e-01 -2.570688026025891304e-03
1.117255240678787231e-01 3.255082070827484131e-01 2.284663170576095581e-01
-1.014936715364456177e-02 8.946893364191055298e-02 -2.300387946888804436e-03
-1.722284704446792603e-01 4.924438297748565674e-01 8.007168024778366089e-02
-1.562727093696594238e-01 2.465915828943252563e-01 2.455758005380630493e-01
1.416169404983520508e-01 -9.558506011962890625e-01 -1.133571043610572815e-01
-1.107712313532829285e-01 6.381690502166748047e-01 -6.877427548170089722e-02
-1.455700099468231201e-01 -9.440391659736633301e-01 -1.700552701950073242e-01
1.981201916933059692e-01 -9.558506011962890625e-01 -1.982798129320144653e-01
1.413687020540237427e-01 -9.440391659736633301e-01 6.964478641748428345e-02
1.916134208440780640e-01 4.690783321857452393e-01 -2.384483255445957184e-02
9.376467019319534302e-02 3.641297221183776855e-01 -2.199284434318542480e-01
-1.760478913784027100e-01 3.079896867275238037e-01 1.984324157238006592e-01
-2.963858246803283691e-01 2.363661676645278931e-01 1.603822782635688782e-02
1.082155667245388031e-02 2.188093662261962891e-01 2.998948395252227783e-01
8.756529539823532104e-02 -5.508697032928466797e-01 -6.761910393834114075e-03
-1.368699222803115845e-01 6.198441386222839355e-01 1.401797682046890259e-02
1.965191066265106201e-01 3.962461352348327637e-01 -1.097817569971084595e-01
-2.885845601558685303e-01 2.447547465562820435e-01 4.874611273407936096e-02
-1.879393309354782104e-01 4.719489216804504395e-01 6.426620483398437500e-02
-1.073300167918205261e-01 4.033768177032470703e-01 -1.996393203735351562e-01
2.607977986335754395e-01 2.760123610496520996e-01 8.309847116470336914e-02
-9.461805969476699829e-02 3.397879004478454590e-01 2.320466488599777222e-01
-1.337352246046066284e-01 4.654513299465179443e-01 1.489090919494628906e-01
-5.626567825675010681e-02 -9.558506011962890625e-01 3.239042311906814575e-02
2.654860615730285645e-01 2.463191896677017212e-01 1.038316339254379272e-01
-1.731422990560531616e-01 -9.558506011962890625e-01 -9.529295563697814941e-02
-2.960771881043910980e-02 3.084728121757507324e-01 2.609767615795135498e-01
2.980964779853820801e-01 2.205895483493804932e-01 -1.472522970288991928e-03
-3.248040378093719482e-02 -9.558506011962890625e-01 1.915732920169830322e-01
1.099545061588287354e-01 -9.440391659736633301e-01 6.351039558649063110e-02
-1.490762233734130859e-01 3.931922614574432373e-01 1.747628450393676758e-01
-4.849696531891822815e-03 -9.558506011962890625e-01 8.802081644535064697e-02
-1.524158120155334473e-01 2.763855457305908203e-01 2.330212742090225220e-01
1.941166520118713379e-01 -9.440391659736633301e-01 -1.286156177520751953e-01
-1.459090709686279297e-01 -9.440391659736633301e-01 -1.944612264633178711e-01
-1.991684883832931519e-01 -9.558506011962890625e-01 1.258093118667602539e-01
1.548537015914916992e-01 -9.558506011962890625e-01 -3.608995117247104645e-03
1.542456150054931641e-01 2.491589486598968506e-01 2.404610216617584229e-01
-9.518200904130935669e-02 -9.558506011962890625e-01 -1.600498110055923462e-01
-7.087151706218719482e-02 6.246465444564819336e-01 1.142519265413284302e-01
-1.473227143287658691e-01 -9.440391659736633301e-01 1.760407090187072754e-01
2.059339433908462524e-01 -9.440391659736633301e-01 -1.435709148645401001e-01
-1.862949281930923462e-01 3.950199186801910400e-01 -1.353481262922286987e-01
-1.872895658016204834e-01 4.719197750091552734e-01 -6.715928763151168823e-02
1.513812504708766937e-02 5.674735307693481445e-01 1.540496796369552612e-01
1.350452303886413574e-01 5.904325246810913086e-01 -4.857150837779045105e-02
-2.327464707195758820e-02 -9.558506011962890625e-01 1.211868673563003540e-01
4.144829511642456055e-02 1.967267096042633057e-01 -1.459167711436748505e-02
1.505603045225143433e-01 5.265687108039855957e-01 -8.005517721176147461e-02
1.070464327931404114e-01 2.258450686931610107e-01 2.749674022197723389e-01
-1.210307851433753967e-01 -9.558506011962890625e-01 1.922538727521896362e-01
-2.170752137899398804e-01 3.930456638336181641e-01 7.910045981407165527e-02
-1.911735348403453827e-02 2.075835168361663818e-01 3.594685345888137817e-02
9.435737505555152893e-03 1.367289125919342041e-01 -4.599896073341369629e-02
1.686111241579055786e-01 5.145632028579711914e-01 4.814325273036956787e-02
3.276168182492256165e-02 -6.673737615346908569e-02 3.229580353945493698e-03
6.677474826574325562e-02 3.407225608825683594e-01 -2.415737509727478027e-01
-2.768768183887004852e-02 5.256382226943969727e-01 1.707435101270675659e-01
-8.582334849052131176e-04 3.351079523563385010e-01 2.529738843441009521e-01
5.642258375883102417e-02 2.950961291790008545e-01 2.621046602725982666e-01
-4.793917760252952576e-02 -9.558506011962890625e-01 -1.041371822357177734e-01
2.997188596054911613e-03 1.130871102213859558e-02 5.192578304558992386e-03
8.889980614185333252e-02 2.305141687393188477e-01 2.803970575332641602e-01
1.031761839985847473e-01 5.893046259880065918e-01 1.014791652560234070e-01
9.142720699310302734e-02 4.598867297172546387e-01 -1.780797988176345825e-01
-2.266408205032348633e-01 3.626369237899780273e-01 8.883301913738250732e-02
1.610855609178543091e-01 5.409342050552368164e-01 -2.831034548580646515e-02
1.281785815954208374e-01 4.781658053398132324e-01 -1.425096392631530762e-01
5.494088307023048401e-02 4.979368150234222412e-01 -1.761788427829742432e-01
-1.307521760463714600e-01 4.576742351055145264e-01 -1.565386056900024414e-01
-1.749066710472106934e-01 -9.558506011962890625e-01 -5.657179281115531921e-02
-3.544958541169762611e-03 -9.558506011962890625e-01 -1.835527718067169189e-01
-4.777490347623825073e-02 2.908127307891845703e-01 -2.672342658042907715e-01
-3.374143689870834351e-02 5.627378225326538086e-01 1.544886976480484009e-01
-1.756696999073028564e-01 5.056731104850769043e-01 -5.877322703599929810e-02
-1.010989919304847717e-01 4.198457300662994385e-01 1.935650408267974854e-01
4.922025278210639954e-02 -6.256945133209228516e-01 -9.193092584609985352e-03
9.790647029876708984e-02 4.338938891887664795e-01 -1.870181560516357422e-01
-2.037184834480285645e-01 -9.440391659736633301e-01 1.907477527856826782e-01
-4.866124689579010010e-02 -9.558506011962890625e-01 -1.397206634283065796e-01
1.286080107092857361e-02 2.075835168361663818e-01 2.505797147750854492e-02
1.994447112083435059e-01 -9.558506011962890625e-01 -6.040761992335319519e-02
5.293512716889381409e-02 4.333773851394653320e-01 2.045859694480895996e-01
1.329793184995651245e-01 4.164703488349914551e-01 -1.709507703781127930e-01
1.485318839550018311e-01 5.522017478942871094e-01 -5.728078261017799377e-02
-8.676129393279552460e-03 2.075835168361663818e-01 -1.687591522932052612e-02
2.035564929246902466e-01 2.694139480590820312e-01 1.877380460500717163e-01
7.892808876931667328e-03 8.946893364191055298e-02 -1.843791827559471130e-02
-1.317918002605438232e-01 4.163620471954345703e-01 -1.772526055574417114e-01
-7.230599224567413330e-02 -9.440391659736633301e-01 3.106008097529411316e-02
-6.890740990638732910e-02 -9.440391659736633301e-01 7.511534541845321655e-02
1.520768855698406696e-03 -9.440391659736633301e-01 -6.383451819419860840e-02
2.097854577004909515e-02 -9.558506011962890625e-01 -2.045674920082092285e-01
1.589963585138320923e-01 3.205792009830474854e-01 -2.009180039167404175e-01
-5.482604354619979858e-02 -9.440391659736633301e-01 1.012775748968124390e-01
1.132807806134223938e-01 -1.972901970148086548e-01 8.431893656961619854e-04
2.870780527591705322e-01 2.388460934162139893e-01 -2.738701924681663513e-02
2.633668482303619385e-01 2.310706675052642822e-01 -1.267005056142807007e-01
-1.073008626699447632e-01 2.277418822050094604e-01 2.768933773040771484e-01
-3.295831009745597839e-02 2.804357111454010010e-01 -2.735086083412170410e-01
4.270891100168228149e-02 3.446377813816070557e-01 2.432683110237121582e-01
-1.397134270519018173e-02 1.710786968469619751e-01 -4.651002213358879089e-02
1.370927840471267700e-01 4.637336730957031250e-01 1.418933570384979248e-01
-2.005080133676528931e-01 -9.440391659736633301e-01 -2.289160341024398804e-02
-3.973005339503288269e-02 1.961502432823181152e-01 -3.034417703747749329e-02
1.949705183506011963e-01 3.707014322280883789e-01 1.301926970481872559e-01
1.778984963893890381e-01 3.303705453872680664e-01 -1.811028420925140381e-01
-5.569205805659294128e-02 4.815579056739807129e-01 -1.860709935426712036e-01
2.320901006460189819e-01 2.135554701089859009e-01 1.884569525718688965e-01
-1.113451868295669556e-01 5.147281289100646973e-01 1.404305696487426758e-01
2.088528722524642944e-01 -9.440391659736633301e-01 -1.009833440184593201e-01
1.474406123161315918e-01 -3.978347480297088623e-01 -8.813933469355106354e-03
2.050950974225997925e-01 2.601182162761688232e-01 -1.933324784040451050e-01
2.598098218441009521e-01 2.496279627084732056e-01 -1.152547374367713928e-01
-6.485757976770401001e-02 3.416555225849151611e-01 -2.438012808561325073e-01
-8.797301352024078369e-02 5.876119732856750488e-01 1.204138174653053284e-01
-1.148039102554321289e-01 4.428005814552307129e-01 -1.765211969614028931e-01
5.407328531146049500e-02 2.833329737186431885e-01 -2.686070799827575684e-01
5.958874523639678955e-02 -9.440391659736633301e-01 1.693173646926879883e-01
-2.004213631153106689e-01 -9.558506011962890625e-01 -1.769127398729324341e-01
-2.455063313245773315e-01 2.947462797164916992e-01 -1.178662627935409546e-01
1.470153685659170151e-02 -5.021767318248748779e-02 8.118411526083946228e-03
-2.156869508326053619e-02 -9.558506011962890625e-01 4.366099834442138672e-02
-2.169069498777389526e-01 3.704782128334045410e-01 -1.051601469516754150e-01
-1.701717376708984375e-01 4.858979582786560059e-01 -9.339448809623718262e-02
9.131765924394130707e-03 -9.558506011962890625e-01 1.518938243389129639e-01
-5.974238738417625427e-02 -9.558506011962890625e-01 -1.190583258867263794e-01
4.218868911266326904e-02 5.570774078369140625e-01 -1.550175100564956665e-01
-1.346690654754638672e-01 -9.558506011962890625e-01 1.460709869861602783e-01
2.457908689975738525e-01 2.962856888771057129e-01 -9.873501211404800415e-02
1.319196969270706177e-01 -4.763323664665222168e-01 8.169976063072681427e-03
1.864944845438003540e-01 4.322994351387023926e-01 -9.506469964981079102e-02
1.722939163446426392e-01 -9.440391659736633301e-01 1.514506489038467407e-01
7.892561843618750572e-04 4.493989646434783936e-01 2.051365971565246582e-01
-1.969951391220092773e-01 4.469023942947387695e-01 -7.073288410902023315e-02
-1.167831867933273315e-01 3.610574901103973389e-01 -2.146470695734024048e-01
6.098755821585655212e-02 2.696480453014373779e-01 2.721076309680938721e-01
-1.124002225697040558e-02 -9.558506011962890625e-01 -2.796014212071895599e-02
8.888231217861175537e-02 -9.558506011962890625e-01 -1.681484729051589966e-01
7.206121087074279785e-02 5.336719155311584473e-01 -1.531098783016204834e-01
-8.682927489280700684e-02 -9.548684954643249512e-01 -2.132534086704254150e-01
1.470499187707901001e-01 -9.440391659736633301e-01 1.011559516191482544e-01
7.993396371603012085e-02 -9.440391659736633301e-01 1.022155582904815674e-01
9.137514047324657440e-03 3.804186582565307617e-01 2.327788770198822021e-01
1.924381107091903687e-01 4.529085159301757812e-01 -5.846750736236572266e-02
1.224507093429565430e-01 4.467341303825378418e-01 -1.632711142301559448e-01
-5.522656068205833435e-02 2.303575575351715088e-01 -2.914427816867828369e-01
-2.064874619245529175e-01 -9.440391659736633301e-01 -4.311494529247283936e-02
-2.905954718589782715e-01 2.552283704280853271e-01 3.197332553099840879e-04
-1.775148361921310425e-01 2.814186811447143555e-01 2.111427336931228638e-01
-2.679900825023651123e-02 -9.440391659736633301e-01 -5.678646638989448547e-02
1.557350456714630127e-01 5.351430177688598633e-01 -5.830515176057815552e-02
1.324428319931030273e-01 -9.440391659736633301e-01 -7.673907279968261719e-02
1.803734153509140015e-01 4.891417324542999268e-01 -4.572314769029617310e-02
1.000698357820510864e-01 -9.558506011962890625e-01 -1.923969984054565430e-01
1.427206993103027344e-01 5.856643319129943848e-01 2.495092712342739105e-02
8.521117269992828369e-02 -9.558506011962890625e-01 2.056022733449935913e-01
1.163979619741439819e-01 -9.440391659736633301e-01 1.762897334992885590e-02
-1.852644681930541992e-01 4.443949460983276367e-01 -1.017588898539543152e-01
9.696015715599060059e-02 3.339833915233612061e-01 -2.320839464664459229e-01
-5.861680582165718079e-02 5.951074957847595215e-01 -1.340869218111038208e-01
-2.644468247890472412e-01 3.146447241306304932e-01 1.089604943990707397e-02
7.304434478282928467e-02 4.047871530055999756e-01 2.090401500463485718e-01
1.967740207910537720e-01 -9.440391659736633301e-01 1.273029297590255737e-01
1.376533955335617065e-01 3.855034410953521729e-01 1.821976006031036377e-01
1.419368237257003784e-01 -4.139712452888488770e-01 -6.308003794401884079e-03
-1.630068868398666382e-01 -9.440391659736633301e-01 4.977506771683692932e-02
-2.384606152772903442e-01 3.722450137138366699e-01 -2.727006375789642334e-02
-2.438261210918426514e-01 3.511261940002441406e-01 5.207030102610588074e-02
3.864591568708419800e-02 6.373176574707031250e-01 1.193150505423545837e-01
1.422642022371292114e-01 -9.558506011962890625e-01 -2.020600885152816772e-01
-5.813698470592498779e-02 -9.440391659736633301e-01 1.331324428319931030e-01
1.613992080092430115e-02 -7.053725123405456543e-01 -9.371193125844001770e-03
2.347266227006912231e-01 3.692502975463867188e-01 1.102966628968715668e-02
-1.323340982198715210e-01 4.422965943813323975e-01 -1.633327603340148926e-01
7.248622179031372070e-02 3.086410760879516602e-01 2.522625029087066650e-01
-1.124664545059204102e-01 6.300520300865173340e-01 7.078128308057785034e-02
2.114868909120559692e-01 3.272359073162078857e-01 1.381630748510360718e-01
-1.809710711240768433e-01 4.891817271709442139e-01 -6.377704441547393799e-02
1.650382727384567261e-01 4.982016980648040771e-01 -7.572403550148010254e-02
-1.846338957548141479e-01 4.068822264671325684e-01 1.281717717647552490e-01
6.200276315212249756e-02 3.237271904945373535e-01 2.494410425424575806e-01
-2.406639754772186279e-01 3.539509773254394531e-01 -6.564568728208541870e-02
-2.503395378589630127e-01 3.134035170078277588e-01 -8.605720847845077515e-02
-1.140158772468566895e-01 -9.440391659736633301e-01 -9.784700721502304077e-02
-1.383626908063888550e-01 5.802771449089050293e-01 6.701568514108657837e-02
-2.654772698879241943e-01 3.017978072166442871e-01 -4.501790553331375122e-02
-1.899985522031784058e-01 -9.440391659736633301e-01 3.282784298062324524e-02
2.118446864187717438e-02 3.117057979106903076e-01 2.598230242729187012e-01
-2.260077297687530518e-01 4.048821330070495605e-01 -1.856761984527111053e-02
2.310592494904994965e-02 4.774352312088012695e-01 1.905161887407302856e-01
4.828818142414093018e-02 3.900851011276245117e-01 -2.248882800340652466e-01
1.145061403512954712e-01 -9.440391659736633301e-01 -6.499725580215454102e-02
5.748610943555831909e-02 5.747925043106079102e-01 1.394684314727783203e-01
1.639536768198013306e-01 -9.440391659736633301e-01 1.022255495190620422e-01
-7.535210810601711273e-03 2.759598791599273682e-01 -2.787208259105682373e-01
-1.568741649389266968e-01 -9.440391659736633301e-01 -1.458159238100051880e-01
8.360426872968673706e-02 2.713007628917694092e-01 2.643530070781707764e-01
-7.147986907511949539e-03 -9.558506011962890625e-01 1.537248045206069946e-01
5.378997698426246643e-02 4.792862236499786377e-01 1.837045401334762573e-01
-1.715820580720901489e-01 5.362117886543273926e-01 -1.632511802017688751e-02
1.757459789514541626e-01 4.583573043346405029e-01 9.159199148416519165e-02
1.764357239007949829e-01 2.769186496734619141e-01 -2.102711796760559082e-01
4.261636361479759216e-02 1.061335876584053040e-01 8.116411976516246796e-03
-1.672944724559783936e-01 -9.440391659736633301e-01 2.030656933784484863e-01
1.197283789515495300e-01 6.276112794876098633e-01 -4.541442543268203735e-02
-1.984649570658802986e-03 4.080451130867004395e-01 -2.240227609872817993e-01
1.272476837038993835e-02 -9.558506011962890625e-01 1.136713176965713501e-01
-4.090420156717300415e-02 -9.440391659736633301e-01 7.213594764471054077e-02
9.519664198160171509e-02 6.289774775505065918e-01 8.495528995990753174e-02
1.278795301914215088e-01 2.891866266727447510e-01 2.380152642726898193e-01
1.014185026288032532e-01 5.665405988693237305e-01 -1.170257404446601868e-01
1.059676632285118103e-01 5.295850634574890137e-01 1.314872205257415771e-01
1.039442345499992371e-01 -9.440391659736633301e-01 -2.406433597207069397e-02
-1.692720651626586914e-01 -9.440391659736633301e-01 -1.214666068553924561e-01
-2.233703881502151489e-01 3.049591183662414551e-01 1.468531936407089233e-01
2.158069461584091187e-01 2.706409990787506104e-01 1.709384322166442871e-01
1.047481074929237366e-01 4.386812746524810791e-01 1.797568351030349731e-01
1.697356849908828735e-01 -9.443406462669372559e-01 -2.132534086704254150e-01
-2.734951376914978027e-01 2.852447926998138428e-01 -3.650780767202377319e-02
4.299355670809745789e-02 2.143243402242660522e-01 2.975282371044158936e-01
-1.274021528661251068e-02 1.326548960059881210e-02 -9.145254152826964855e-04
1.399259120225906372e-01 2.754758596420288086e-01 -2.390372008085250854e-01
7.520879060029983521e-02 -9.440391659736633301e-01 4.835492745041847229e-02
-2.668101191520690918e-01 2.244931012392044067e-01 -1.422697305679321289e-01
2.549241185188293457e-01 3.049841523170471191e-01 6.100424006581306458e-02
1.814713478088378906e-01 3.063419163227081299e-01 1.897947788238525391e-01
1.681879311800003052e-01 3.718385100364685059e-01 1.643258780241012573e-01
1.590488106012344360e-01 4.815828800201416016e-01 1.017640605568885803e-01
-2.419301569461822510e-01 3.633166849613189697e-01 2.788783982396125793e-02
-3.886770829558372498e-02 3.618697226047515869e-01 -2.387997955083847046e-01
-2.690926194190979004e-01 2.855837941169738770e-01 6.758514046669006348e-02
6.691528111696243286e-02 -9.440391659736633301e-01 -1.031383797526359558e-01
-1.693362146615982056e-01 2.848165929317474365e-01 -2.169403880834579468e-01
-6.332106888294219971e-02 4.065673351287841797e-01 2.151512503623962402e-01
2.074459046125411987e-01 3.626935780048370361e-01 1.183295845985412598e-01
2.938705384731292725e-01 2.132589071989059448e-01 -5.677213519811630249e-02
-3.007058799266815186e-01 2.121484875679016113e-01 -6.116276234388351440e-02
2.810594439506530762e-01 2.586237788200378418e-01 -1.050494052469730377e-02
-1.544459015130996704e-01 4.085065722465515137e-01 -1.639600247144699097e-01
-7.746841013431549072e-02 2.168467640876770020e-01 -2.941442728042602539e-01
2.752224504947662354e-01 2.335572391748428345e-01 -9.539458155632019043e-02
-9.344515204429626465e-02 3.046176135540008545e-01 -2.495499849319458008e-01
-2.337386086583137512e-02 1.031663492321968079e-01 -4.310503229498863220e-02
9.141345508396625519e-03 -5.080828443169593811e-02 -7.094278465956449509e-03
2.722927033901214600e-01 2.458660155534744263e-01 8.788919448852539062e-02
-6.058474071323871613e-03 -9.558506011962890625e-01 -5.638119950890541077e-02
4.561217129230499268e-02 -9.440391659736633301e-01 1.617893278598785400e-01
9.909186512231826782e-02 -9.440391659736633301e-01 8.288431912660598755e-03
-1.322337053716182709e-02 2.465832382440567017e-01 -2.902115881443023682e-01
1.667934507131576538e-01 3.670603036880493164e-01 -1.706775426864624023e-01
-1.178719401359558105e-01 3.912405073642730713e-01 1.994078904390335083e-01
-2.089907079935073853e-01 4.361680448055267334e-01 4.752223566174507141e-02
1.050479784607887268e-01 5.073149800300598145e-01 1.437893211841583252e-01
1.088707447052001953e-01 -9.440391659736633301e-01 -1.992194652557373047e-01
9.196116775274276733e-02 5.792750120162963867e-01 1.163611486554145813e-01
-1.819057315587997437e-01 4.125576019287109375e-01 -1.291679143905639648e-01
-1.300449371337890625e-01 6.127584576606750488e-01 -5.332399904727935791e-02
2.065520584583282471e-01 2.207461446523666382e-01 -2.164114117622375488e-01
8.970367163419723511e-02 6.312149167060852051e-01 -9.188754856586456299e-02
-4.431268945336341858e-02 3.971799910068511963e-01 2.220795005559921265e-01
-1.482881754636764526e-01 -9.440391659736633301e-01 -3.131548315286636353e-02
1.137555986642837524e-01 -5.328847169876098633e-01 -4.626901354640722275e-03
-1.541776657104492188e-01 3.706081509590148926e-01 -1.839001476764678955e-01
2.686965465545654297e-01 2.732158899307250977e-01 5.693632736802101135e-02
-2.719882130622863770e-01 2.411927580833435059e-01 -1.117435321211814880e-01
-7.366536301560699940e-04 -9.297411441802978516e-01 7.383476011455059052e-03
-1.308804601430892944e-01 -9.558506011962890625e-01 -1.987471431493759155e-01
-2.457179278135299683e-01 2.976318597793579102e-01 1.129490733146667480e-01
-6.205894798040390015e-02 2.318853586912155151e-01 2.886165380477905273e-01
-2.588359825313091278e-02 -9.558506011962890625e-01 6.286855041980743408e-02
1.364705115556716919e-01 -2.492419630289077759e-01 -2.437620656564831734e-03
1.478125806897878647e-02 8.946893364191055298e-02 2.931697666645050049e-02
-9.853910654783248901e-02 4.326951205730438232e-01 -1.901719868183135986e-01
1.137905791401863098e-01 -9.558506011962890625e-01 3.655188158154487610e-02
2.209450602531433105e-01 2.137187272310256958e-01 -2.041626423597335815e-01
-3.078994713723659515e-02 2.420874387025833130e-01 2.884815931320190430e-01
3.599523380398750305e-02 4.975344836711883545e-01 1.804449111223220825e-01
5.850181728601455688e-02 5.617823004722595215e-01 -1.461566239595413208e-01
1.116980165243148804e-01 3.237629830837249756e-01 -2.305495142936706543e-01
2.674611806869506836e-01 2.239274531602859497e-01 1.232344284653663635e-01
-1.714762449264526367e-01 4.519388675689697266e-01 -1.160352826118469238e-01
-9.480881690979003906e-02 4.506692886352539062e-01 1.823883652687072754e-01
3.625322133302688599e-02 -6.415486335754394531e-01 -6.958187557756900787e-03
-6.252602208405733109e-03 5.032881498336791992e-01 1.828781813383102417e-01
1.249864473938941956e-01 -9.440391659736633301e-01 8.581247180700302124e-02
-2.120437324047088623e-01 -9.558506011962890625e-01 1.382513791322708130e-01
-1.929291486740112305e-01 3.690994977951049805e-01 -1.442914754152297974e-01
-2.329834848642349243e-01 3.747974336147308350e-01 -6.079972907900810242e-02
2.140901088714599609e-01 4.059267044067382812e-01 5.169943720102310181e-02
1.299812495708465576e-01 5.188249349594116211e-01 1.143727153539657593e-01
1.559799611568450928e-01 5.111602544784545898e-01 -8.360428363084793091e-02
-1.990193873643875122e-01 2.770652770996093750e-01 1.969088017940521240e-01
-4.806029796600341797e-02 -9.440391659736633301e-01 1.948504000902175903e-01
-1.881775707006454468e-01 -9.558506011962890625e-01 -1.823241077363491058e-02
6.163940578699111938e-02 3.615798354148864746e-01 2.330846041440963745e-01
3.337870165705680847e-02 -9.440391659736633301e-01 6.054449453949928284e-02
-6.838069111108779907e-02 -9.558506011962890625e-01 -9.589190036058425903e-02
-2.249606251716613770e-01 2.274453192949295044e-01 1.973819732666015625e-01
1.132299602031707764e-01 -9.440391659736633301e-01 1.583505868911743164e-01
4.525497183203697205e-02 4.123143553733825684e-01 2.147347331047058105e-01
-5.373986065387725830e-02 5.385884046554565430e-01 1.600882858037948608e-01
-1.645354926586151123e-01 5.509813427925109863e-01 2.182167023420333862e-02
1.563764810562133789e-01 -9.440391659736633301e-01 -4.210073873400688171e-02
3.937839716672897339e-02 1.217378154397010803e-01 -1.958932541310787201e-02
1.579733937978744507e-01 -3.470610678195953369e-01 -5.365352611988782883e-03
3.084705770015716553e-02 3.675109446048736572e-01 -2.365906238555908203e-01
5.683326348662376404e-02 6.080843210220336914e-01 1.248530074954032898e-01
-5.874267965555191040e-02 -9.440391659736633301e-01 -1.407544463872909546e-01
5.458975955843925476e-02 -6.090232133865356445e-01 -7.219166029244661331e-03
-2.424208223819732666e-01 2.791253626346588135e-01 1.395567208528518677e-01
9.184371680021286011e-02 5.117167234420776367e-01 -1.529207825660705566e-01
-1.177211701869964600e-01 -9.440391659736633301e-01 1.663451343774795532e-01
-2.208421528339385986e-01 2.217899411916732788e-01 -2.078795880079269409e-01
2.439232170581817627e-01 3.345364928245544434e-01 5.103734880685806274e-02
1.392411589622497559e-01 -2.652522027492523193e-01 5.844695027917623520e-03
-1.256219856441020966e-02 -8.016726374626159668e-01 6.534915883094072342e-05
7.611703872680664062e-02 -9.440391659736633301e-01 -1.412859261035919189e-01
-3.729653730988502502e-02 1.351719945669174194e-01 3.222315013408660889e-02
-2.265566885471343994e-01 3.425235450267791748e-01 -1.120400950312614441e-01
-1.267303228378295898e-01 5.289536714553833008e-01 -1.220888718962669373e-01
1.608406603336334229e-01 4.314580857753753662e-01 -1.347341835498809814e-01
-7.322289794683456421e-02 3.677100539207458496e-01 2.284246534109115601e-01
4.527954850345849991e-03 7.933101058006286621e-02 -2.546197036281228065e-03
2.422017790377140045e-02 1.931680142879486084e-01 -3.843675926327705383e-02
-2.060701102018356323e-01 -9.558506011962890625e-01 -9.244650602340698242e-02
1.974829286336898804e-01 4.498646259307861328e-01 3.878163918852806091e-02
-2.616695165634155273e-01 2.773318588733673096e-01 -9.764291346073150635e-02
-1.243712082505226135e-01 -9.558506011962890625e-01 -1.368950605392456055e-01
9.139804542064666748e-02 -9.440391659736633301e-01 1.158430054783821106e-01
1.283043771982192993e-01 4.804524481296539307e-01 1.399307548999786377e-01
-1.419796645641326904e-01 2.287032008171081543e-01 2.620988488197326660e-01
1.778068691492080688e-01 -9.440391659736633301e-01 -1.773958802223205566e-01
7.383871823549270630e-02 -1.640195995569229126e-01 -5.285529368848074228e-06
-1.628078073263168335e-01 -9.440391659736633301e-01 -7.074712961912155151e-02
-1.425061523914337158e-01 -9.558506011962890625e-01 -3.550693218130618334e-04
1.064791306853294373e-01 -5.160592794418334961e-01 -6.749940104782581329e-03
-1.088589779101312160e-03 -7.742019891738891602e-01 -9.467408061027526855e-03
-2.655489146709442139e-01 2.933459281921386719e-01 -7.098962366580963135e-02
2.091310918331146240e-01 -9.553457498550415039e-01 9.351128339767456055e-02
-1.034981012344360352e-01 -9.558506011962890625e-01 -4.142249003052711487e-02
-1.516211032867431641e-01 5.782428979873657227e-01 -3.492306545376777649e-02
-1.353471279144287109e-01 -9.558506011962890625e-01 2.254106849431991577e-02
-1.963008008897304535e-02 -9.558506011962890625e-01 8.395399153232574463e-02
3.526092320680618286e-02 2.942706048488616943e-01 2.652351856231689453e-01
5.840301513671875000e-02 2.230461388826370239e-01 -2.931563258171081543e-01
-4.668381065130233765e-02 1.095714792609214783e-01 1.744429022073745728e-02
1.167178228497505188e-01 -4.932918846607208252e-01 -5.879337433725595474e-03
1.239451617002487183e-01 6.332634091377258301e-01 1.692115142941474915e-02
1.578276157379150391e-01 5.095874667167663574e-01 7.954903692007064819e-02
1.322012692689895630e-01 -4.958651065826416016e-01 -3.907351288944482803e-03
-8.561547845602035522e-02 -9.440391659736633301e-01 -1.584878861904144287e-01
1.343142939731478691e-03 -9.249054193496704102e-01 -7.233302108943462372e-03
9.550152719020843506e-02 -9.440391659736633301e-01 1.727119386196136475e-01
-2.160830646753311157e-01 -9.551100134849548340e-01 1.980483829975128174e-01
-2.518081963062286377e-01 3.347839117050170898e-01 -4.444911703467369080e-02
-3.371686488389968872e-02 5.172230005264282227e-01 -1.747477054595947266e-01
-2.337381988763809204e-01 3.280839025974273682e-01 -1.102899089455604553e-01
1.294289678335189819e-01 -9.440391659736633301e-01 1.116203963756561279e-01
7.465874403715133667e-02 2.096677571535110474e-01 -2.965908944606781006e-01
-4.540094640105962753e-03 -7.482541203498840332e-01 -4.330227617174386978e-03
2.525283694267272949e-01 3.166172802448272705e-01 -4.367798939347267151e-02
1.779309958219528198e-01 4.080251157283782959e-01 1.270713508129119873e-01
-1.318209320306777954e-01 6.311783194541931152e-01 -1.778632774949073792e-02
1.450098603963851929e-01 -9.558506011962890625e-01 2.092167735099792480e-01
9.557732939720153809e-02 -9.440391659736633301e-01 -8.245462924242019653e-02
-1.829694956541061401e-01 4.590636789798736572e-01 9.017334878444671631e-02
1.813089102506637573e-01 4.811113774776458740e-01 5.360064655542373657e-02
-1.561194360256195068e-01 4.239025712013244629e-01 1.533682644367218018e-01
-2.160722464323043823e-01 -9.440391659736633301e-01 -1.311271935701370239e-01
1.731644123792648315e-01 4.279827475547790527e-01 -1.210309341549873352e-01
1.646900624036788940e-01 -9.440391659736633301e-01 -1.923378407955169678e-01
1.850762590765953064e-02 2.075835168361663818e-01 -1.074560172855854034e-02
-1.253316700458526611e-01 5.607944130897521973e-01 1.010118350386619568e-01
1.399742215871810913e-01 -9.558506011962890625e-01 5.365822464227676392e-03
-7.894944399595260620e-02 2.800433635711669922e-01 -2.665428519248962402e-01
1.539065539836883545e-01 3.794057071208953857e-01 -1.741929054260253906e-01
5.470339208841323853e-02 -6.386413574218750000e-01 8.684216882102191448e-04
-1.431892514228820801e-01 3.696251809597015381e-01 1.915516257286071777e-01
-7.234113756567239761e-03 -8.270999193191528320e-01 7.964384742081165314e-03
-1.460415124893188477e-01 -9.440391659736633301e-01 8.981258608400821686e-03
1.725075952708721161e-02 5.470702648162841797e-01 1.622724831104278564e-01
1.458362191915512085e-01 -9.440391659736633301e-01 -1.626980006694793701e-01
-6.942779757082462311e-03 -9.440391659736633301e-01 1.249013170599937439e-01
4.369313828647136688e-03 5.659757852554321289e-01 -1.573824584484100342e-01
-1.663323342800140381e-01 2.593685090541839600e-01 -2.324963063001632690e-01
1.187237724661827087e-01 5.837883353233337402e-01 -8.625213801860809326e-02
2.921670079231262207e-01 2.113754451274871826e-01 -7.566864043474197388e-02
-1.302098780870437622e-01 -9.558506011962890625e-01 -1.786388270556926727e-02
-1.572640091180801392e-01 -9.440391659736633301e-01 7.302837073802947998e-02
1.949871778488159180e-01 3.951548635959625244e-01 1.133639216423034668e-01
-1.362209916114807129e-01 -9.558506011962890625e-01 1.099576801061630249e-01
1.590005010366439819e-01 4.044164419174194336e-01 1.541921347379684448e-01
1.427556872367858887e-01 -9.558506011962890625e-01 -8.063921332359313965e-02
-3.093814104795455933e-02 2.115387022495269775e-01 3.011910319328308105e-01
-7.602643966674804688e-02 3.987269103527069092e-01 2.133943736553192139e-01
-2.298746407032012939e-01 3.833059370517730713e-01 5.619527027010917664e-02
1.164229363203048706e-01 5.372655987739562988e-01 -1.207560300827026367e-01
-4.294553771615028381e-03 1.588490754365921021e-01 4.649253189563751221e-02
-1.823122352361679077e-01 -9.558506011962890625e-01 1.759649068117141724e-01
1.478746235370635986e-01 5.555762648582458496e-01 5.393277481198310852e-02
-1.357611566781997681e-01 -9.558506011962890625e-01 -1.215757280588150024e-01
1.837455183267593384e-01 4.861345291137695312e-01 2.834009006619453430e-02
3.853929042816162109e-02 2.649830877780914307e-01 -2.782976627349853516e-01
1.489992141723632812e-01 -3.425077497959136963e-01 8.079759776592254639e-03
-9.427318722009658813e-02 -9.440391659736633301e-01 -1.174289286136627197e-01
1.811339855194091797e-01 -9.558506011962890625e-01 2.064227908849716187e-01
6.453483551740646362e-02 -5.942603349685668945e-01 6.918356288224458694e-03
1.395143866539001465e-01 -9.558506011962890625e-01 -1.804414242506027222e-01
2.997671067714691162e-02 -9.558506011962890625e-01 -1.020071357488632202e-01
-2.600676119327545166e-01 3.116533160209655762e-01 -5.491815507411956787e-02
-5.629875138401985168e-02 2.788646221160888672e-01 2.697993516921997070e-01
1.937376409769058228e-01 -9.558506011962890625e-01 -4.339242726564407349e-02
-2.021357268095016479e-01 -9.558506011962890625e-01 1.020239666104316711e-01
7.364045828580856323e-02 -9.558506011962890625e-01 -8.903860300779342651e-02
1.521155536174774170e-01 -3.110668659210205078e-01 -6.301414687186479568e-03
-5.607457831501960754e-03 -9.440391659736633301e-01 -1.629687249660491943e-01
1.683178991079330444e-01 5.232607722282409668e-01 2.801945805549621582e-02
2.275955397635698318e-03 -8.651083111763000488e-01 -3.696629079058766365e-03
-1.339293122291564941e-01 -9.440391659736633301e-01 -2.088325619697570801e-01
6.906656175851821899e-02 -9.558506011962890625e-01 -3.342118579894304276e-03
3.875846043229103088e-02 -9.508272260427474976e-02 8.052352815866470337e-03
2.635492682456970215e-01 2.993278801441192627e-01 -1.468522567301988602e-02
-1.729740351438522339e-01 5.216338634490966797e-01 -4.805219918489456177e-02
-2.646151185035705566e-01 2.840144038200378418e-01 -8.331713825464248657e-02
-1.625528931617736816e-01 3.962261676788330078e-01 1.628422588109970093e-01
1.553901731967926025e-01 -9.558506011962890625e-01 -1.190533265471458435e-01
-2.755252122879028320e-01 2.747269570827484131e-01 -5.437586084008216858e-02
1.701988726854324341e-01 5.155744552612304688e-01 -3.934842348098754883e-02
2.783912718296051025e-01 2.559697628021240234e-01 3.787797316908836365e-02
-5.782443284988403320e-02 3.201251626014709473e-01 2.524066269397735596e-01
-1.399212628602981567e-01 2.812770903110504150e-01 2.394430786371231079e-01
6.914395093917846680e-02 4.025080204010009766e-01 -2.129660248756408691e-01
-1.731206476688385010e-01 -9.440391659736633301e-01 1.048970036208629608e-02
-2.135989964008331299e-01 3.152269721031188965e-01 1.526202261447906494e-01
1.958718597888946533e-01 2.845292091369628906e-01 1.874956339597702026e-01
1.552873104810714722e-02 -9.558506011962890625e-01 3.984582796692848206e-02
-2.871842384338378906e-01 2.529925405979156494e-01 -3.460193425416946411e-02
1.754186004400253296e-01 -9.558506011962890625e-01 -1.984064280986785889e-01
-1.348889768123626709e-01 2.555999159812927246e-01 2.530088722705841064e-01
1.618336290121078491e-01 4.562530815601348877e-01 -1.166142225265502930e-01
-3.128509968519210815e-02 5.763194561004638672e-01 1.491531580686569214e-01
-1.873087286949157715e-01 4.383580386638641357e-01 1.020489558577537537e-01
2.561724372208118439e-02 1.331152617931365967e-01 3.607272729277610779e-02
-1.719019412994384766e-01 -9.440391659736633301e-01 -1.745069473981857300e-01
8.873070031404495239e-02 -1.597543358802795410e-01 5.700798239558935165e-03
-2.463826984167098999e-01 3.370438814163208008e-01 -7.009020447731018066e-02
1.797194927930831909e-01 -9.440391659736633301e-01 8.056482672691345215e-02
-2.894658744335174561e-01 2.532782852649688721e-01 1.506983768194913864e-02
2.327606827020645142e-01 3.557369709014892578e-01 6.472419947385787964e-02
1.387430131435394287e-01 2.363687008619308472e-01 2.571323513984680176e-01
1.218167766928672791e-01 2.433494478464126587e-01 2.610217630863189697e-01
5.246971547603607178e-02 3.405334353446960449e-01 -2.449841648340225220e-01
-1.497109830379486084e-01 4.071604013442993164e-01 1.670032143592834473e-01
-1.432491987943649292e-01 -9.558506011962890625e-01 -4.155519232153892517e-02
-1.623850315809249878e-02 -9.440391659736633301e-01 -1.484249532222747803e-01
1.301395148038864136e-01 -9.558506011962890625e-01 1.400873661041259766e-01
-2.240701168775558472e-01 2.443065941333770752e-01 -1.883918195962905884e-01
-2.745938897132873535e-01 2.620041966438293457e-01 -8.298683911561965942e-02
-1.410050541162490845e-01 5.415839552879333496e-01 9.362290799617767334e-02
-3.259086236357688904e-02 -9.558506011962890625e-01 2.373063005506992340e-02
-2.468679100275039673e-02 -9.558506011962890625e-01 1.735633015632629395e-01
1.977882348001003265e-02 -9.440391659736633301e-01 7.165521383285522461e-02
1.340963989496231079e-01 6.072388291358947754e-01 -2.347030490636825562e-02
-1.134985536336898804e-01 4.723513126373291016e-01 1.608438342809677124e-01
-1.776264905929565430e-01 3.315276205539703369e-01 1.849649101495742798e-01
-9.549772739410400391e-02 -9.558506011962890625e-01 4.600121453404426575e-02
-7.405258715152740479e-02 6.209354400634765625e-01 -1.150356456637382507e-01
-1.626678556203842163e-01 -9.440391659736633301e-01 1.231386438012123108e-01
2.659775316715240479e-01 2.884485721588134766e-01 2.938245236873626709e-02
1.317497640848159790e-01 -9.558506011962890625e-01 -1.401788294315338135e-01
-2.374659925699234009e-01 2.617342770099639893e-01 1.578157991170883179e-01
2.493845373392105103e-01 2.764163911342620850e-01 -1.115077883005142212e-01
-2.367337644100189209e-01 3.766634166240692139e-01 2.511803247034549713e-02
-1.487038582563400269e-01 5.896745324134826660e-01 1.961332187056541443e-02
2.632135748863220215e-01 2.766487896442413330e-01 -7.787232100963592529e-02
-1.657825410366058350e-01 5.110844373703002930e-01 -7.680329680442810059e-02
-4.708091542124748230e-02 5.698817968368530273e-01 -1.501451432704925537e-01
-1.081946864724159241e-01 5.851878523826599121e-01 -1.074517890810966492e-01
