6.418244838714599609e-01 -3.608380854129791260e-01 1.446613222360610962e-01
-1.396830826997756958e-01 -4.350483417510986328e-01 3.430724143981933594e-01
-1.452503502368927002e-01 1.044436693191528320e-01 -2.617812454700469971e-01
-4.985347688198089600e-01 4.127358794212341309e-01 4.157636165618896484e-01
-5.568836331367492676e-01 -3.772633373737335205e-01 -3.129967153072357178e-01
3.666132092475891113e-01 2.501882053911685944e-02 -6.610707640647888184e-01
4.513097703456878662e-01 -1.723307967185974121e-01 3.623396456241607666e-01
-6.298817396163940430e-01 -3.233392536640167236e-01 2.362372726202011108e-01
-3.399417698383331299e-01 4.127358794212341309e-01 4.325467646121978760e-01
-2.000138908624649048e-01 -3.772633373737335205e-01 3.763081878423690796e-02
-3.125258162617683411e-02 1.044436693191528320e-01 3.294460177421569824e-01
-3.834030926227569580e-01 4.589581489562988281e-02 3.816088140010833740e-01
5.100008845329284668e-01 8.517546206712722778e-02 -2.788272500038146973e-01
4.422287642955780029e-01 -4.543371200561523438e-01 -2.786301076412200928e-01
1.336756944656372070e-01 8.517546206712722778e-02 8.329001814126968384e-02
-6.106135249137878418e-01 -5.550133809447288513e-02 -7.779785245656967163e-02
2.032297104597091675e-01 3.934676945209503174e-01 -1.447206288576126099e-01
-5.190081596374511719e-01 -6.581109017133712769e-03 -5.009832978248596191e-01
5.983307957649230957e-01 -8.919665962457656860e-02 -3.799744844436645508e-01
5.756753087043762207e-01 -3.772633373737335205e-01 -6.146384403109550476e-03
-3.426346778869628906e-01 3.934676945209503174e-01 -4.857478290796279907e-02
6.159808635711669922e-01 9.948442131280899048e-02 3.816088140010833740e-01
1.986548900604248047e-01 -1.862847506999969482e-01 3.623396456241607666e-01
6.844610571861267090e-01 -4.015172421932220459e-01 -3.505867719650268555e-01
6.418244838714599609e-01 3.605181574821472168e-01 2.937084138393402100e-01
6.225552558898925781e-01 -3.015820980072021484e-01 -1.308380663394927979e-01
-4.324238598346710205e-01 -2.728268802165985107e-01 -7.088686823844909668e-01
-6.545897126197814941e-01 4.127358794212341309e-01 1.347712725400924683e-01
5.672870576381683350e-02 8.517546206712722778e-02 3.474834859371185303e-01
2.372403144836425781e-01 8.517546206712722778e-02 1.954963058233261108e-01
4.362937510013580322e-01 -2.178956568241119385e-01 -5.462480783462524414e-01
1.072152629494667053e-01 4.127358794212341309e-01 -2.613007128238677979e-01
-4.693833291530609131e-01 -2.823903858661651611e-01 -6.070947647094726562e-01
6.830312609672546387e-01 -6.518623232841491699e-02 3.430724143981933594e-01
-9.476742893457412720e-02 3.908885121345520020e-01 3.816088140010833740e-01
-1.863443404436111450e-01 1.044436693191528320e-01 3.037102818489074707e-01
-5.351392626762390137e-01 -3.965325057506561279e-01 -5.946883559226989746e-02
6.225552558898925781e-01 3.703764639794826508e-03 -3.294935226440429688e-01
-7.318024337291717529e-02 1.044436693191528320e-01 -2.591647803783416748e-01
3.622041642665863037e-01 -2.325007766485214233e-01 3.816088140010833740e-01
3.196361958980560303e-01 1.996320206671953201e-03 3.816088140010833740e-01
6.553374975919723511e-02 1.044436693191528320e-01 -8.279868215322494507e-02
6.851142048835754395e-01 -1.637411117553710938e-01 4.201461970806121826e-01
-6.298817396163940430e-01 -4.272860288619995117e-02 3.202737867832183838e-01
-7.092051506042480469e-01 3.934676945209503174e-01 -3.543780446052551270e-01
6.993348598480224609e-01 -1.340679973363876343e-01 -3.505867719650268555e-01
6.225552558898925781e-01 8.635227382183074951e-02 6.371880322694778442e-02
-2.695502638816833496e-01 -3.965325057506561279e-01 -2.574682533740997314e-01
-4.599080979824066162e-01 4.055554270744323730e-01 1.551112160086631775e-02
-6.106135249137878418e-01 1.328203231096267700e-01 3.877595663070678711e-01
-8.237539231777191162e-02 -3.772633373737335205e-01 -2.729912698268890381e-01
3.580206036567687988e-01 -3.772633373737335205e-01 -3.335005640983581543e-01
6.225552558898925781e-01 1.562191098928451538e-01 1.142968535423278809e-01
-1.854829862713813782e-02 -1.621789038181304932e-01 -3.505867719650268555e-01
-2.692129313945770264e-01 -4.543371200561523438e-01 -3.421843945980072021e-01
-4.655841886997222900e-01 8.517546206712722778e-02 -2.673406600952148438e-01
-2.941121160984039307e-01 -3.965325057506561279e-01 -1.203872635960578918e-01
-1.274165231734514236e-02 4.127358794212341309e-01 -1.586892902851104736e-01
-5.564246177673339844e-01 -3.772633373737335205e-01 2.147056609392166138e-01
-6.827241182327270508e-01 1.316533237695693970e-01 4.201461970806121826e-01
-5.636286735534667969e-01 -3.206051290035247803e-01 3.623396456241607666e-01
2.097158730030059814e-01 -3.965325057506561279e-01 3.433067798614501953e-01
-4.068273603916168213e-01 -1.072738394141197205e-01 -7.636008262634277344e-01
4.244289547204971313e-02 4.127358794212341309e-01 2.075358666479587555e-02
8.243118226528167725e-02 3.163938820362091064e-01 -3.269359469413757324e-01
3.069094195961952209e-02 2.126569673418998718e-02 3.816088140010833740e-01
-6.316969394683837891e-01 3.633738756179809570e-01 4.201461970806121826e-01
3.048967421054840088e-01 -3.772633373737335205e-01 1.128825917840003967e-02
6.418244838714599609e-01 3.084749877452850342e-01 -6.188619136810302734e-02
-2.492268532514572144e-01 1.044436693191528320e-01 2.196041196584701538e-01
6.418244838714599609e-01 -1.956638693809509277e-01 1.754200458526611328e-01
-3.034618496894836426e-01 4.127358794212341309e-01 1.044989749789237976e-01
1.594427973031997681e-01 4.127358794212341309e-01 -8.491143584251403809e-02
-5.816151499748229980e-01 -9.947212040424346924e-02 -4.125935435295104980e-01
-7.455179840326309204e-02 -2.380660772323608398e-01 3.623396456241607666e-01
6.225552558898925781e-01 -2.457322552800178528e-02 1.103534642606973648e-02
3.766984343528747559e-01 1.044436693191528320e-01 2.986706197261810303e-01
5.377685427665710449e-01 1.044436693191528320e-01 3.093246221542358398e-01
-5.188620686531066895e-01 -6.621319055557250977e-02 3.623396456241607666e-01
1.414798796176910400e-01 8.517546206712722778e-02 2.714168429374694824e-01
-6.106135249137878418e-01 -3.283024132251739502e-01 -1.798277534544467926e-02
1.884735673666000366e-01 -3.772633373737335205e-01 -1.371048390865325928e-01
-5.666295289993286133e-01 8.517546206712722778e-02 2.473080605268478394e-01
1.998101174831390381e-01 1.044436693191528320e-01 3.714294731616973877e-01
-3.510213792324066162e-01 -1.767928451299667358e-01 -8.601928949356079102e-01
-3.500926792621612549e-01 -2.192166298627853394e-01 3.623396456241607666e-01
7.310393452644348145e-02 -3.772633373737335205e-01 3.355585336685180664e-01
-2.490366101264953613e-01 4.127358794212341309e-01 -1.468918323516845703e-01
-4.817878007888793945e-01 -3.965325057506561279e-01 1.657467186450958252e-01
-4.839988797903060913e-02 -3.965325057506561279e-01 1.453125029802322388e-01
-4.367054402828216553e-01 -3.965325057506561279e-01 3.169581592082977295e-01
7.051845788955688477e-01 3.934676945209503174e-01 -1.459160596132278442e-01
-6.247793436050415039e-01 3.934676945209503174e-01 3.059913516044616699e-01
-6.414379477500915527e-01 4.073069095611572266e-01 4.544765353202819824e-01
3.518492281436920166e-01 -3.772633373737335205e-01 -1.089527457952499390e-01
-5.793684124946594238e-01 -2.087391614913940430e-01 3.623396456241607666e-01
-4.220404922962188721e-01 -1.116599608212709427e-02 -7.228735685348510742e-01
4.143032133579254150e-01 -3.965325057506561279e-01 8.749795146286487579e-03
-5.090020224452018738e-02 4.127358794212341309e-01 -2.673465311527252197e-01
-3.133489191532135010e-01 4.127358794212341309e-01 -1.950074136257171631e-01
-6.728909611701965332e-01 -4.269675910472869873e-01 4.201461970806121826e-01
-8.185387402772903442e-02 -3.965325057506561279e-01 2.932112216949462891e-01
6.225552558898925781e-01 -1.028624922037124634e-01 8.036272227764129639e-02
1.670969277620315552e-01 3.934676945209503174e-01 1.714120507240295410e-01
-9.567945450544357300e-02 8.517546206712722778e-02 1.836243271827697754e-01
-1.346896286122500896e-03 -1.181782037019729614e-01 3.623396456241607666e-01
3.499369323253631592e-01 8.517546206712722778e-02 -7.789964973926544189e-02
-6.868655085563659668e-01 3.532249033451080322e-01 3.430724143981933594e-01
5.273342132568359375e-01 -3.737162649631500244e-01 3.623396456241607666e-01
-2.075454592704772949e-01 -3.772633373737335205e-01 2.413534224033355713e-01
-6.799513846635818481e-02 4.001774191856384277e-01 4.586816132068634033e-01
3.165147304534912109e-01 -1.799456924200057983e-01 -7.218458652496337891e-01
2.105013728141784668e-01 3.586450815200805664e-01 3.816088140010833740e-01
-3.748261332511901855e-01 1.044436693191528320e-01 -1.490806788206100464e-01
-6.125895977020263672e-01 -4.954232871532440186e-01 -2.735129892826080322e-01
-6.298817396163940430e-01 8.239486813545227051e-02 1.873312592506408691e-01
-6.298817396163940430e-01 3.278412520885467529e-01 -1.471379846334457397e-01
-2.881153225898742676e-01 3.930685520172119141e-01 3.816088140010833740e-01
-5.646407008171081543e-01 -3.017703890800476074e-01 -4.124258458614349365e-01
2.164108902215957642e-01 8.517546206712722778e-02 -1.692491471767425537e-01
2.772742211818695068e-01 -3.022185564041137695e-01 3.623396456241607666e-01
-1.137522161006927490e-01 3.934676945209503174e-01 1.278908997774124146e-01
-3.693814873695373535e-01 -3.965325057506561279e-01 -2.877503335475921631e-01
5.789860486984252930e-01 8.003195375204086304e-02 -4.034409523010253906e-01
6.884102225303649902e-01 -2.825061082839965820e-01 4.201461970806121826e-01
4.585245549678802490e-01 -3.965325057506561279e-01 2.318654358386993408e-01
-6.106135249137878418e-01 -2.810811996459960938e-01 -3.053004145622253418e-01
1.040187701582908630e-01 1.044436693191528320e-01 1.715169847011566162e-01
-6.106135249137878418e-01 1.381679177284240723e-01 -2.696991562843322754e-01
-4.566071629524230957e-01 5.795785412192344666e-02 3.816088140010833740e-01
-2.264194190502166748e-01 -2.827591001987457275e-01 3.623396456241607666e-01
-5.340212583541870117e-01 -1.881725490093231201e-01 -4.688810408115386963e-01
6.377570331096649170e-02 -2.155028432607650757e-01 -3.167703151702880859e-01
-6.106135249137878418e-01 -1.386614590883255005e-01 -3.692158265039324760e-03
3.199714468792080879e-03 -3.772633373737335205e-01 -6.488370895385742188e-02
-4.318550527095794678e-01 -1.918539702892303467e-01 -7.100856900215148926e-01
-6.876863241195678711e-01 -1.457124799489974976e-01 3.722051680088043213e-01
-6.106135249137878418e-01 3.752503078430891037e-03 -1.847585476934909821e-02
-6.106135249137878418e-01 -1.458801776170730591e-01 -2.883289158344268799e-01
-7.246929407119750977e-01 3.934676945209503174e-01 -1.473576426506042480e-01
6.418244838714599609e-01 -3.162872493267059326e-01 9.297315776348114014e-02
-3.108130767941474915e-03 -3.638448119163513184e-01 3.816088140010833740e-01
-6.232494711875915527e-01 -4.501957297325134277e-01 -3.505867719650268555e-01
-2.818674743175506592e-01 -9.202530235052108765e-02 3.816088140010833740e-01
-6.106135249137878418e-01 3.120858073234558105e-01 1.704116351902484894e-02
-2.014456689357757568e-01 -3.772633373737335205e-01 -1.984691917896270752e-01
-5.620193481445312500e-01 -3.965325057506561279e-01 -2.425345927476882935e-01
2.206728905439376831e-01 -1.207142099738121033e-01 3.816088140010833740e-01
6.225552558898925781e-01 3.540928065776824951e-01 -2.381676882505416870e-01
6.192125380039215088e-02 -3.772633373737335205e-01 -4.398932680487632751e-02
3.345070779323577881e-01 -3.772633373737335205e-01 -2.291592359542846680e-01
-3.080307841300964355e-01 8.517546206712722778e-02 2.480023503303527832e-01
4.904757440090179443e-01 -1.032493636012077332e-01 -4.805206358432769775e-01
-5.099673867225646973e-01 -2.644617855548858643e-01 -5.430579781532287598e-01
3.940327465534210205e-01 -3.965325057506561279e-01 2.788473665714263916e-01
5.995664596557617188e-01 1.044436693191528320e-01 -2.755586802959442139e-01
1.470030099153518677e-01 8.517546206712722778e-02 -2.750094830989837646e-01
5.874453783035278320e-01 -3.576273918151855469e-01 -3.628863096237182617e-01
-2.139825671911239624e-01 8.517546206712722778e-02 -2.028802335262298584e-01
-2.515000402927398682e-01 4.127358794212341309e-01 1.382075399160385132e-01
6.101675033569335938e-01 1.044436693191528320e-01 -1.069425791501998901e-01
-7.948530837893486023e-03 -5.916609615087509155e-02 -3.505867719650268555e-01
-2.051604539155960083e-01 3.934676945209503174e-01 7.385880220681428909e-03
3.320730626583099365e-01 3.461346626281738281e-01 -3.505867719650268555e-01
4.030049145221710205e-01 3.755135834217071533e-01 -3.505867719650268555e-01
5.228470265865325928e-02 -1.772145330905914307e-01 3.816088140010833740e-01
-6.106135249137878418e-01 4.739155527204275131e-03 3.398048281669616699e-01
1.542393565177917480e-01 -3.418729305267333984e-01 3.623396456241607666e-01
3.470537662506103516e-01 -8.015213906764984131e-02 3.623396456241607666e-01
-3.768875300884246826e-01 -3.772633373737335205e-01 8.812178671360015869e-02
5.014151334762573242e-01 -9.066040813922882080e-02 3.623396456241607666e-01
-6.298817396163940430e-01 -2.360174655914306641e-01 8.518664538860321045e-02
4.906895160675048828e-01 -3.965325057506561279e-01 -1.464652419090270996e-01
-1.241159364581108093e-01 3.934676945209503174e-01 -2.524246573448181152e-01
-2.743074893951416016e-01 -3.772633373737335205e-01 5.106972530484199524e-02
-3.488168418407440186e-01 -1.315574944019317627e-01 3.623396456241607666e-01
-2.769297957420349121e-01 3.949210345745086670e-01 -3.891221880912780762e-01
-5.777993798255920410e-01 8.517546206712722778e-02 7.317245006561279297e-02
-1.528829038143157959e-01 -3.772633373737335205e-01 -3.259023427963256836e-01
-1.724198013544082642e-01 3.934676945209503174e-01 7.952228933572769165e-02
6.527540683746337891e-01 4.127358794212341309e-01 -2.036128044128417969e-01
-1.094627678394317627e-01 -3.772633373737335205e-01 3.502489626407623291e-01
-6.307761669158935547e-01 -3.096118271350860596e-01 3.430724143981933594e-01
6.816936135292053223e-01 2.505232691764831543e-01 -2.735129892826080322e-01
-4.719310998916625977e-01 2.397185750305652618e-02 -6.016491055488586426e-01
5.623764991760253906e-01 1.044436693191528320e-01 2.421556115150451660e-01
-1.270402967929840088e-01 8.517546206712722778e-02 4.700386524200439453e-02
-4.177520275115966797e-01 3.683752715587615967e-01 -3.120493888854980469e-01
2.954796887934207916e-02 3.934676945209503174e-01 2.542815804481506348e-01
6.225552558898925781e-01 -2.133188694715499878e-01 -3.268202245235443115e-01
-7.565348595380783081e-02 -1.041885539889335632e-01 3.816088140010833740e-01
-2.950545251369476318e-01 3.306962922215461731e-02 3.623396456241607666e-01
2.592066861689090729e-02 -9.942357987165451050e-02 -3.505867719650268555e-01
-5.239861011505126953e-01 -3.772633373737335205e-01 3.655484020709991455e-01
3.826501369476318359e-01 8.517546206712722778e-02 -1.130400821566581726e-01
-3.223740458488464355e-01 8.517546206712722778e-02 9.865909069776535034e-02
-1.104705687612295151e-02 1.044436693191528320e-01 2.564616203308105469e-01
6.225552558898925781e-01 -1.213192865252494812e-01 4.107474684715270996e-01
-6.432071328163146973e-01 1.089096292853355408e-01 -3.505867719650268555e-01
2.712146639823913574e-01 -1.425812095403671265e-01 3.623396456241607666e-01
6.810385584831237793e-01 3.525894582271575928e-01 -3.505867719650268555e-01
-5.805589556694030762e-01 3.934676945209503174e-01 3.913106024265289307e-01
-4.382735490798950195e-01 -3.499330580234527588e-01 -7.191019058227539062e-01
-1.195067837834358215e-01 3.934676945209503174e-01 -1.880525052547454834e-01
4.469222426414489746e-01 -6.481270492076873779e-02 3.623396456241607666e-01
-6.106135249137878418e-01 -2.590877115726470947e-01 -1.967128068208694458e-01
-3.414372801780700684e-01 4.127358794212341309e-01 2.362215816974639893e-01
-1.903435140848159790e-01 -3.772633373737335205e-01 -3.916582092642784119e-02
-2.116829007863998413e-01 -1.540511101484298706e-01 3.816088140010833740e-01
-1.593190431594848633e-01 1.044436693191528320e-01 1.288009583950042725e-01
-6.298817396163940430e-01 3.052564263343811035e-01 2.888766825199127197e-01
-5.840246081352233887e-01 -9.938336908817291260e-02 3.816088140010833740e-01
2.949684262275695801e-01 4.127358794212341309e-01 3.780931234359741211e-01
6.418244838714599609e-01 -9.745763242244720459e-02 -2.621558308601379395e-01
6.472338438034057617e-01 4.127358794212341309e-01 3.801662623882293701e-01
-5.300074219703674316e-01 4.775898531079292297e-02 -4.774638712406158447e-01
-1.590317040681838989e-01 8.517546206712722778e-02 -6.483604758977890015e-02
6.418244838714599609e-01 1.713900715112686157e-01 2.848873138427734375e-01
-6.298817396163940430e-01 -1.200444102287292480e-01 7.723242789506912231e-02
2.696289122104644775e-01 4.127358794212341309e-01 2.154625952243804932e-02
2.779567539691925049e-01 4.127358794212341309e-01 1.494509279727935791e-01
-2.320151180028915405e-01 1.044436693191528320e-01 6.515645235776901245e-02
6.418244838714599609e-01 2.070060372352600098e-01 -1.452256739139556885e-01
-6.097319126129150391e-01 1.044436693191528320e-01 -8.359400182962417603e-02
1.950140111148357391e-02 5.963424220681190491e-03 -3.505867719650268555e-01
4.033246338367462158e-01 -1.749246716499328613e-01 3.623396456241607666e-01
-6.106135249137878418e-01 3.649302124977111816e-01 -3.173764050006866455e-01
-3.985181748867034912e-01 -3.772633373737335205e-01 -5.100953951478004456e-02
1.424850523471832275e-01 -4.543371200561523438e-01 -3.459727168083190918e-01
1.600164771080017090e-01 8.517546206712722778e-02 3.134070336818695068e-02
4.045112133026123047e-01 -2.833690941333770752e-01 3.623396456241607666e-01
2.293459326028823853e-01 -3.965325057506561279e-01 1.832163631916046143e-01
-2.421078272163867950e-02 3.934676945209503174e-01 2.829926609992980957e-01
-6.106135249137878418e-01 -2.709348872303962708e-02 2.777754962444305420e-01
6.607435345649719238e-01 4.127358794212341309e-01 -3.320844769477844238e-01
5.526903867721557617e-01 3.597188889980316162e-01 4.201461970806121826e-01
4.901903867721557617e-01 3.934676945209503174e-01 -8.582640439271926880e-02
3.975043296813964844e-01 3.934676945209503174e-01 -1.245545223355293274e-01
-1.462061610072851181e-02 8.517546206712722778e-02 -1.378294527530670166e-01
1.692132055759429932e-01 -3.772633373737335205e-01 -2.713790535926818848e-01
6.145677566528320312e-01 1.044436693191528320e-01 1.927680969238281250e-01
-4.185503125190734863e-01 1.044436693191528320e-01 6.220071762800216675e-02
-6.604688167572021484e-01 -1.137455776333808899e-01 -3.505867719650268555e-01
6.882581710815429688e-01 3.422639667987823486e-01 4.201461970806121826e-01
-5.442771315574645996e-01 1.044436693191528320e-01 3.093706965446472168e-01
2.003269195556640625e-01 -3.330831825733184814e-01 3.816088140010833740e-01
5.893900394439697266e-01 -3.773604035377502441e-01 -2.927801907062530518e-01
1.544619798660278320e-01 8.517546206712722778e-02 -7.618375867605209351e-02
-5.675052404403686523e-01 8.517546206712722778e-02 1.629145443439483643e-01
-6.502924561500549316e-01 -3.423053920269012451e-01 -3.505867719650268555e-01
6.830453872680664062e-02 4.127358794212341309e-01 -3.585841357707977295e-01
3.069767355918884277e-01 -3.772633373737335205e-01 -1.524796932935714722e-01
-6.298817396163940430e-01 1.337931454181671143e-01 -1.622344106435775757e-01
-2.044190615415573120e-01 3.934676945209503174e-01 -2.506869137287139893e-01
-6.229376196861267090e-01 2.985447347164154053e-01 -3.505867719650268555e-01
4.002129435539245605e-01 1.044436693191528320e-01 1.492616534233093262e-01
-8.016098290681838989e-03 4.127358794212341309e-01 3.554013967514038086e-01
5.792963504791259766e-02 3.934676945209503174e-01 3.924805223941802979e-01
4.713929295539855957e-01 -3.965325057506561279e-01 3.327341973781585693e-01
3.127911090850830078e-01 -1.028047278523445129e-01 -7.263628244400024414e-01
4.540978372097015381e-01 4.127358794212341309e-01 3.840536177158355713e-01
6.418244838714599609e-01 1.075837686657905579e-01 -2.315785586833953857e-01
4.722402095794677734e-01 -3.965325057506561279e-01 1.153392940759658813e-01
1.669655144214630127e-01 2.499793097376823425e-02 3.623396456241607666e-01
-2.738671600818634033e-01 -3.967855274677276611e-01 4.201461970806121826e-01
6.418244838714599609e-01 -1.711059361696243286e-01 -1.417089849710464478e-01
4.247591197490692139e-01 1.044436693191528320e-01 -1.728413403034210205e-01
5.678378343582153320e-01 -9.609782695770263672e-02 3.623396456241607666e-01
-1.394153535366058350e-01 -1.813559792935848236e-02 3.816088140010833740e-01
-3.916426897048950195e-01 -6.476572901010513306e-02 3.623396456241607666e-01
4.714360535144805908e-01 3.707102537155151367e-01 -3.505867719650268555e-01
-1.956175565719604492e-01 -3.420386612415313721e-01 3.816088140010833740e-01
-4.657862186431884766e-01 -1.592025756835937500e-01 -6.375308036804199219e-01
-6.158424615859985352e-01 2.035060375928878784e-01 3.430724143981933594e-01
-2.537242174148559570e-01 1.044436693191528320e-01 -1.153194680809974670e-01
-7.551462203264236450e-02 3.934676945209503174e-01 3.258614987134933472e-02
5.634983777999877930e-01 -3.965325057506561279e-01 -1.513460427522659302e-01
-6.858319044113159180e-01 2.521658837795257568e-01 3.430724143981933594e-01
-6.550506353378295898e-01 -5.062783360481262207e-01 4.201461970806121826e-01
-6.608855724334716797e-01 3.934676945209503174e-01 -1.936491876840591431e-01
4.861117899417877197e-01 1.044436693191528320e-01 1.877911835908889771e-01
1.770154237747192383e-01 8.517546206712722778e-02 2.250144928693771362e-01
7.689211983233690262e-03 -3.965325057506561279e-01 2.505452334880828857e-01
6.670678853988647461e-01 8.967968076467514038e-02 -3.505867719650268555e-01
6.996290683746337891e-01 -3.818646371364593506e-01 3.469970822334289551e-01
-4.999008178710937500e-01 -3.965325057506561279e-01 -1.850722432136535645e-01
6.418244838714599609e-01 3.163579106330871582e-02 3.253732919692993164e-01
4.036246836185455322e-01 -3.150300085544586182e-01 -6.161727905273437500e-01
5.169243812561035156e-01 3.934676945209503174e-01 1.167210713028907776e-01
-6.106135249137878418e-01 -1.922864466905593872e-01 2.273494601249694824e-01
6.225552558898925781e-01 2.266174703836441040e-01 1.954423636198043823e-01
-4.702041447162628174e-01 3.934676945209503174e-01 -7.245457172393798828e-02
-3.348207175731658936e-01 -3.772633373737335205e-01 -1.797011196613311768e-01
2.672125399112701416e-01 -3.965325057506561279e-01 3.050273358821868896e-01
5.205861926078796387e-01 4.354180768132209778e-02 3.816088140010833740e-01
-5.184129476547241211e-01 -1.936633139848709106e-01 3.816088140010833740e-01
1.691861078143119812e-02 8.517546206712722778e-02 -1.746607595123350620e-03
-6.106135249137878418e-01 -3.108092248439788818e-01 8.327434211969375610e-02
-4.289970174431800842e-02 9.252099320292472839e-03 3.623396456241607666e-01
-2.179621160030364990e-01 3.528542220592498779e-01 4.201461970806121826e-01
-6.203457117080688477e-01 2.883447706699371338e-01 4.201461970806121826e-01
5.787124633789062500e-01 4.956351593136787415e-02 3.816088140010833740e-01
-3.800472319126129150e-01 1.044436693191528320e-01 1.486614793539047241e-01
-2.266008406877517700e-01 -3.772633373737335205e-01 -3.170920014381408691e-01
3.525406122207641602e-01 4.127358794212341309e-01 3.247074186801910400e-01
-1.622424125671386719e-01 4.311757534742355347e-02 3.623396456241607666e-01
1.681403517723083496e-01 -3.965325057506561279e-01 1.215497404336929321e-02
-6.298817396163940430e-01 -1.726171523332595825e-01 -2.191103249788284302e-01
2.984674572944641113e-01 8.517546206712722778e-02 3.139259517192840576e-01
-4.441467523574829102e-01 8.517546206712722778e-02 -3.584814816713333130e-02
5.090436935424804688e-01 -3.965325057506561279e-01 1.869125217199325562e-01
-5.695646405220031738e-01 8.517546206712722778e-02 -2.720488607883453369e-01
-6.298817396163940430e-01 3.626452386379241943e-01 5.973530933260917664e-02
-4.298897981643676758e-01 4.127358794212341309e-01 -2.912640869617462158e-01
-5.183350667357444763e-02 -2.095119059085845947e-01 -3.312597274780273438e-01
4.408136606216430664e-01 -4.543371200561523438e-01 3.654218614101409912e-01
-1.344341970980167389e-02 4.127358794212341309e-01 -3.783250153064727783e-01
6.225552558898925781e-01 4.201785102486610413e-02 2.145790122449398041e-02
6.560530662536621094e-01 3.934676945209503174e-01 -9.582933038473129272e-02
-4.075834751129150391e-01 -3.965325057506561279e-01 -1.481608152389526367e-01
-6.298817396163940430e-01 1.857186406850814819e-01 1.939144879579544067e-01
6.327533125877380371e-01 -1.108430847525596619e-01 3.430724143981933594e-01
-6.106135249137878418e-01 -3.935758173465728760e-01 2.647208273410797119e-01
1.180330365896224976e-01 -3.965325057506561279e-01 3.386192023754119873e-01
-7.537531666457653046e-03 8.517546206712722778e-02 1.227021738886833191e-01
-4.919465780258178711e-01 -3.772633373737335205e-01 5.004540830850601196e-02
-3.051573932170867920e-01 8.517546206712722778e-02 -7.651209831237792969e-02
3.513295054435729980e-01 -2.916527986526489258e-01 -6.493175029754638672e-01
4.165979921817779541e-01 -3.772633373737335205e-01 -5.805931985378265381e-02
6.377570331096649170e-02 -2.881125807762145996e-01 -3.148805797100067139e-01
-5.681691765785217285e-01 7.307027280330657959e-02 -4.413448274135589600e-01
3.224275261163711548e-02 3.934676945209503174e-01 -2.728216052055358887e-01
-5.089278817176818848e-01 3.934676945209503174e-01 -3.887946605682373047e-01
-3.793048560619354248e-01 1.044436693191528320e-01 -2.807053364813327789e-02
-3.793440759181976318e-01 -2.750334143638610840e-01 -7.996267080307006836e-01
6.996290683746337891e-01 2.605849504470825195e-01 3.740321695804595947e-01
5.279245376586914062e-01 3.286124020814895630e-02 -4.350900948047637939e-01
4.315286874771118164e-01 2.392194233834743500e-02 -5.823220014572143555e-01
-6.815748214721679688e-01 3.934676945209503174e-01 1.965994760394096375e-02
-4.603111445903778076e-01 1.044436693191528320e-01 1.643639653921127319e-01
5.940296053886413574e-01 -3.751754760742187500e-01 3.623396456241607666e-01
-1.228077262639999390e-01 -3.965325057506561279e-01 2.180144488811492920e-01
-2.035697996616363525e-01 -4.501163065433502197e-01 3.430724143981933594e-01
-5.558725595474243164e-01 1.044436693191528320e-01 -1.017013788223266602e-01
6.418244838714599609e-01 -7.132365554571151733e-02 1.982872933149337769e-01
4.691579639911651611e-01 -3.965325057506561279e-01 -2.691499888896942139e-01
-6.298817396163940430e-01 -1.076202169060707092e-01 -2.299006283283233643e-01
-5.467386245727539062e-01 1.044436693191528320e-01 2.767113782465457916e-02
6.996290683746337891e-01 -1.262177377939224243e-01 3.520779013633728027e-01
-1.691600531339645386e-01 -2.419475764036178589e-01 3.816088140010833740e-01
-3.362122774124145508e-01 1.044436693191528320e-01 -2.110335230827331543e-01
-3.262360347434878349e-03 -2.791041731834411621e-01 -3.505867719650268555e-01
-6.298817396163940430e-01 -1.090089380741119385e-01 1.780737191438674927e-01
2.907799780368804932e-01 1.044436693191528320e-01 -2.801766395568847656e-01
4.040718674659729004e-01 8.928937464952468872e-02 3.816088140010833740e-01
-3.894910812377929688e-01 -4.232616424560546875e-01 3.430724143981933594e-01
5.141079425811767578e-01 -4.543371200561523438e-01 -3.456020057201385498e-01
-5.929967761039733887e-01 4.127358794212341309e-01 -3.531423807144165039e-01
4.280934035778045654e-01 3.163938820362091064e-01 4.194872081279754639e-01
-1.120478138327598572e-01 -3.772633373737335205e-01 -1.266278624534606934e-01
-1.271158009767532349e-01 3.934676945209503174e-01 -3.707797527313232422e-01
4.125429093837738037e-01 9.307476133108139038e-02 -3.313176035881042480e-01
-3.186033666133880615e-01 -3.754746019840240479e-01 3.623396456241607666e-01
6.807442903518676758e-01 -3.160499334335327148e-01 -2.735129892826080322e-01
1.127677690237760544e-02 -1.327401697635650635e-01 -3.120493888854980469e-01
1.402049958705902100e-01 -3.772633373737335205e-01 2.513954639434814453e-01
3.640801608562469482e-01 1.044436693191528320e-01 9.316996438428759575e-04
2.540656626224517822e-01 -8.515921421349048615e-03 3.623396456241607666e-01
6.418244838714599609e-01 -3.690590560436248779e-01 -7.147744763642549515e-03
-5.208371281623840332e-01 -6.887561827898025513e-02 -5.198150873184204102e-01
7.803013920783996582e-02 5.392798781394958496e-02 3.816088140010833740e-01
6.225552558898925781e-01 -3.417493402957916260e-01 2.172161936759948730e-01
-5.134527087211608887e-01 8.517546206712722778e-02 -1.437585800886154175e-01
5.528061389923095703e-01 -1.910429596900939941e-01 -4.352019131183624268e-01
6.136341094970703125e-01 -3.126195371150970459e-01 3.623396456241607666e-01
-2.441950291395187378e-01 8.517546206712722778e-02 2.665840685367584229e-01
-3.657363057136535645e-01 -3.772633373737335205e-01 1.581445634365081787e-01
1.441007573157548904e-02 -3.542499542236328125e-01 -3.505867719650268555e-01
6.196907758712768555e-01 4.127358794212341309e-01 2.829720675945281982e-01
1.662859022617340088e-01 -1.005028039216995239e-01 3.623396456241607666e-01
6.418244838714599609e-01 -2.780479788780212402e-01 -3.952151164412498474e-02
1.651061624288558960e-01 -2.718275785446166992e-01 3.816088140010833740e-01
1.577227115631103516e-01 -4.469850361347198486e-01 3.430724143981933594e-01
6.249510645866394043e-01 2.909994423389434814e-01 -3.505867719650268555e-01
5.141893625259399414e-01 -3.349964618682861328e-01 3.623396456241607666e-01
6.996290683746337891e-01 -3.693542480468750000e-01 4.114368557929992676e-01
3.353171348571777344e-01 -3.772633373737335205e-01 1.767978817224502563e-01
-4.482057690620422363e-01 4.127358794212341309e-01 -2.300467491149902344e-01
6.459324955940246582e-01 -4.130156040191650391e-01 3.430724143981933594e-01
1.684267073869705200e-01 4.127358794212341309e-01 -3.367514908313751221e-01
-7.139050960540771484e-02 3.934676945209503174e-01 2.331540286540985107e-01
-2.582627534866333008e-01 3.934676945209503174e-01 3.213221430778503418e-01
-3.949766233563423157e-02 -3.541871905326843262e-01 -3.120493888854980469e-01
3.276211768388748169e-02 1.044436693191528320e-01 1.868389546871185303e-01
2.189606428146362305e-01 4.127358794212341309e-01 -3.307460993528366089e-02
5.657450556755065918e-01 -3.698014318943023682e-01 -4.195033311843872070e-01
-5.688978433609008789e-01 -3.446998819708824158e-02 3.623396456241607666e-01
-4.603199660778045654e-01 -3.772633373737335205e-01 -5.961368232965469360e-02
6.512860059738159180e-01 -7.890247553586959839e-02 -3.505867719650268555e-01
-4.050817787647247314e-01 8.517546206712722778e-02 -2.777445912361145020e-01
3.333910703659057617e-01 -4.543371200561523438e-01 3.607166111469268799e-01
-6.876863241195678711e-01 2.175011634826660156e-01 4.184868931770324707e-01
-4.769903719425201416e-01 -4.347341880202293396e-02 -6.135720610618591309e-01
1.695064306259155273e-01 3.934676945209503174e-01 7.574769109487533569e-02
-6.876863241195678711e-01 6.123958621174097061e-03 4.066708385944366455e-01
-1.023058369755744934e-01 -3.772633373737335205e-01 1.628282368183135986e-01
6.481066346168518066e-01 2.839170396327972412e-01 4.201461970806121826e-01
-3.921134173870086670e-01 4.127358794212341309e-01 -3.293944895267486572e-01
7.264435887336730957e-01 3.934676945209503174e-01 2.226951867341995239e-01
3.078622817993164062e-01 5.473704263567924500e-02 3.816088140010833740e-01
-3.697384297847747803e-01 -3.901581764221191406e-01 -3.505867719650268555e-01
-3.278746306896209717e-01 4.127358794212341309e-01 -2.870511412620544434e-01
-6.298817396163940430e-01 4.812831175513565540e-04 1.294344663619995117e-01
6.996290683746337891e-01 -4.362839758396148682e-01 4.003464579582214355e-01
-9.428592026233673096e-02 1.044436693191528320e-01 8.203379064798355103e-02
-5.435749888420104980e-01 5.583107471466064453e-02 3.816088140010833740e-01
-8.174981921911239624e-02 1.044436693191528320e-01 1.444091927260160446e-02
-5.457206368446350098e-01 -3.532133698463439941e-01 -4.438631832599639893e-01
-4.346568286418914795e-01 1.044436693191528320e-01 -1.426043361425399780e-01
4.177005961537361145e-02 -2.438206523656845093e-01 -3.505867719650268555e-01
-6.876863241195678711e-01 -2.787658274173736572e-01 3.899239301681518555e-01
5.135607123374938965e-01 9.316400438547134399e-02 -3.505867719650268555e-01
4.597229361534118652e-01 -3.772633373737335205e-01 3.898317515850067139e-01
6.711072921752929688e-01 1.885812133550643921e-01 4.201461970806121826e-01
5.260073542594909668e-01 3.934676945209503174e-01 3.309845924377441406e-02
2.142547257244586945e-02 4.127358794212341309e-01 -8.577325195074081421e-02
-2.011230438947677612e-01 -4.037423729896545410e-01 4.201461970806121826e-01
2.629123032093048096e-01 1.044436693191528320e-01 2.649375498294830322e-01
-1.529309600591659546e-01 -4.395329356193542480e-01 -2.735129892826080322e-01
-4.353374242782592773e-01 -3.772633373737335205e-01 2.040977627038955688e-01
-4.353599846363067627e-01 3.378656506538391113e-01 -3.505867719650268555e-01
6.225552558898925781e-01 -3.562305867671966553e-02 -2.083553075790405273e-01
-4.329122304916381836e-01 1.044436693191528320e-01 3.095158338546752930e-01
8.734812028706073761e-03 -2.292792797088623047e-01 3.623396456241607666e-01
-6.106135249137878418e-01 -1.373669654130935669e-01 3.019450902938842773e-01
1.046606227755546570e-01 4.127358794212341309e-01 1.936830580234527588e-01
-4.351393282413482666e-01 -3.721000850200653076e-01 3.623396456241607666e-01
2.876134216785430908e-01 3.934676945209503174e-01 4.215250313282012939e-01
-6.064996719360351562e-01 -3.895207345485687256e-01 -3.505867719650268555e-01
2.649628818035125732e-01 -3.582903146743774414e-01 3.623396456241607666e-01
4.932098686695098877e-01 4.127358794212341309e-01 2.619582712650299072e-01
6.418244838714599609e-01 3.367388546466827393e-01 1.509817540645599365e-01
5.440252423286437988e-01 4.058309793472290039e-01 4.559524059295654297e-01
-6.375060230493545532e-02 -4.543371200561523438e-01 4.040514528751373291e-01
6.996290683746337891e-01 1.416306644678115845e-01 -3.487195670604705811e-01
4.064872860908508301e-01 4.127358794212341309e-01 -2.499494403600692749e-01
3.266960680484771729e-01 -3.965325057506561279e-01 -2.846691012382507324e-01
6.225552558898925781e-01 -4.104874432086944580e-01 -3.399004042148590088e-01
2.674047648906707764e-01 8.517546206712722778e-02 -1.811771467328071594e-02
-2.057665139436721802e-01 8.517546206712722778e-02 1.605403423309326172e-01
-5.216736793518066406e-01 3.934676945209503174e-01 -1.862186491489410400e-01
1.379249393939971924e-01 3.934676945209503174e-01 -1.842602491378784180e-01
6.277322173118591309e-01 3.789861202239990234e-01 3.430724143981933594e-01
2.900709509849548340e-01 1.724004931747913361e-02 -7.236297130584716797e-01
-2.434801161289215088e-01 4.127358794212341309e-01 -3.429238200187683105e-01
6.418244838714599609e-01 1.148230805993080139e-01 2.577433586120605469e-01
-5.960496664047241211e-01 -2.750088870525360107e-01 3.623396456241607666e-01
-7.162205129861831665e-02 -3.965325057506561279e-01 3.470509946346282959e-01
3.435918828472495079e-03 8.517546206712722778e-02 -1.929107457399368286e-01
2.659611999988555908e-01 4.127358794212341309e-01 -1.394954323768615723e-01
7.992504397407174110e-04 3.591932654380798340e-01 4.201461970806121826e-01
-3.129262626171112061e-01 1.044436693191528320e-01 2.781412005424499512e-02
3.433586061000823975e-01 -3.936493396759033203e-01 3.623396456241607666e-01
-4.473035335540771484e-01 -2.904024720191955566e-01 3.623396456241607666e-01
1.069146394729614258e-02 -3.051308169960975647e-02 -3.120493888854980469e-01
-2.299233525991439819e-01 3.163938820362091064e-01 -3.347921073436737061e-01
1.659161895513534546e-01 -2.111368924379348755e-01 3.816088140010833740e-01
3.580411970615386963e-01 8.517546206712722778e-02 -2.202743738889694214e-01
-5.798803567886352539e-01 3.934676945209503174e-01 -8.936603367328643799e-02
-4.676181077957153320e-01 -1.575011163949966431e-01 3.623396456241607666e-01
6.225552558898925781e-01 1.453081816434860229e-01 3.461801707744598389e-01
3.635407984256744385e-01 -2.799501642584800720e-02 -6.345044970512390137e-01
-4.163290858268737793e-01 1.044436693191528320e-01 -9.319113194942474365e-02
-8.738474547863006592e-02 1.044436693191528320e-01 3.443315923213958740e-01
-4.814063310623168945e-01 -4.351817071437835693e-01 3.430724143981933594e-01
1.834368407726287842e-01 8.517546206712722778e-02 6.843777000904083252e-02
-3.256491571664810181e-02 7.764755189418792725e-02 -3.438603579998016357e-01
-5.446576476097106934e-01 1.044436693191528320e-01 -1.675712168216705322e-01
5.664717555046081543e-01 1.044436693191528320e-01 3.544805645942687988e-01
2.778832018375396729e-01 8.153845369815826416e-02 -7.384123206138610840e-01
5.094438791275024414e-01 1.044436693191528320e-01 -1.633307933807373047e-01
7.680831849575042725e-02 -4.092174768447875977e-01 -3.505867719650268555e-01
4.826372861862182617e-01 -3.327713012695312500e-01 -5.203221440315246582e-01
3.419758677482604980e-01 3.934676945209503174e-01 -1.047975495457649231e-01
-9.422904253005981445e-02 -4.543371200561523438e-01 -3.452754616737365723e-01
-6.876863241195678711e-01 -7.376807183027267456e-02 3.585630953311920166e-01
5.851182341575622559e-01 3.934676945209503174e-01 -2.075188010931015015e-01
-3.635651171207427979e-01 8.517546206712722778e-02 3.284947574138641357e-01
-6.106135249137878418e-01 1.096784844994544983e-01 3.338657692074775696e-02
2.577363252639770508e-01 -4.231616258621215820e-01 4.201461970806121826e-01
-2.335106432437896729e-01 -3.965325057506561279e-01 3.398303389549255371e-01
-6.047804951667785645e-01 3.428978100419044495e-02 -3.630599081516265869e-01
4.919467568397521973e-01 -2.276513725519180298e-01 3.623396456241607666e-01
6.326954364776611328e-01 2.842426300048828125e-01 3.430724143981933594e-01
6.225552558898925781e-01 -2.359046787023544312e-01 2.132395803928375244e-01
-3.978130519390106201e-01 -1.069349981844425201e-02 3.816088140010833740e-01
6.275694370269775391e-01 8.658500388264656067e-03 -2.735129892826080322e-01
-2.341108173131942749e-01 4.127358794212341309e-01 4.030452668666839600e-01
-4.669649899005889893e-01 1.044436693191528320e-01 3.704046905040740967e-01
6.418244838714599609e-01 1.518080681562423706e-01 -1.332312971353530884e-01
-5.623596906661987305e-01 4.127358794212341309e-01 8.375976979732513428e-02
6.440584063529968262e-01 4.127358794212341309e-01 9.839528053998947144e-02
4.245555028319358826e-02 -3.965325057506561279e-01 6.298819929361343384e-02
-8.139913529157638550e-02 8.517546206712722778e-02 -1.796491444110870361e-01
-6.106135249137878418e-01 8.933351188898086548e-02 -2.270233333110809326e-01
3.651716411113739014e-01 3.934676945209503174e-01 7.856809347867965698e-02
2.344601154327392578e-01 8.517546206712722778e-02 3.328175544738769531e-01
5.684075951576232910e-01 4.127358794212341309e-01 -1.687179668806493282e-03
4.384835958480834961e-01 4.127358794212341309e-01 -2.390513941645622253e-02
5.143737196922302246e-01 -3.772633373737335205e-01 -2.704474031925201416e-01
2.247515022754669189e-01 3.561541736125946045e-01 -3.505867719650268555e-01
3.457955718040466309e-01 4.041098952293395996e-01 -3.881140649318695068e-01
-4.364671409130096436e-01 -3.965325057506561279e-01 -2.759146392345428467e-01
-6.298817396163940430e-01 1.734465360641479492e-01 2.456173747777938843e-01
6.418244838714599609e-01 -2.565193474292755127e-01 2.878567874431610107e-01
2.966071367263793945e-01 1.044436693191528320e-01 -1.599092334508895874e-01
3.028736412525177002e-01 3.737738430500030518e-01 -3.120493888854980469e-01
-4.183728098869323730e-01 4.127358794212341309e-01 3.958579599857330322e-01
-1.587244123220443726e-02 3.579232990741729736e-01 -3.120493888854980469e-01
4.521083831787109375e-02 -6.869438290596008301e-02 3.816088140010833740e-01
2.864997088909149170e-02 -2.872839272022247314e-01 3.816088140010833740e-01
-4.063419401645660400e-01 3.934676945209503174e-01 1.095435395836830139e-01
-1.278160065412521362e-01 -3.772633373737335205e-01 -5.817778781056404114e-02
-9.214119613170623779e-02 -3.257977962493896484e-01 3.623396456241607666e-01
-8.852703124284744263e-02 -3.965325057506561279e-01 1.772841811180114746e-02
6.996290683746337891e-01 -4.171370714902877808e-02 3.963198661804199219e-01
-6.106135249137878418e-01 -3.877309858798980713e-01 9.434021264314651489e-02
4.298222959041595459e-01 -1.559143960475921631e-01 -5.692448019981384277e-01
-3.616979122161865234e-01 -3.222487270832061768e-01 -8.373618721961975098e-01
-6.106135249137878418e-01 -1.612286418676376343e-01 3.576098680496215820e-01
5.547184348106384277e-01 4.086543619632720947e-01 -1.193666830658912659e-01
5.221984386444091797e-01 1.044436693191528320e-01 -5.743031948804855347e-02
1.265256255865097046e-01 4.127358794212341309e-01 2.735722623765468597e-02
1.852648109197616577e-01 1.044436693191528320e-01 -2.810917235910892487e-02
-9.227652847766876221e-02 4.127358794212341309e-01 -3.246278688311576843e-02
-5.147216916084289551e-01 -4.543371200561523438e-01 -2.800628840923309326e-01
5.485117435455322266e-01 3.600739240646362305e-01 -3.120493888854980469e-01
1.146752163767814636e-01 -7.329088449478149414e-02 3.816088140010833740e-01
6.534885764122009277e-01 -5.069137811660766602e-01 -2.735129892826080322e-01
5.221092104911804199e-01 -2.682971656322479248e-01 3.623396456241607666e-01
-2.953320741653442383e-01 -2.351142764091491699e-01 3.816088140010833740e-01
3.880163729190826416e-01 4.127358794212341309e-01 3.804879188537597656e-01
-6.106135249137878418e-01 -3.502125442028045654e-01 -1.632268577814102173e-01
-4.982581734657287598e-01 3.934676945209503174e-01 3.038936853408813477e-01
2.603360712528228760e-01 8.517546206712722778e-02 3.795582652091979980e-01
6.225552558898925781e-01 2.608016729354858398e-01 -1.545067429542541504e-01
4.493258893489837646e-01 -3.772633373737335205e-01 1.634843051433563232e-01
-3.615341484546661377e-01 -3.965325057506561279e-01 2.934024930000305176e-01
-6.298817396163940430e-01 -3.726914525032043457e-01 1.487448513507843018e-01
6.669011712074279785e-01 -2.611275017261505127e-01 3.430724143981933594e-01
5.767443180084228516e-01 -2.329842448234558105e-01 3.623396456241607666e-01
2.198981493711471558e-01 4.127358794212341309e-01 -2.735718488693237305e-01
4.502549394965171814e-02 1.044436693191528320e-01 -2.809444963932037354e-01
6.087817549705505371e-01 -3.938954770565032959e-01 4.201461970806121826e-01
-1.810555905103683472e-01 3.934676945209503174e-01 4.012898802757263184e-01
6.418244838714599609e-01 -9.978622943162918091e-02 -5.545976012945175171e-02
-6.106135249137878418e-01 3.278245925903320312e-01 -2.480116486549377441e-01
6.360581517219543457e-01 -1.812813729047775269e-01 -2.735129892826080322e-01
-4.503779411315917969e-01 1.044436693191528320e-01 2.488143444061279297e-01
6.666923165321350098e-01 3.934676945209503174e-01 -3.864675164222717285e-01
1.466205418109893799e-01 -3.965325057506561279e-01 -2.161545753479003906e-01
-2.395417690277099609e-01 -3.772633373737335205e-01 -6.631410866975784302e-02
2.218310534954071045e-01 -4.108973741531372070e-01 -2.735129892826080322e-01
-6.234220862388610840e-01 -4.006434679031372070e-01 4.201461970806121826e-01
-6.748650670051574707e-01 -1.145909130573272705e-01 4.201461970806121826e-01
-4.835961461067199707e-01 -2.231716662645339966e-01 -5.767037868499755859e-01
-7.262237071990966797e-01 3.936932384967803955e-01 1.191835254430770874e-01
-1.383886039257049561e-01 1.044436693191528320e-01 3.293675780296325684e-01
-4.402662515640258789e-01 3.570789396762847900e-01 3.816088140010833740e-01
1.670871227979660034e-01 3.934676945209503174e-01 4.012800753116607666e-01
5.656078457832336426e-01 -3.965325057506561279e-01 5.024840682744979858e-02
-5.092966556549072266e-01 3.934676945209503174e-01 3.608725368976593018e-01
6.727949976921081543e-01 -1.831593513488769531e-01 -3.505867719650268555e-01
3.710046708583831787e-01 -1.825287789106369019e-01 -6.254509091377258301e-01
-4.517126381397247314e-01 8.517546206712722778e-02 2.092099934816360474e-01
5.103970766067504883e-01 1.044436693191528320e-01 1.227217838168144226e-01
-4.991378784179687500e-01 -1.028189510107040405e-01 -5.662155151367187500e-01
-4.713632762432098389e-01 1.044436693191528320e-01 -3.322443068027496338e-01
-5.533669590950012207e-01 -2.901540324091911316e-02 -4.502561688423156738e-01
-6.338279247283935547e-01 1.909014731645584106e-01 -2.735129892826080322e-01
4.911092519760131836e-01 8.517546206712722778e-02 3.036387264728546143e-01
-1.665455996990203857e-01 -4.525022804737091064e-01 4.201461970806121826e-01
-3.089300394058227539e-01 1.044436693191528320e-01 -2.454306371510028839e-02
5.010914802551269531e-01 -3.223497271537780762e-01 -4.676415026187896729e-01
-8.177462965250015259e-02 -2.020931541919708252e-01 3.816088140010833740e-01
6.225552558898925781e-01 -2.898728847503662109e-01 -2.697074087336659431e-03
-3.791401088237762451e-01 8.517546206712722778e-02 8.294287323951721191e-02
-6.106135249137878418e-01 -7.367452234029769897e-02 -3.329484462738037109e-01
-4.242107272148132324e-01 3.934676945209503174e-01 1.942861676216125488e-01
4.098715782165527344e-01 -2.061393857002258301e-01 -5.934467315673828125e-01
6.940402388572692871e-01 7.227858155965805054e-02 3.430724143981933594e-01
6.225552558898925781e-01 2.304787002503871918e-02 1.726143360137939453e-01
4.226987361907958984e-01 -3.965325057506561279e-01 -1.131611093878746033e-01
-3.045072257518768311e-01 -1.847755014896392822e-01 3.816088140010833740e-01
-1.816998869180679321e-01 3.474536836147308350e-01 -3.120493888854980469e-01
1.553249657154083252e-01 3.934676945209503174e-01 -2.805630266666412354e-01
2.785647511482238770e-01 -2.586562335491180420e-01 3.816088140010833740e-01
3.748528361320495605e-01 8.517546206712722778e-02 2.330147922039031982e-01
2.703634500503540039e-01 4.127358794212341309e-01 2.100063115358352661e-01
-1.112975999712944031e-01 3.934676945209503174e-01 -1.335496306419372559e-01
6.875207424163818359e-01 2.673342265188694000e-02 4.201461970806121826e-01
4.415148496627807617e-01 -5.856337770819664001e-02 -5.550603866577148438e-01
-2.123115062713623047e-01 3.934676945209503174e-01 2.943713665008544922e-01
6.132311224937438965e-01 -3.942119330167770386e-02 -3.618977963924407959e-01
1.782069355249404907e-01 3.934676945209503174e-01 3.316829204559326172e-01
-5.731715559959411621e-01 1.781697571277618408e-02 3.816088140010833740e-01
-1.692904978990554810e-01 -3.965325057506561279e-01 1.275280416011810303e-01
-9.360598400235176086e-03 4.127358794212341309e-01 -2.314922511577606201e-01
3.221241533756256104e-01 -3.501409292221069336e-01 -6.847451329231262207e-01
3.012623786926269531e-01 3.934676945209503174e-01 -2.493806630373001099e-01
-6.739765405654907227e-01 3.934676945209503174e-01 -9.505136311054229736e-02
-3.405125141143798828e-01 4.127358794212341309e-01 3.035582900047302246e-01
-3.182571828365325928e-01 8.517546206712722778e-02 3.003662228584289551e-01
6.609367728233337402e-01 3.934676945209503174e-01 -2.541280984878540039e-01
4.318232089281082153e-02 4.127358794212341309e-01 -3.569651767611503601e-02
6.696127057075500488e-01 2.561052441596984863e-01 -3.505867719650268555e-01
-2.905846238136291504e-01 3.872541785240173340e-01 -3.120493888854980469e-01
2.611755430698394775e-01 -3.772633373737335205e-01 -2.911571860313415527e-01
-6.876863241195678711e-01 1.499536186456680298e-01 -3.390560746192932129e-01
2.702398598194122314e-01 -3.965325057506561279e-01 6.069538742303848267e-02
6.418244838714599609e-01 1.102158874273300171e-01 -4.197486117482185364e-02
-3.107756674289703369e-01 1.044436693191528320e-01 3.520533740520477295e-01
6.121209859848022461e-01 -3.965325057506561279e-01 -8.311367034912109375e-02
6.225552558898925781e-01 -3.287711739540100098e-01 3.134395182132720947e-01
6.225552558898925781e-01 1.885409951210021973e-01 -2.313206344842910767e-01
6.489676833152770996e-01 3.934676945209503174e-01 3.518698737025260925e-02
4.326328933238983154e-01 3.934676945209503174e-01 7.084630429744720459e-02
4.291387796401977539e-01 8.517546206712722778e-02 -1.154734268784523010e-01
