5.017646551132202148e-01 1.113774180412292480e-01 8.718170225620269775e-02
-2.196515202522277832e-01 3.898817300796508789e-01 1.248270347714424133e-01
6.037135124206542969e-01 1.275772452354431152e-01 -8.491045236587524414e-02
2.663629651069641113e-01 6.235046982765197754e-01 -8.695892244577407837e-02
-1.413582116365432739e-01 -6.189413666725158691e-01 1.172949001193046570e-01
-2.571143507957458496e-01 4.206161797046661377e-01 -1.281783133745193481e-01
1.900686770677566528e-01 -6.189413666725158691e-01 1.230267137289047241e-01
2.405839860439300537e-01 1.838533021509647369e-02 8.437551558017730713e-02
-3.424424529075622559e-01 -4.408206045627593994e-01 -1.346678435802459717e-01
-7.565337419509887695e-01 -2.042921334505081177e-01 -9.189327061176300049e-02
-1.485927253961563110e-01 5.044230222702026367e-01 -1.501921862363815308e-01
-9.009233117103576660e-02 4.810606688261032104e-02 8.520704507827758789e-02
6.904072761535644531e-01 -6.041321158409118652e-02 -3.802315890789031982e-02
-3.558005392551422119e-02 6.235046982765197754e-01 -2.309039607644081116e-02
-3.008727356791496277e-02 2.426774799823760986e-01 -9.651621431112289429e-02
2.378086298704147339e-01 -4.223114810883998871e-03 -8.038158714771270752e-02
8.729550242424011230e-02 -6.189413666725158691e-01 -4.981639236211776733e-02
-5.370538234710693359e-01 -3.226239383220672607e-01 -1.092383861541748047e-01
-3.587215542793273926e-01 -5.925358533859252930e-01 1.808098256587982178e-01
5.678786635398864746e-01 3.090685904026031494e-01 -1.060626357793807983e-01
-2.505259513854980469e-01 -5.929709598422050476e-02 8.564767241477966309e-02
-4.160729646682739258e-01 1.358984112739562988e-01 -8.562528342008590698e-02
6.904072761535644531e-01 4.464015364646911621e-02 4.899678751826286316e-02
3.507204120978713036e-03 3.724209964275360107e-01 1.213624849915504456e-01
6.171144843101501465e-01 6.235046982765197754e-01 -1.406737565994262695e-01
-6.979359686374664307e-02 4.806665778160095215e-01 -1.439464241266250610e-01
3.691106736660003662e-01 6.235046982765197754e-01 -4.127027094364166260e-02
6.904072761535644531e-01 1.193314716219902039e-01 -7.403449714183807373e-02
3.223126381635665894e-02 6.235046982765197754e-01 2.533444575965404510e-02
3.807152509689331055e-01 -4.499044734984636307e-03 -8.038951456546783447e-02
-3.489437401294708252e-01 1.232586149126291275e-02 -8.048290759325027466e-02
-4.333320260047912598e-01 -4.424016475677490234e-01 -1.350838989019393921e-01
-1.967565864324569702e-01 -1.069032475352287292e-01 -8.352629840373992920e-02
3.189477920532226562e-01 6.235046982765197754e-01 -1.513179987668991089e-01
4.326853156089782715e-01 -6.122648715972900391e-01 -1.855688542127609253e-01
-3.154309988021850586e-01 6.235046982765197754e-01 5.121149122714996338e-02
-2.055104374885559082e-01 -6.189413666725158691e-01 1.014719754457473755e-01
-6.795170307159423828e-01 -4.420932531356811523e-01 -1.350026428699493408e-01
-5.132641196250915527e-01 -4.588060379028320312e-01 -1.393972039222717285e-01
-7.414695024490356445e-01 3.905425369739532471e-01 1.249582096934318542e-01
1.411216557025909424e-01 -6.189413666725158691e-01 -1.115350276231765747e-01
6.904072761535644531e-01 -2.734948098659515381e-01 4.368671402335166931e-02
-6.420423984527587891e-01 -2.732755541801452637e-01 1.048709228634834290e-01
4.155280590057373047e-01 -6.189413666725158691e-01 -6.762847304344177246e-02
-6.631370186805725098e-01 -6.189413666725158691e-01 1.311658024787902832e-01
6.904072761535644531e-01 -4.465954899787902832e-01 3.727677837014198303e-02
3.597626090049743652e-01 6.235046982765197754e-01 1.006662920117378235e-01
-4.883945882320404053e-01 -5.149219632148742676e-01 1.563495397567749023e-01
-6.063778996467590332e-01 3.034258484840393066e-01 -1.052520647644996643e-01
-8.027493208646774292e-02 -5.982564389705657959e-02 8.566246181726455688e-02
-4.482356905937194824e-01 -5.442697182297706604e-02 8.551140129566192627e-02
-5.769591927528381348e-01 -2.192751169204711914e-01 -9.380733966827392578e-02
2.246455252170562744e-01 -6.189413666725158691e-01 -2.769914455711841583e-02
9.135328978300094604e-02 -3.683256804943084717e-01 1.214554905891418457e-01
4.881365299224853516e-01 3.992621302604675293e-01 -1.238493546843528748e-01
-1.884324848651885986e-01 -6.189413666725158691e-01 -1.214812546968460083e-01
6.287366747856140137e-01 -6.189413666725158691e-01 1.034886389970779419e-01
3.148469328880310059e-01 -4.759456813335418701e-01 1.463220566511154175e-01
-6.740357875823974609e-01 -5.667902231216430664e-01 1.726257205009460449e-01
-2.395253926515579224e-01 6.235046982765197754e-01 -3.216065466403961182e-02
-4.415259063243865967e-01 -6.189413666725158691e-01 -1.347344070672988892e-01
-2.278062403202056885e-01 -5.297395586967468262e-01 -1.587453633546829224e-01
5.467537045478820801e-01 -3.314139842987060547e-01 1.141318902373313904e-01
-2.651290893554687500e-01 4.307567700743675232e-02 8.506626635789871216e-02
-7.033202052116394043e-02 5.564361214637756348e-01 1.678836494684219360e-01
-5.642650127410888672e-01 1.553336977958679199e-01 -8.729499578475952148e-02
5.497935414314270020e-02 1.604693233966827393e-01 9.131262451410293579e-02
-5.530324578285217285e-01 -6.189413666725158691e-01 5.597011744976043701e-02
6.440829038619995117e-01 5.304467082023620605e-01 -1.574913114309310913e-01
-6.986781954765319824e-01 5.320355892181396484e-01 1.601273417472839355e-01
-4.377011060714721680e-01 2.360890805721282959e-01 -9.556877613067626953e-02
-7.132989764213562012e-01 6.235046982765197754e-01 -2.180384658277034760e-02
-3.653902411460876465e-01 2.526991069316864014e-01 -9.795685112476348877e-02
-2.171394973993301392e-01 4.529713466763496399e-02 8.512843400239944458e-02
4.746288657188415527e-01 -4.043944776058197021e-01 -1.258151084184646606e-01
1.919110864400863647e-01 3.142698109149932861e-01 1.100006774067878723e-01
1.940677314996719360e-01 -1.601645350456237793e-01 -8.810215443372726440e-02
-3.860159516334533691e-01 6.062034964561462402e-01 1.837036460638046265e-01
3.481658399105072021e-01 -4.611673355102539062e-01 -1.400178521871566772e-01
5.880981683731079102e-01 -5.159156322479248047e-01 1.566050499677658081e-01
-7.561969757080078125e-01 -6.189413666725158691e-01 3.863704204559326172e-02
-6.680220961570739746e-01 -5.633540749549865723e-01 -1.696715354919433594e-01
2.248473651707172394e-02 -6.189413666725158691e-01 2.791038155555725098e-02
6.239858269691467285e-01 3.987902700901031494e-01 -1.237534135580062866e-01
-3.069355487823486328e-01 -6.189413666725158691e-01 -6.828633695840835571e-02
6.900880932807922363e-01 6.235046982765197754e-01 1.663065403699874878e-01
3.663343489170074463e-01 5.098395943641662598e-01 -1.516165733337402344e-01
-3.824829161167144775e-01 -6.189413666725158691e-01 5.103224143385887146e-02
-5.638362169265747070e-01 -2.014228105545043945e-01 9.514270722866058350e-02
2.145632207393646240e-01 -2.986345291137695312e-01 1.084411889314651489e-01
-1.680319309234619141e-01 -6.189413666725158691e-01 -4.323122650384902954e-02
4.440843164920806885e-01 6.185560226440429688e-01 -1.861307919025421143e-01
-1.659084297716617584e-02 1.376791447401046753e-01 -8.577819913625717163e-02
1.452724486589431763e-01 6.235046982765197754e-01 8.561204373836517334e-02
-1.370022296905517578e-01 -3.101089000701904297e-01 -1.068693101406097412e-01
6.272927522659301758e-01 -2.347358316183090210e-01 -9.603054821491241455e-02
5.231441259384155273e-01 -6.189413666725158691e-01 1.428839564323425293e-01
1.246408671140670776e-01 8.886966109275817871e-02 -8.267108350992202759e-02
4.778418242931365967e-01 6.235046982765197754e-01 3.240146115422248840e-02
-4.520673751831054688e-01 -1.414840221405029297e-01 9.009910374879837036e-02
-6.982170939445495605e-01 -2.452234178781509399e-01 -9.753883630037307739e-02
-2.389331161975860596e-01 -5.638249516487121582e-01 1.716829836368560791e-01
6.229295134544372559e-01 -3.585556745529174805e-01 1.195171400904655457e-01
-4.055080413818359375e-01 6.235046982765197754e-01 -8.004228025674819946e-02
-5.404751375317573547e-02 -5.086517333984375000e-01 1.547362208366394043e-01
-4.710200130939483643e-01 -5.568674802780151367e-01 -1.675628572702407837e-01
6.904072761535644531e-01 6.206206679344177246e-01 -1.351651549339294434e-01
3.917187750339508057e-01 -5.506657361984252930e-01 1.675008684396743774e-01
-4.350813850760459900e-02 -6.189413666725158691e-01 -9.600070118904113770e-02
1.266516596078872681e-01 -5.641000270843505859e-01 1.717710942029953003e-01
4.210396111011505127e-01 8.623126894235610962e-02 8.627352118492126465e-02
-1.326138377189636230e-01 -5.702890157699584961e-01 1.737378239631652832e-01
-1.184748336672782898e-01 -3.757070302963256836e-01 1.229200065135955811e-01
-5.475952625274658203e-01 1.060440391302108765e-01 8.682781457901000977e-02
6.904072761535644531e-01 1.679280102252960205e-01 -7.580235134810209274e-03
2.444430589675903320e-01 1.662167906761169434e-01 9.179612994194030762e-02
3.004699051380157471e-01 3.527810871601104736e-01 -1.144268736243247986e-01
-4.230412244796752930e-01 1.336521003395318985e-03 8.395142853260040283e-02
5.919837579131126404e-02 -2.635045349597930908e-01 1.034954860806465149e-01
5.892885327339172363e-01 -6.189413666725158691e-01 -3.030122071504592896e-02
-6.788072586059570312e-01 -4.172981381416320801e-01 1.312343180179595947e-01
1.601889915764331818e-02 -6.189413666725158691e-01 1.509123891592025757e-01
-5.498694181442260742e-01 1.979233473539352417e-01 9.446419030427932739e-02
1.550240162760019302e-02 -4.094439446926116943e-01 -1.268381178379058838e-01
-3.894501328468322754e-01 6.235046982765197754e-01 1.205088272690773010e-01
6.904072761535644531e-01 3.247436881065368652e-01 -2.595013380050659180e-02
-5.947018265724182129e-01 2.974816262722015381e-01 1.076364815235137939e-01
-4.553037881851196289e-01 -2.055696845054626465e-01 -9.200301021337509155e-02
1.873638033866882324e-01 4.939109385013580322e-01 1.497699469327926636e-01
-7.684046030044555664e-01 -6.189413666725158691e-01 1.626833975315093994e-01
3.939723372459411621e-01 -1.518443524837493896e-01 -8.738731592893600464e-02
-7.319039106369018555e-02 4.773038625717163086e-01 1.454977691173553467e-01
7.606486976146697998e-02 6.235046982765197754e-01 -4.514009878039360046e-02
6.904072761535644531e-01 -3.932735025882720947e-01 -2.687775064259767532e-03
-4.344558715820312500e-01 -3.634886741638183594e-01 -1.175223439931869507e-01
-4.583082199096679688e-01 4.719929993152618408e-01 1.441311389207839966e-01
3.340237736701965332e-01 -5.195049569010734558e-02 -8.174605667591094971e-02
4.349516034126281738e-01 -6.189413666725158691e-01 1.609379202127456665e-01
6.274415254592895508e-01 -2.168815582990646362e-01 9.693009406328201294e-02
6.904072761535644531e-01 4.402668476104736328e-01 2.142839506268501282e-02
2.378996908664703369e-01 6.235046982765197754e-01 1.744407266378402710e-01
-7.610242366790771484e-01 1.346629559993743896e-01 -8.551916480064392090e-02
-8.286281675100326538e-02 1.672050915658473969e-02 -8.060850203037261963e-02
6.904072761535644531e-01 -2.617570757865905762e-01 -1.920980028808116913e-02
3.200403153896331787e-01 -6.189413666725158691e-01 1.810026913881301880e-01
6.156244874000549316e-01 -4.555921256542205811e-01 -1.385523527860641479e-01
-7.408197969198226929e-03 1.589852124452590942e-01 9.118770807981491089e-02
3.573827445507049561e-01 5.474023222923278809e-01 1.650123447179794312e-01
2.396304756402969360e-01 4.677736461162567139e-01 -1.405562907457351685e-01
-2.313822507858276367e-02 6.235046982765197754e-01 -1.308773159980773926e-01
3.730695843696594238e-01 1.913388669490814209e-01 9.391009807586669922e-02
-1.738166213035583496e-01 6.235046982765197754e-01 -1.671090535819530487e-02
1.941568106412887573e-01 -1.816155016422271729e-01 9.347593039274215698e-02
5.504120588302612305e-01 6.235046982765197754e-01 -1.432102471590042114e-01
-6.516469717025756836e-01 3.900109529495239258e-01 1.248524934053421021e-01
-5.095978975296020508e-01 6.160264015197753906e-01 1.868265122175216675e-01
-6.555116921663284302e-02 -3.215695917606353760e-01 1.121788546442985535e-01
-4.838473498821258545e-01 -6.189413666725158691e-01 -7.658747956156730652e-03
6.904072761535644531e-01 4.873195886611938477e-01 -8.797851204872131348e-02
-3.737550228834152222e-02 -6.189413666725158691e-01 1.735635697841644287e-01
3.805870413780212402e-01 2.133806794881820679e-02 8.445814251899719238e-02
-3.023646771907806396e-02 3.090627193450927734e-01 -1.060626357793807983e-01
6.652039289474487305e-01 5.601453129202127457e-03 8.401790261268615723e-02
4.440500736236572266e-01 4.020002782344818115e-01 1.272313594818115234e-01
4.723813012242317200e-02 6.235046982765197754e-01 1.691161543130874634e-01
-6.206002235412597656e-01 2.533990740776062012e-01 1.014289036393165588e-01
6.904072761535644531e-01 3.359841108322143555e-01 6.867329031229019165e-02
-7.184697985649108887e-01 3.437492251396179199e-01 1.156737506389617920e-01
1.317275613546371460e-01 4.736033678054809570e-01 -1.420893371105194092e-01
5.417435616254806519e-02 -2.961861193180084229e-01 -1.048673316836357117e-01
-1.708288192749023438e-01 5.687622427940368652e-01 1.718024313449859619e-01
-4.216217100620269775e-01 -6.189413666725158691e-01 1.187799870967864990e-01
1.297804117202758789e-01 6.235046982765197754e-01 -4.298394173383712769e-02
5.152282714843750000e-01 4.806753695011138916e-01 -1.439483761787414551e-01
6.424186825752258301e-01 1.961553394794464111e-01 9.431538730859756470e-02
-3.807804584503173828e-01 -3.043565154075622559e-01 -1.060420870780944824e-01
6.904072761535644531e-01 -5.929215550422668457e-01 2.984343655407428741e-02
-3.966366648674011230e-01 4.496521353721618652e-01 -1.357907056808471680e-01
6.728866137564182281e-03 5.334056168794631958e-02 -8.165541291236877441e-02
-7.613061666488647461e-01 4.368208944797515869e-01 -1.324172168970108032e-01
-7.041838169097900391e-01 -6.169442534446716309e-01 -1.870901733636856079e-01
-2.161076813936233521e-01 2.593286335468292236e-01 1.022639498114585876e-01
-6.362322568893432617e-01 1.845478266477584839e-01 -8.980485796928405762e-02
-5.013942122459411621e-01 -2.659176588058471680e-01 1.038351878523826599e-01
2.828270792961120605e-01 -5.493598580360412598e-01 -1.651223152875900269e-01
-6.971275210380554199e-01 1.009113565087318420e-01 -8.301527798175811768e-02
-6.478437781333923340e-01 -1.130188032984733582e-01 8.770378679037094116e-02
3.255743682384490967e-01 3.951710462570190430e-01 -1.230201795697212219e-01
-7.607187628746032715e-01 -2.274631410837173462e-01 9.841997176408767700e-02
8.529058843851089478e-02 -4.426414966583251953e-01 -1.351465433835983276e-01
4.298562929034233093e-02 -5.773267745971679688e-01 1.759757399559020996e-01
-5.924394726753234863e-01 -3.660349249839782715e-01 -1.180382594466209412e-01
4.738917052745819092e-01 -3.159601390361785889e-01 1.110657826066017151e-01
5.820637941360473633e-01 3.514702916145324707e-01 1.172058135271072388e-01
-4.014522135257720947e-01 5.434336066246032715e-01 -1.617135703563690186e-01
-1.516088992357254028e-01 -1.847804784774780273e-01 9.374219924211502075e-02
1.815517246723175049e-01 3.154915571212768555e-01 -1.069867834448814392e-01
-2.626298069953918457e-01 4.869475662708282471e-01 1.479784548282623291e-01
5.558237433433532715e-01 -1.818602383136749268e-01 -8.996608853340148926e-02
-1.516128182411193848e-01 1.091698631644248962e-01 8.699589967727661133e-02
-1.030640862882137299e-02 6.085197329521179199e-01 1.844398230314254761e-01
-8.006050251424312592e-03 -2.797454893589019775e-01 -1.025031432509422302e-01
6.816690564155578613e-01 2.938673198223114014e-01 1.071274280548095703e-01
-6.423860192298889160e-01 -6.189413666725158691e-01 -8.406756073236465454e-02
-5.517117977142333984e-01 4.740664064884185791e-01 1.446646749973297119e-01
5.013064742088317871e-01 -4.987544417381286621e-01 -1.499024182558059692e-01
-7.235995531082153320e-01 6.235046982765197754e-01 -1.204993650317192078e-01
6.904072761535644531e-01 5.656853318214416504e-01 -6.121267005801200867e-02
3.808004260063171387e-01 -5.208672285079956055e-01 -1.558613479137420654e-01
9.823538362979888916e-02 4.874762296676635742e-01 1.481145173311233521e-01
5.903115272521972656e-01 4.310587644577026367e-01 1.336004585027694702e-01
-4.171341657638549805e-01 -6.189413666725158691e-01 -9.916924871504306793e-03
-4.623993039131164551e-01 -6.189413666725158691e-01 -9.058509021997451782e-02
6.561965346336364746e-01 3.468055427074432373e-01 -1.132159009575843811e-01
-2.249731421470642090e-01 2.491606771945953369e-02 -8.084277063608169556e-02
6.016166880726814270e-02 1.694395393133163452e-01 -8.850685507059097290e-02
6.904072761535644531e-01 -9.067003428936004639e-02 2.748923376202583313e-02
4.722059071063995361e-01 -3.482339531183242798e-02 8.496298640966415405e-02
-6.310310959815979004e-01 6.235046982765197754e-01 1.273556798696517944e-01
5.154260396957397461e-01 6.235046982765197754e-01 1.341144293546676636e-01
1.984730362892150879e-01 -2.860529124736785889e-01 -1.034096553921699524e-01
-3.919210433959960938e-01 -2.775124609470367432e-01 1.054671108722686768e-01
-6.927583813667297363e-01 5.963659286499023438e-01 -1.789178103208541870e-01
-1.060888320207595825e-01 -6.189413666725158691e-01 1.898549869656562805e-02
-4.981949925422668457e-01 -9.918512403964996338e-02 -8.309643715620040894e-02
-3.129894733428955078e-01 -3.409745395183563232e-01 -1.129584386944770813e-01
1.485695838928222656e-01 -6.581021845340728760e-02 8.582986146211624146e-02
-1.577371805906295776e-01 -7.124687731266021729e-02 -8.229770511388778687e-02
6.613419055938720703e-01 -4.651340544223785400e-01 -1.410614252090454102e-01
1.509827226400375366e-01 6.092676520347595215e-01 -1.831116676330566406e-01
-3.446597754955291748e-01 -5.982667207717895508e-01 -1.810186505317687988e-01
4.172490835189819336e-01 6.235046982765197754e-01 1.510284468531608582e-02
-1.569186337292194366e-02 -1.921970844268798828e-01 9.436639398336410522e-02
2.353455573320388794e-01 5.728239417076110840e-01 -1.712662577629089355e-01
-7.492012977600097656e-01 -1.263483166694641113e-01 -8.519689738750457764e-02
5.045957565307617188e-01 -6.189413666725158691e-01 2.525113523006439209e-02
-1.969367116689682007e-01 4.014569520950317383e-01 -1.242947876453399658e-01
3.213589787483215332e-01 3.166721761226654053e-01 1.103384122252464294e-01
1.920060366392135620e-01 6.235046982765197754e-01 -1.244616508483886719e-02
1.367114335298538208e-01 2.155005782842636108e-01 -9.260830283164978027e-02
-7.074232101440429688e-01 -3.495913445949554443e-01 -1.147048994898796082e-01
4.843451455235481262e-02 2.226920127868652344e-01 9.710561484098434448e-02
4.331591427326202393e-01 6.235046982765197754e-01 1.538825631141662598e-01
2.940890789031982422e-01 6.257352232933044434e-02 -8.191933482885360718e-02
-3.193106055259704590e-01 3.011468350887298584e-01 -1.049241125583648682e-01
-7.009728550910949707e-01 2.153870165348052979e-01 9.607692807912826538e-02
-5.829083323478698730e-01 5.352592468261718750e-01 1.611523181200027466e-01
2.041921466588973999e-01 -4.392669796943664551e-01 1.368858665227890015e-01
-7.062661051750183105e-01 5.408530235290527344e-01 -1.608745902776718140e-01
8.747562766075134277e-02 -5.102983713150024414e-01 -1.529372036457061768e-01
2.182031236588954926e-02 -1.919680088758468628e-01 -9.083442389965057373e-02
8.100569248199462891e-02 4.040218293666839600e-01 -1.248146072030067444e-01
-3.326391577720642090e-01 -6.737303733825683594e-02 8.587361872196197510e-02
3.734308481216430664e-01 -4.892037808895111084e-01 1.497327387332916260e-01
-1.165223941206932068e-01 1.854572743177413940e-01 9.341523796319961548e-02
5.023304820060729980e-01 -6.189413666725158691e-01 7.513491809368133545e-02
6.412732601165771484e-01 -3.451439142227172852e-01 -1.138032823801040649e-01
5.043882727622985840e-01 -5.787658691406250000e-01 -1.746808737516403198e-01
-1.306893080472946167e-01 -4.474364221096038818e-01 -1.364074647426605225e-01
4.969608783721923828e-01 -4.401441514492034912e-01 1.371120065450668335e-01
2.737081050872802734e-01 2.710350155830383301e-01 -1.005941703915596008e-01
4.133175611495971680e-01 4.610491991043090820e-01 1.413156539201736450e-01
-6.212345957756042480e-01 -8.946757018566131592e-02 -8.281860500574111938e-02
-5.576746463775634766e-01 3.615007102489471436e-01 -1.161948814988136292e-01
-4.685873389244079590e-01 5.309214591979980469e-01 1.597729623317718506e-01
-2.549978494644165039e-01 -5.743889212608337402e-01 -1.732584536075592041e-01
3.044905066490173340e-01 3.865963518619537354e-01 1.241750419139862061e-01
-1.794064640998840332e-01 5.932215452194213867e-01 -1.778957694768905640e-01
6.788486838340759277e-01 2.293342649936676025e-01 -9.459754824638366699e-02
5.319674611091613770e-01 -6.189413666725158691e-01 -1.076886951923370361e-01
6.084095835685729980e-01 -2.820656299591064453e-01 1.061083301901817322e-01
5.247535109519958496e-01 -3.666947185993194580e-01 -1.181723698973655701e-01
-1.680103987455368042e-01 6.235046982765197754e-01 4.448084905743598938e-02
-7.633982300758361816e-01 5.839170143008232117e-02 8.549475669860839844e-02
2.930797636508941650e-01 -4.071522057056427002e-01 1.291589289903640747e-01
1.120710149407386780e-01 2.883890271186828613e-01 1.063560023903846741e-01
-3.091989159584045410e-01 -3.580916523933410645e-01 1.194251254200935364e-01
-5.668504238128662109e-01 -5.686257481575012207e-01 1.732091903686523438e-01
2.019170224666595459e-01 1.738546490669250488e-01 9.243891388177871704e-02
5.135219097137451172e-01 5.156086087226867676e-01 1.553519815206527710e-01
-7.672797441482543945e-01 -4.945008754730224609e-01 1.510954648256301880e-01
-5.837551355361938477e-01 -4.740641415119171143e-01 1.458384394645690918e-01
-3.908794224262237549e-01 2.866944372653961182e-01 1.061181128025054932e-01
1.357785016298294067e-01 4.739259928464889526e-02 8.518707752227783203e-02
-1.813712567090988159e-01 6.235046982765197754e-01 1.190629005432128906e-01
4.905036091804504395e-01 -2.230108231306076050e-01 9.779313951730728149e-02
-5.973744392395019531e-01 4.671265780925750732e-01 -1.403859555721282959e-01
-4.105829596519470215e-01 -4.970892369747161865e-01 1.517621278762817383e-01
6.748780012130737305e-01 6.235046982765197754e-01 3.105431050062179565e-02
-7.792357355356216431e-02 -5.625944137573242188e-01 1.712923943996429443e-01
-7.312305569648742676e-01 2.544475197792053223e-01 1.015767231583595276e-01
2.752391993999481201e-01 -3.605483099818229675e-02 8.499745279550552368e-02
-4.272105991840362549e-01 -3.837805390357971191e-01 1.245215982198715210e-01
-1.264749281108379364e-02 -6.906516849994659424e-02 -8.223534375429153442e-02
5.703564286231994629e-01 -9.345791488885879517e-02 8.660333603620529175e-02
5.891789197921752930e-01 -1.302710175514221191e-01 -8.553384989500045776e-02
-1.354405879974365234e-01 -3.631254434585571289e-01 -1.174489259719848633e-01
6.430246233940124512e-01 5.245357751846313477e-01 1.577435731887817383e-01
3.522843122482299805e-01 3.438676595687866211e-01 -1.126197203993797302e-01
-6.326375603675842285e-01 -2.108570486307144165e-01 9.608182311058044434e-02
-1.105554327368736267e-01 -2.662799060344696045e-01 1.038860902190208435e-01
1.072721630334854126e-01 -4.675354361534118652e-01 1.441585421562194824e-01
1.993707567453384399e-01 3.859052062034606934e-01 -1.211415603756904602e-01
-4.792080521583557129e-01 2.771642804145812988e-01 1.047759652137756348e-01
1.124929487705230713e-01 -6.189413666725158691e-01 1.671220213174819946e-01
4.822471141815185547e-01 -6.189413666725158691e-01 -7.577323168516159058e-02
3.913976848125457764e-01 1.442763358354568481e-01 -8.634511381387710571e-02
-5.335119366645812988e-01 4.284977912902832031e-01 -1.302282512187957764e-01
5.226047039031982422e-01 -2.810895740985870361e-01 -1.026959940791130066e-01
4.718280136585235596e-01 -3.702855706214904785e-01 1.218441352248191833e-01
-5.707623958587646484e-01 -2.828575670719146729e-01 -1.029505282640457153e-01
-2.887680232524871826e-01 2.691309452056884766e-01 1.036442890763282776e-01
4.064550697803497314e-01 2.585503458976745605e-01 -9.879875928163528442e-02
-7.620756626129150391e-01 -3.526613712310791016e-01 1.183472871780395508e-01
-1.053196564316749573e-01 6.184502840042114258e-01 -1.860965192317962646e-01
4.635990411043167114e-02 -1.656129024922847748e-02 8.445207029581069946e-02
-1.901348978281021118e-01 -1.775283515453338623e-01 -8.959389477968215942e-02
-7.164149880409240723e-01 6.140557527542114258e-01 1.861999928951263428e-01
6.698510646820068359e-01 8.542302995920181274e-02 8.625090867280960083e-02
-3.963097035884857178e-01 2.308819890022277832e-01 9.825873374938964844e-02
3.743854910135269165e-02 4.275932312011718750e-01 1.327086389064788818e-01
-6.901132464408874512e-01 -3.006188571453094482e-01 -1.055046319961547852e-01
-4.550904035568237305e-01 3.865415453910827637e-01 1.241642758250236511e-01
-2.461666315793991089e-01 -4.428578317165374756e-01 1.378099918365478516e-01
3.217017650604248047e-02 -6.189413666725158691e-01 -8.304954320192337036e-02
5.650396943092346191e-01 2.937371134757995605e-01 1.071098074316978455e-01
5.687665939331054688e-01 -6.189413666725158691e-01 1.451174821704626083e-02
2.275364249944686890e-01 6.235046982765197754e-01 -4.367606714367866516e-02
-3.435388803482055664e-01 -1.130070537328720093e-01 -8.405062556266784668e-02
1.131733357906341553e-01 4.298238456249237061e-02 -8.135927468538284302e-02
2.751765549182891846e-01 -6.189413666725158691e-01 -1.328528523445129395e-01
6.089529395103454590e-01 -6.189413666725158691e-01 4.016754776239395142e-02
-1.252334713935852051e-01 3.086163103580474854e-01 1.092047840356826782e-01
-9.885480254888534546e-02 2.117922753095626831e-01 -9.214545786380767822e-02
-2.669822573661804199e-01 5.859605669975280762e-01 -1.755355149507522583e-01
6.904072761535644531e-01 -5.147203207015991211e-01 -3.387217223644256592e-02
-3.513832688331604004e-01 6.235046982765197754e-01 -9.665451443652273156e-07
-1.053186804056167603e-01 -8.918827772140502930e-02 -8.281058073043823242e-02
-6.974152922630310059e-01 -6.189413666725158691e-01 -3.324397280812263489e-02
-6.299630403518676758e-01 -5.160331130027770996e-01 -1.544447839260101318e-01
6.728839278221130371e-01 2.968815267086029053e-01 -1.043102964758872986e-01
3.154822885990142822e-01 -3.098348081111907959e-01 -1.068291664123535156e-01
-6.994104385375976562e-01 -2.878639996051788330e-01 1.069247797131538391e-01
4.251580834388732910e-01 -6.374526768922805786e-03 8.416709303855895996e-02
-5.607681274414062500e-01 1.344118791166692972e-04 -8.025705814361572266e-02
2.582767307758331299e-01 -1.295632272958755493e-01 -8.547305315732955933e-02
-5.777805447578430176e-01 -7.151017431169748306e-03 8.418883383274078369e-02
-4.059700965881347656e-01 5.583392381668090820e-01 1.684886366128921509e-01
-6.762913465499877930e-01 -1.619442999362945557e-01 9.182070195674896240e-02
4.953299164772033691e-01 -2.069999426603317261e-01 -9.212587028741836548e-02
6.411176323890686035e-01 -6.189413666725158691e-01 1.482104659080505371e-01
-6.360335350036621094e-01 -3.697736654430627823e-03 8.409219980239868164e-02
-5.745089054107666016e-01 2.596321105957031250e-01 -9.895440936088562012e-02
-2.863842546939849854e-01 -4.881650805473327637e-01 1.494655013084411621e-01
6.112524867057800293e-01 6.235046982765197754e-01 1.321506351232528687e-01
-2.829020917415618896e-01 -1.828431338071823120e-01 9.357929974794387817e-02
5.461899563670158386e-02 -6.189413666725158691e-01 1.219919547438621521e-01
-3.097814023494720459e-01 1.646122783422470093e-01 9.166113287210464478e-02
-1.112222969532012939e-01 1.192404180765151978e-01 -8.419413864612579346e-02
2.514700293540954590e-01 -5.065528154373168945e-01 1.541968137025833130e-01
2.676238417625427246e-01 -1.146859750151634216e-01 8.784406632184982300e-02
-3.260380029678344727e-01 -2.388660758733749390e-01 -9.662438929080963135e-02
-1.698107123374938965e-01 3.075776398181915283e-01 -1.058482453227043152e-01
-3.573106601834297180e-02 4.132901504635810852e-02 8.501742035150527954e-02
1.476415395736694336e-01 -3.546437323093414307e-01 -1.157298684120178223e-01
-4.918131232261657715e-01 3.066750168800354004e-01 -1.057190299034118652e-01
-4.506047964096069336e-01 5.026105046272277832e-02 -8.156739175319671631e-02
6.624031662940979004e-01 6.235046982765197754e-01 1.067828312516212463e-01
8.562343567609786987e-02 -2.390838414430618286e-02 -8.094438910484313965e-02
4.969197213649749756e-01 -4.459219574928283691e-01 -1.360099911689758301e-01
5.955178290605545044e-02 1.057689562439918518e-01 8.682017773389816284e-02
-6.849923133850097656e-01 -6.189413666725158691e-01 1.881001442670822144e-01
2.423363327980041504e-01 -3.990229368209838867e-01 1.275455951690673828e-01
-6.013343334197998047e-01 -6.189413666725158691e-01 1.860370300710201263e-02
-4.601242244243621826e-01 4.510344266891479492e-01 -1.361548751592636108e-01
5.853746533393859863e-01 6.235046982765197754e-01 -1.024130731821060181e-01
-4.876604080200195312e-01 -4.187225401401519775e-01 1.316004544496536255e-01
-4.029294252395629883e-01 -1.848666369915008545e-01 -9.022434055805206299e-02
-5.427592396736145020e-01 -4.258709251880645752e-01 1.334399133920669556e-01
3.631938397884368896e-01 2.295946627855300903e-01 -9.463485330343246460e-02
-6.661972999572753906e-01 2.231756150722503662e-01 -9.371188282966613770e-02
3.972361981868743896e-01 2.381488084793090820e-01 9.928204119205474854e-02
-3.172928467392921448e-02 -6.189413666725158691e-01 4.122335836291313171e-02
-6.967828869819641113e-01 3.320007026195526123e-01 -1.102144122123718262e-01
-2.284102737903594971e-01 -3.570568859577178955e-01 -1.162183731794357300e-01
6.904072761535644531e-01 2.208564579486846924e-01 2.523718168959021568e-03
7.086088415235280991e-03 2.765201330184936523e-01 1.046849265694618225e-01
5.141131877899169922e-01 4.311400055885314941e-01 1.336210370063781738e-01
5.060691237449645996e-01 -5.231902599334716797e-01 1.587665975093841553e-01
2.951561212539672852e-01 -6.060132384300231934e-01 -1.835365444421768188e-01
-4.066700637340545654e-01 3.560919463634490967e-01 1.181221231818199158e-01
5.921216607093811035e-01 6.235046982765197754e-01 2.284720167517662048e-02
5.991055965423583984e-01 1.508539766073226929e-01 9.050340950489044189e-02
-5.289950370788574219e-01 6.235046982765197754e-01 -1.800073981285095215e-01
6.904072761535644531e-01 2.678412012755870819e-02 1.220962591469287872e-02
-8.285281807184219360e-02 -3.546398282051086426e-01 -1.157288923859596252e-01
6.861762404441833496e-01 -1.364443451166152954e-01 -8.606425672769546509e-02
-4.989888966083526611e-01 -3.416788578033447266e-02 8.494468033313751221e-02
6.904072761535644531e-01 4.134413897991180420e-01 -9.495751559734344482e-02
-6.574257612228393555e-01 4.719602316617965698e-02 8.518149703741073608e-02
-7.557378411293029785e-01 -6.882601231336593628e-02 8.591424673795700073e-02
2.285055965185165405e-01 2.413412034511566162e-01 -9.632404893636703491e-02
-5.393387079238891602e-01 -6.189413666725158691e-01 -9.862450510263442993e-02
1.806550025939941406e-01 -3.939852118492126465e-01 1.265460848808288574e-01
5.807911157608032227e-01 -3.578048050403594971e-01 -1.163701117038726807e-01
5.137172527611255646e-03 5.739056468009948730e-01 -1.716177016496658325e-01
5.764700174331665039e-01 -5.653403997421264648e-01 1.721646338701248169e-01
2.829328179359436035e-01 -4.278728663921356201e-01 -1.312640011310577393e-01
6.136098504066467285e-01 2.487861961126327515e-01 -9.739492833614349365e-02
6.904072761535644531e-01 3.788380920886993408e-01 -3.428695723414421082e-02
-4.263461530208587646e-01 -6.836550682783126831e-02 -8.221536874771118164e-02
6.904072761535644531e-01 5.116301178932189941e-01 5.496129766106605530e-02
-4.870465695858001709e-01 6.235046982765197754e-01 -2.145984023809432983e-02
3.997041583061218262e-01 -6.189413666725158691e-01 6.237260624766349792e-02
-7.491503953933715820e-01 1.604056954383850098e-01 9.130723774433135986e-02
2.644637525081634521e-01 6.235046982765197754e-01 -1.741532087326049805e-01
4.667736887931823730e-01 6.235046982765197754e-01 -1.690581627190113068e-02
-3.698406219482421875e-01 -5.426197052001953125e-01 -1.629313975572586060e-01
1.695134490728378296e-01 4.779778793454170227e-02 -8.149691671133041382e-02
-1.827623397111892700e-01 5.042418837547302246e-01 1.524278223514556885e-01
9.949921816587448120e-02 -1.312382221221923828e-01 -8.561696112155914307e-02
-3.754284977912902832e-01 4.937210083007812500e-01 -1.473786681890487671e-01
4.671789407730102539e-01 5.209704041481018066e-01 -1.545436680316925049e-01
2.619449198246002197e-01 -6.189413666725158691e-01 9.530296176671981812e-02
-6.199002861976623535e-01 3.476411104202270508e-02 -8.112432062625885010e-02
-7.244101166725158691e-01 -4.886673092842102051e-01 -1.472494304180145264e-01
2.072210311889648438e-01 -6.189413666725158691e-01 -1.495421528816223145e-01
4.335967302322387695e-01 4.221668541431427002e-01 -1.285640299320220947e-01
2.220444381237030029e-01 5.392367839813232422e-01 1.624161601066589355e-01
-7.180322408676147461e-01 -1.829355955123901367e-02 8.450052887201309204e-02
-4.957193508744239807e-02 3.631394803524017334e-01 1.195210590958595276e-01
6.904072761535644531e-01 -1.506255567073822021e-01 5.175559222698211670e-02
-4.615368545055389404e-01 1.134792417287826538e-01 8.735860139131546021e-02
-3.109188377857208252e-02 4.455473423004150391e-01 -1.347118914127349854e-01
3.782641142606735229e-02 -6.189413666725158691e-01 -2.926665544509887695e-02
3.242988884449005127e-02 -6.010694503784179688e-01 -1.819300800561904907e-01
6.904072761535644531e-01 -5.541782379150390625e-01 9.162109345197677612e-02
-3.708185553550720215e-01 2.673458494246006012e-02 8.460909128189086914e-02
-5.438860058784484863e-01 1.091463640332221985e-01 -8.332698047161102295e-02
2.232476025819778442e-01 4.912643507122993469e-02 -8.153489232063293457e-02
-7.961178570985794067e-02 -2.216618210077285767e-01 -9.415046125650405884e-02
6.904072761535644531e-01 6.489894539117813110e-02 -7.518967241048812866e-02
-5.025739073753356934e-01 3.203095123171806335e-02 -8.104620128870010376e-02
4.520551860332489014e-02 -1.293723285198211670e-01 8.907990902662277222e-02
-3.283003866672515869e-01 -4.532700479030609131e-01 1.404884308576583862e-01
-8.465577661991119385e-02 4.236215949058532715e-01 1.316866129636764526e-01
-4.845884144306182861e-01 6.235046982765197754e-01 -1.682647615671157837e-01
-5.565478801727294922e-01 5.762345790863037109e-01 1.741773784160614014e-01
-7.816928625106811523e-02 6.235046982765197754e-01 2.974142879247665405e-02
-3.526725769042968750e-01 3.436493873596191406e-01 -1.125756651163101196e-01
5.144108533859252930e-01 2.762440741062164307e-01 -1.013430729508399963e-01
5.552412867546081543e-01 -4.393649101257324219e-01 1.369113177061080933e-01
5.348926186561584473e-01 6.235046982765197754e-01 4.193261265754699707e-02
-3.256758153438568115e-01 2.177198678255081177e-01 -9.292734414339065552e-02
4.212833642959594727e-01 -3.763619661331176758e-01 -1.201322525739669800e-01
6.178066134452819824e-01 -5.662037730216979980e-01 -1.705976426601409912e-01
-2.306129336357116699e-01 -1.830604523420333862e-01 9.359751641750335693e-02
4.104188680648803711e-01 4.214850440621376038e-02 -8.133538812398910522e-02
-6.873134374618530273e-01 6.235046982765197754e-01 2.220823429524898529e-02
3.845469057559967041e-01 -1.532912552356719971e-01 9.109264612197875977e-02
-5.877473354339599609e-01 6.235046982765197754e-01 -4.919230937957763672e-02
6.634613871574401855e-01 -3.852391839027404785e-01 1.248113662004470825e-01
-7.178325057029724121e-01 2.521861195564270020e-01 -9.788343310356140137e-02
-2.954376935958862305e-01 -5.120536684989929199e-01 -1.533992588520050049e-01
9.924387559294700623e-03 -3.061607480049133301e-01 1.095014065504074097e-01
-7.716763019561767578e-01 6.049622297286987305e-01 1.833091229200363159e-01
-3.913023173809051514e-01 -1.342269927263259888e-01 8.948832750320434570e-02
-4.795017540454864502e-01 -9.700986742973327637e-02 8.670269697904586792e-02
-6.780613064765930176e-01 4.763454496860504150e-01 -1.428098529577255249e-01
2.723218798637390137e-01 1.405690163373947144e-01 -8.602655678987503052e-02
2.962163388729095459e-01 6.235046982765197754e-01 7.347685843706130981e-02
4.556899070739746094e-01 1.621482372283935547e-01 -8.788051456212997437e-02
1.022833809256553650e-01 -1.100036054849624634e-01 8.745003491640090942e-02
-1.971745938062667847e-01 -5.700658559799194336e-01 -1.718526482582092285e-01
5.925964713096618652e-01 -6.189413666725158691e-01 -1.296115219593048096e-01
-3.867805004119873047e-01 -4.395332634449005127e-01 1.369543820619583130e-01
4.060037434101104736e-01 -3.980155885219573975e-01 1.273458898067474365e-01
-1.362189650535583496e-01 6.235046982765197754e-01 -8.136230707168579102e-02
-6.067851185798645020e-01 -3.991208374500274658e-01 1.275651752948760986e-01
5.122091770172119141e-01 4.134977236390113831e-02 -8.131257444620132446e-02
-6.910970807075500488e-01 6.235046982765197754e-01 9.149724990129470825e-02
-2.962698042392730713e-01 3.746692463755607605e-02 -8.120156079530715942e-02
5.385686159133911133e-01 -1.837525814771652222e-01 9.365576505661010742e-02
-1.148914396762847900e-01 -2.149642258882522583e-02 8.459020406007766724e-02
-2.658466696739196777e-01 6.235046982765197754e-01 -1.347490996122360229e-01
1.520155221223831177e-01 1.552641838788986206e-01 -8.728902786970138550e-02
6.635593175888061523e-01 -6.189413666725158691e-01 -4.944977164268493652e-02
-4.813891649246215820e-01 5.171338319778442383e-01 -1.535343527793884277e-01
5.086330175399780273e-01 4.065608233213424683e-02 8.499862998723983765e-02
5.895479917526245117e-01 1.769755780696868896e-01 -8.915423601865768433e-02
5.625541210174560547e-01 5.289880037307739258e-01 -1.570174992084503174e-01
-3.337208926677703857e-01 4.020061492919921875e-01 -1.244054064154624939e-01
2.948918044567108154e-01 -3.695209920406341553e-01 -1.187450662255287170e-01
2.837336361408233643e-01 4.926930963993072510e-01 -1.471084803342819214e-01
2.731148302555084229e-01 2.619757354259490967e-01 1.026369333267211914e-01
-5.883396267890930176e-01 -6.189413666725158691e-01 -7.265876978635787964e-02
-2.767561972141265869e-01 -6.189413666725158691e-01 4.477424174547195435e-02
6.364136934280395508e-01 -5.345227122306823730e-01 1.623691767454147339e-01
-5.018200874328613281e-01 -3.339348435401916504e-01 1.146321371197700500e-01
-2.048819512128829956e-01 -3.795636072754859924e-02 8.505061268806457520e-02
6.206847429275512695e-01 -5.946171283721923828e-01 1.814716160297393799e-01
-4.253809154033660889e-01 -1.815871149301528931e-01 9.347357600927352905e-02
1.386165022850036621e-01 -2.596249282360076904e-01 -9.960933774709701538e-02
-4.261004328727722168e-01 6.235046982765197754e-01 1.561410278081893921e-01
6.904072761535644531e-01 -5.227664113044738770e-01 -1.131914258003234863e-01
1.856075674295425415e-01 -4.362263381481170654e-01 -1.334598064422607422e-01
-2.741237878799438477e-01 4.626439213752746582e-01 -1.392072886228561401e-01
-2.604555487632751465e-01 1.608746051788330078e-01 9.134669601917266846e-02
6.834341287612915039e-01 4.668054878711700439e-01 1.427968144416809082e-01
-5.153738260269165039e-01 6.235046982765197754e-01 9.631687402725219727e-02
6.229246258735656738e-01 -1.107760071754455566e-01 8.751513808965682983e-02
3.246159851551055908e-01 -5.768984556198120117e-02 8.560273796319961548e-02
6.904072761535644531e-01 -3.684402406215667725e-01 -4.003599658608436584e-02
-7.365511655807495117e-01 -2.783494591712951660e-01 -1.023024544119834900e-01
4.578093588352203369e-01 6.235046982765197754e-01 -1.379728168249130249e-01
6.400114297866821289e-01 -1.055797794833779335e-03 -8.029102534055709839e-02
-4.429033100605010986e-01 6.235046982765197754e-01 5.597804486751556396e-02
-6.666104197502136230e-01 6.235046982765197754e-01 -3.519925102591514587e-02
1.023724675178527832e-01 -2.257842272520065308e-01 -9.474331885576248169e-02
-6.791557669639587402e-01 -3.712028264999389648e-01 1.220262125134468079e-01
-1.438398808240890503e-01 3.998906314373016357e-01 -1.239766180515289307e-01
-2.924048602581024170e-01 -2.076607346534729004e-01 -9.218265116214752197e-02
-4.775472357869148254e-02 5.783334970474243164e-01 -1.730567812919616699e-01
1.971328407526016235e-01 -6.189413666725158691e-01 2.212668769061565399e-02
-7.136961817741394043e-02 -3.736864626407623291e-01 1.225186437368392944e-01
-3.450033962726593018e-01 1.168468669056892395e-01 -8.398846536874771118e-02
-7.314388453960418701e-02 6.235046982765197754e-01 -1.373658478260040283e-01
6.444657593965530396e-02 5.351701974868774414e-01 1.611239314079284668e-01
6.904072761535644531e-01 -3.363039195537567139e-01 -1.019519865512847900e-01
3.832507729530334473e-01 -6.189413666725158691e-01 1.390875428915023804e-01
6.858012676239013672e-01 -5.548792481422424316e-01 -1.669167429208755493e-01
-1.850707381963729858e-01 5.300168991088867188e-01 -1.573523133993148804e-01
4.634471833705902100e-01 2.896382212638854980e-01 1.065322235226631165e-01
-3.940326571464538574e-01 6.235046982765197754e-01 -1.289086341857910156e-01
-2.762373685836791992e-01 1.996051967144012451e-01 -9.109845757484436035e-02
-2.631447613239288330e-01 1.237779036164283752e-01 -8.458405733108520508e-02
3.959880173206329346e-01 4.710913598537445068e-01 -1.414285451173782349e-01
-7.143795490264892578e-02 1.675560176372528076e-01 9.190890938043594360e-02
4.403544962406158447e-01 -4.922096058726310730e-02 -8.166803419589996338e-02
-5.301707386970520020e-01 4.144100844860076904e-02 8.502054959535598755e-02
-2.267480045557022095e-01 -4.050934612751007080e-01 -1.259560734033584595e-01
-8.697835355997085571e-02 6.235046982765197754e-01 1.394223421812057495e-01
-4.036861956119537354e-01 3.473439514636993408e-01 -1.133245602250099182e-01
-3.300918936729431152e-01 -3.385001793503761292e-02 -8.122858405113220215e-02
2.310265414416790009e-02 -5.358629226684570312e-01 1.627950072288513184e-01
-1.695082038640975952e-01 3.634106516838073730e-01 1.195748969912528992e-01
-7.184708118438720703e-01 -2.091276645660400391e-02 -8.085872977972030640e-02
1.057156100869178772e-01 -2.934460043907165527e-01 1.077108904719352722e-01
-5.043898224830627441e-01 -6.189413666725158691e-01 6.545643508434295654e-02
6.449795961380004883e-01 -1.628263294696807861e-01 9.189490228891372681e-02
3.266228437423706055e-01 -2.519674897193908691e-01 1.018704175949096680e-01
-3.591513335704803467e-01 5.836061835289001465e-01 -1.747709363698959351e-01
3.965215682983398438e-01 1.478289812803268433e-01 9.024888277053833008e-02
-3.273302614688873291e-01 6.202653050422668457e-01 1.881735622882843018e-01
-7.107507586479187012e-01 2.967630624771118164e-01 1.075356528162956238e-01
1.325587034225463867e-01 5.313904285430908203e-01 1.599227339029312134e-01
-3.689810931682586670e-01 3.947716355323791504e-01 1.257971823215484619e-01
-2.274703234434127808e-02 -1.139537170529365540e-01 -8.413198590278625488e-02
-6.898908317089080811e-02 -5.123953223228454590e-01 -1.534883528947830200e-01
5.173115134239196777e-01 -5.213607102632522583e-03 -8.040986955165863037e-02
2.893753647804260254e-01 -3.773550689220428467e-02 -8.133968710899353027e-02
3.421892821788787842e-01 -6.189413666725158691e-01 -4.813649877905845642e-02
-1.654093116521835327e-01 6.235046982765197754e-01 1.784955710172653198e-01
-3.320845216512680054e-02 4.874027967453002930e-01 1.480959206819534302e-01
-6.031630039215087891e-01 6.155702471733093262e-01 -1.851596683263778687e-01
-2.268331646919250488e-01 3.422847092151641846e-01 1.153829991817474365e-01
4.261918663978576660e-01 -3.222842216491699219e-01 -1.091698557138442993e-01
-5.629874467849731445e-01 -5.166615843772888184e-01 1.567969322204589844e-01
9.481097757816314697e-02 2.808353900909423828e-01 -1.020028889179229736e-01
-5.702170729637145996e-01 -6.189413666725158691e-01 1.757877767086029053e-01
2.035039216279983521e-01 2.634010910987854004e-01 1.028376221656799316e-01
9.367636591196060181e-02 5.187315344810485840e-01 -1.539543420076370239e-01
-5.663678050041198730e-01 5.049516558647155762e-01 -1.503311991691589355e-01
4.225805103778839111e-01 -2.086230516433715820e-01 -9.227565675973892212e-02
5.085213780403137207e-01 2.285099774599075317e-01 -9.447889775037765503e-02
-6.128457188606262207e-02 -2.519107162952423096e-01 1.018625795841217041e-01
-4.623758196830749512e-01 6.235046982765197754e-01 1.861089318990707397e-01
-5.605606436729431152e-01 3.952131569385528564e-01 1.258843094110488892e-01
-2.980808913707733154e-01 6.235046982765197754e-01 -4.352383688092231750e-02
7.712411135435104370e-02 3.452108204364776611e-01 -1.128918677568435669e-01
-6.465456485748291016e-01 -6.189413666725158691e-01 -3.000723943114280701e-02
1.477913111448287964e-01 -1.928265541791915894e-01 9.441935271024703979e-02
6.904072761535644531e-01 -3.327659666538238525e-01 8.560831844806671143e-02
6.904072761535644531e-01 5.492711663246154785e-01 2.426453866064548492e-02
-1.487787216901779175e-01 -3.897375166416168213e-01 1.257032006978988647e-01
-2.047076970338821411e-01 6.235046982765197754e-01 7.508929818868637085e-02
-3.561840951442718506e-01 2.054241448640823364e-01 9.509532153606414795e-02
1.565902084112167358e-01 3.590297996997833252e-01 -1.156936436891555786e-01
1.685560345649719238e-01 -5.626188516616821289e-01 -1.694316864013671875e-01
-6.602892279624938965e-01 6.165071129798889160e-01 -1.854650974273681641e-01
-4.119760096073150635e-01 1.292943358421325684e-01 8.868930488824844360e-02
-2.996540665626525879e-01 6.235046982765197754e-01 6.392793264240026474e-03
-6.022496223449707031e-01 -6.189413666725158691e-01 1.407507807016372681e-01
6.904072761535644531e-01 -5.746855139732360840e-01 -1.280192006379365921e-02
4.308624863624572754e-01 -3.047079741954803467e-01 1.092967987060546875e-01
2.330498993396759033e-01 -1.476064324378967285e-01 9.061423689126968384e-02
-1.421368564479053020e-03 -5.181554555892944336e-01 -1.550027877092361450e-01
-3.166008293628692627e-01 -6.189413666725158691e-01 -1.476400494575500488e-01
4.130679368972778320e-01 -5.481293201446533203e-01 -1.647228896617889404e-01
3.462343513965606689e-01 1.374187320470809937e-01 8.937300741672515869e-02
4.832799136638641357e-01 -6.189413666725158691e-01 -1.844479590654373169e-01
3.924559354782104492e-01 -2.751208841800689697e-01 1.051303520798683167e-01
3.764362335205078125e-01 -4.327901899814605713e-01 1.352196633815765381e-01
3.563078343868255615e-01 -3.463607430458068848e-01 1.170971542596817017e-01
-7.473657727241516113e-01 -6.189413666725158691e-01 -7.673094421625137329e-02
-1.210808083415031433e-01 7.328520715236663818e-02 -8.222555369138717651e-02
2.182020246982574463e-01 3.538922369480133057e-01 -1.146520376205444336e-01
6.861693263053894043e-01 1.627317070960998535e-01 -8.793064206838607788e-02
6.904072761535644531e-01 1.443375647068023682e-02 -3.332777321338653564e-02
4.064873754978179932e-01 5.468687415122985840e-01 1.648430079221725464e-01
-5.207100510597229004e-01 -5.607793927192687988e-01 1.707148104906082153e-01
-1.010013669729232788e-01 5.008928775787353516e-01 -1.492641270160675049e-01
-1.958813816308975220e-01 -2.887333035469055176e-01 1.070471554994583130e-01
-5.839910507202148438e-01 -8.728536963462829590e-02 8.643064647912979126e-02
-3.909313082695007324e-01 -4.515265226364135742e-01 -1.374833285808563232e-01
3.008526861667633057e-01 -5.812298655509948730e-01 1.772160828113555908e-01
5.455397963523864746e-01 6.235046982765197754e-01 9.427192062139511108e-02
2.312368601560592651e-01 -2.105437815189361572e-01 -9.255172312259674072e-02
-1.249126642942428589e-01 -8.580616116523742676e-02 8.638933300971984863e-02
2.471166104078292847e-01 1.198503151535987854e-01 8.789467811584472656e-02
1.994539797306060791e-01 -6.189413666725158691e-01 -1.844998449087142944e-01
6.759989261627197266e-01 5.077015757560729980e-01 -1.510546505451202393e-01
7.318379729986190796e-02 6.235046982765197754e-01 -6.096485303714871407e-04
4.885496795177459717e-01 1.201391071081161499e-01 -8.427128940820693970e-02
-3.962333500385284424e-01 -6.189413666725158691e-01 -1.575823575258255005e-01
4.540256857872009277e-01 5.755699276924133301e-01 -1.721590757369995117e-01
-5.372663140296936035e-01 -6.189413666725158691e-01 1.251956447958946228e-02
