-3.181182444095611572e-01 2.629436850547790527e-01 -7.913047671318054199e-01
-1.942245513200759888e-01 -3.452187180519104004e-01 2.422447651624679565e-01
7.561126351356506348e-02 -7.179609686136245728e-02 -1.450859569013118744e-02
3.102857768535614014e-01 3.211044371128082275e-01 3.004486262798309326e-01
3.088854253292083740e-01 -3.001413941383361816e-01 -8.714383244514465332e-01
-3.025989532470703125e-01 2.949485778808593750e-01 8.786440491676330566e-01
3.088854253292083740e-01 3.237431868910789490e-02 -4.181120097637176514e-01
-2.565994262695312500e-01 2.752983570098876953e-01 8.760426938533782959e-02
-6.821257527917623520e-03 -2.125779837369918823e-01 4.522814750671386719e-01
2.875461578369140625e-01 -2.006575651466846466e-02 7.519456148147583008e-01
-2.555689513683319092e-01 3.211565613746643066e-01 -4.193800985813140869e-01
1.623533070087432861e-01 -3.238784372806549072e-01 7.033508419990539551e-01
-2.821808755397796631e-01 -3.238784372806549072e-01 -5.259611606597900391e-01
-3.634095191955566406e-02 -2.247077040374279022e-02 8.550563454627990723e-01
5.001375451683998108e-02 3.143416345119476318e-02 -4.492919445037841797e-01
3.088854253292083740e-01 1.597166210412979126e-01 -1.120565980672836304e-01
2.875461578369140625e-01 -3.438905179500579834e-01 2.229123190045356750e-02
-1.671409048140048981e-02 -2.768876962363719940e-02 -8.520647883415222168e-01
-3.931609913706779480e-02 3.014983236789703369e-01 5.704284310340881348e-01
-2.886072993278503418e-01 1.126990839838981628e-02 1.992203742265701294e-01
-2.886072993278503418e-01 -6.310009956359863281e-02 -6.513003706932067871e-01
-2.010910362005233765e-01 -3.078749775886535645e-01 -1.188860163092613220e-01
-3.099465966224670410e-01 -2.495859116315841675e-01 5.574532151222229004e-01
1.136953756213188171e-01 2.964592278003692627e-01 -6.318446397781372070e-01
2.374036461114883423e-01 -3.326731547713279724e-02 4.202736020088195801e-01
-2.174663990736007690e-01 -1.757524907588958740e-01 -1.450859569013118744e-02
-2.886072993278503418e-01 8.707105368375778198e-02 7.042579650878906250e-01
-1.114941760897636414e-02 -3.238784372806549072e-01 1.668054908514022827e-01
3.088854253292083740e-01 -3.604408353567123413e-02 1.826204955577850342e-01
3.088854253292083740e-01 -1.825337857007980347e-01 -2.106755822896957397e-01
3.079351484775543213e-01 3.211565613746643066e-01 5.833183526992797852e-01
-6.526866555213928223e-02 -1.474153995513916016e-01 -4.172830581665039062e-01
2.875461578369140625e-01 1.368781831115484238e-02 -6.902449131011962891e-01
3.088854253292083740e-01 -2.805422842502593994e-01 -5.603558421134948730e-01
1.077320501208305359e-01 2.488317638635635376e-01 1.749991811811923981e-02
-4.038961604237556458e-03 2.072748988866806030e-01 -4.492919445037841797e-01
-7.397568970918655396e-02 -3.078749775886535645e-01 -5.587860345840454102e-01
-2.219230979681015015e-01 3.062166571617126465e-01 -1.959501951932907104e-01
5.037271603941917419e-02 -3.452187180519104004e-01 -8.827034235000610352e-01
3.195550739765167236e-01 2.911464273929595947e-01 -4.421508014202117920e-01
1.331561505794525146e-01 1.772307008504867554e-01 4.202736020088195801e-01
4.446241259574890137e-02 2.151277810335159302e-01 -8.520647883415222168e-01
-1.606608927249908447e-01 1.091350689530372620e-01 1.749991811811923981e-02
-3.609075024724006653e-02 -3.452187180519104004e-01 8.907210230827331543e-01
-2.382002174854278564e-01 3.211565613746643066e-01 3.399224877357482910e-01
-4.265702888369560242e-02 3.211565613746643066e-01 8.511399626731872559e-01
-3.086675405502319336e-01 -5.032265558838844299e-03 -8.947433829307556152e-01
-3.099465966224670410e-01 1.823580265045166016e-01 -5.574598908424377441e-01
-9.300591796636581421e-02 -3.238784372806549072e-01 6.481982469558715820e-01
1.855496130883693695e-02 2.964592278003692627e-01 2.573240101337432861e-01
-2.886072993278503418e-01 -2.500620782375335693e-01 -5.610805749893188477e-01
2.875461578369140625e-01 -2.039251923561096191e-01 -4.690744876861572266e-01
-7.416144013404846191e-02 -3.238784372806549072e-01 8.312200754880905151e-02
1.702372431755065918e-01 -1.817118227481842041e-01 8.763956427574157715e-01
3.088854253292083740e-01 -2.302173674106597900e-01 6.004495024681091309e-01
2.875461578369140625e-01 8.331001549959182739e-02 -6.269037723541259766e-01
1.854267418384552002e-01 -3.238784372806549072e-01 3.193520605564117432e-01
-2.168178260326385498e-01 1.508116535842418671e-02 -4.492919445037841797e-01
2.408178448677062988e-01 -1.420753356069326401e-02 -8.520647883415222168e-01
-2.886072993278503418e-01 1.898610591888427734e-01 -2.583732008934020996e-01
6.023080274462699890e-02 -3.452187180519104004e-01 8.854022622108459473e-01
-2.867929637432098389e-01 3.211565613746643066e-01 6.254546046257019043e-01
-1.393947899341583252e-01 -3.238784372806549072e-01 -3.622828722000122070e-01
-2.886072993278503418e-01 -2.185543477535247803e-01 3.063798844814300537e-01
2.570338547229766846e-01 3.211565613746643066e-01 8.910308033227920532e-02
-2.886072993278503418e-01 -2.753257751464843750e-01 -1.901211887598037720e-01
-1.290278732776641846e-01 3.014983236789703369e-01 -6.607902050018310547e-01
5.671275034546852112e-02 -3.078749775886535645e-01 -1.096438020467758179e-01
-1.819540560245513916e-01 -1.306390911340713501e-01 8.763956427574157715e-01
-3.099465966224670410e-01 -7.841580081731081009e-04 4.302274882793426514e-01
-2.516469359397888184e-02 3.001745790243148804e-02 4.202736020088195801e-01
2.875461578369140625e-01 1.132098659873008728e-01 8.792946338653564453e-01
2.152884900569915771e-01 7.866445183753967285e-02 1.749991811811923981e-02
1.604176461696624756e-01 -1.338678598403930664e-01 -4.492919445037841797e-01
-3.027573227882385254e-01 -3.452187180519104004e-01 1.143564581871032715e-01
2.875461578369140625e-01 -1.223882734775543213e-01 -1.540575083345174789e-02
2.609287574887275696e-02 -3.238784372806549072e-01 5.272806882858276367e-01
-1.846615672111511230e-01 -1.991066187620162964e-01 -4.492919445037841797e-01
-1.655165553092956543e-01 -3.238784372806549072e-01 7.583960890769958496e-01
2.595468461513519287e-01 3.211565613746643066e-01 4.961870014667510986e-01
-1.502939760684967041e-01 1.830787658691406250e-01 -4.172830581665039062e-01
-1.951036453247070312e-01 1.722206622362136841e-01 -8.734040856361389160e-01
-3.099465966224670410e-01 -2.538812160491943359e-01 -7.920886874198913574e-01
3.088854253292083740e-01 1.327147483825683594e-01 3.567469418048858643e-01
3.047905862331390381e-01 3.211565613746643066e-01 -6.909105777740478516e-01
2.875461578369140625e-01 8.209208399057388306e-02 -3.021603822708129883e-01
-2.088947892189025879e-01 1.314637362957000732e-01 8.550563454627990723e-01
1.754958778619766235e-01 -1.131005510687828064e-01 4.202736020088195801e-01
1.426449418067932129e-01 -3.238784372806549072e-01 -6.873810887336730957e-01
3.088854253292083740e-01 6.766692548990249634e-02 5.644389986991882324e-01
-2.886072993278503418e-01 3.052661428228020668e-03 -5.310353636741638184e-02
-4.842900112271308899e-02 -2.416959553956985474e-01 -8.734040856361389160e-01
-2.059637606143951416e-01 3.211565613746643066e-01 8.203790187835693359e-01
-6.196031719446182251e-02 2.964592278003692627e-01 -6.320431828498840332e-02
-2.168840020895004272e-01 -1.751670837402343750e-01 4.522814750671386719e-01
-2.886072993278503418e-01 1.326295435428619385e-01 -6.815310120582580566e-01
1.745305657386779785e-01 1.633694022893905640e-01 -4.172830581665039062e-01
3.195550739765167236e-01 2.661784589290618896e-01 -8.107465505599975586e-02
1.066354140639305115e-01 -2.216628044843673706e-01 -1.450859569013118744e-02
-6.572245806455612183e-02 2.111662626266479492e-01 4.522814750671386719e-01
-3.084921240806579590e-01 -3.452187180519104004e-01 -2.934294044971466064e-01
-2.886072993278503418e-01 -4.841009899973869324e-02 8.072896003723144531e-01
1.127140223979949951e-01 2.964592278003692627e-01 7.066226601600646973e-01
1.741406321525573730e-01 3.203225731849670410e-01 -8.865115642547607422e-01
2.875461578369140625e-01 -1.869744658470153809e-01 8.132138252258300781e-01
-6.413543969392776489e-02 -6.678685545921325684e-02 -1.450859569013118744e-02
2.875461578369140625e-01 2.162334322929382324e-01 7.300990819931030273e-01
3.088854253292083740e-01 -8.581277728080749512e-02 -6.747788190841674805e-01
-2.886072993278503418e-01 2.176578640937805176e-01 -7.023070007562637329e-02
-6.228178739547729492e-02 3.014983236789703369e-01 -3.482601642608642578e-01
2.555382251739501953e-01 2.892699539661407471e-01 -2.827928662300109863e-01
3.088854253292083740e-01 1.820673346519470215e-01 1.598648130893707275e-01
7.480131834745407104e-02 1.257249414920806885e-01 8.763956427574157715e-01
2.875461578369140625e-01 -2.312889546155929565e-01 1.793245822191238403e-01
-2.886072993278503418e-01 1.708934754133224487e-01 -3.295732438564300537e-01
3.088854253292083740e-01 -1.558476686477661133e-01 -8.873516321182250977e-01
3.088854253292083740e-01 1.974006183445453644e-02 -1.225337833166122437e-01
-2.886072993278503418e-01 -1.634118407964706421e-01 -3.550584912300109863e-01
-2.886072993278503418e-01 2.177801430225372314e-01 2.207701653242111206e-01
-1.798429787158966064e-01 -1.518781334161758423e-01 -8.734040856361389160e-01
-2.343479543924331665e-01 -1.926671415567398071e-01 8.763956427574157715e-01
3.040437996387481689e-01 -3.452187180519104004e-01 4.751865267753601074e-01
2.875461578369140625e-01 1.402017325162887573e-01 5.121292471885681152e-01
1.251368820667266846e-01 -3.078749775886535645e-01 5.090779662132263184e-01
2.195166647434234619e-01 -3.078749775886535645e-01 -1.743342578411102295e-01
-9.057877957820892334e-02 2.949515879154205322e-01 -8.881204724311828613e-01
1.269231736660003662e-01 -3.238784372806549072e-01 1.168304011225700378e-01
3.088854253292083740e-01 -3.022404611110687256e-01 -3.490701317787170410e-01
-1.412542611360549927e-01 -3.238784372806549072e-01 3.956614434719085693e-01
-3.099465966224670410e-01 -4.767022281885147095e-02 6.200867295265197754e-01
1.228373497724533081e-01 1.599331498146057129e-01 -8.520647883415222168e-01
-9.080001711845397949e-02 2.964592278003692627e-01 1.187219470739364624e-01
1.115051209926605225e-01 -3.238784372806549072e-01 -5.094474554061889648e-01
5.110266804695129395e-02 -1.312089152634143829e-02 4.522814750671386719e-01
-2.561623454093933105e-01 3.211565613746643066e-01 -3.534305989742279053e-01
-2.996578514575958252e-01 2.629436850547790527e-01 4.707959890365600586e-01
-3.099465966224670410e-01 -2.861196994781494141e-01 6.646507978439331055e-01
1.522239595651626587e-01 3.014983236789703369e-01 2.204654365777969360e-01
-3.126140236854553223e-01 3.198895156383514404e-01 -7.092366218566894531e-01
3.088854253292083740e-01 -9.046565741300582886e-02 4.577165544033050537e-01
1.244161427021026611e-01 -1.766316145658493042e-01 -8.734040856361389160e-01
3.088854253292083740e-01 1.243787109851837158e-01 -7.898613214492797852e-01
1.702017337083816528e-02 1.192934811115264893e-01 -1.450859569013118744e-02
-1.923329979181289673e-01 3.370757997035980225e-01 -8.771110177040100098e-01
1.006921306252479553e-01 3.014983236789703369e-01 -4.753996729850769043e-01
-3.099465966224670410e-01 9.531185775995254517e-02 5.377318337559700012e-02
-1.781900078058242798e-01 -3.078749775886535645e-01 -2.840066794306039810e-03
-2.886072993278503418e-01 2.026527971029281616e-01 7.817541956901550293e-01
-3.099465966224670410e-01 -1.746578514575958252e-01 1.558361351490020752e-01
-2.242156118154525757e-01 2.498151212930679321e-01 4.202736020088195801e-01
-5.236956849694252014e-02 -3.078749775886535645e-01 -7.336221933364868164e-01
-3.099465966224670410e-01 -1.848744153976440430e-01 7.257085442543029785e-01
-1.198879107832908630e-01 1.645722985267639160e-01 8.550563454627990723e-01
3.088854253292083740e-01 -4.313572496175765991e-02 -3.036950826644897461e-01
-2.886072993278503418e-01 -1.314049214124679565e-01 -1.613360196352005005e-01
-2.037835121154785156e-01 -3.238784372806549072e-01 -6.655365824699401855e-01
1.719443500041961670e-01 -1.871867477893829346e-02 8.550563454627990723e-01
4.059061035513877869e-02 -1.628334522247314453e-01 8.550563454627990723e-01
-9.695089608430862427e-02 -3.078749775886535645e-01 -2.380373328924179077e-01
-3.099465966224670410e-01 -1.099531874060630798e-01 -4.940765500068664551e-01
9.921558201313018799e-02 3.014983236789703369e-01 4.103397130966186523e-01
-1.479738391935825348e-02 -3.078749775886535645e-01 7.422031760215759277e-01
-6.508842855691909790e-02 -6.230930238962173462e-02 -4.172830581665039062e-01
4.035313799977302551e-02 3.014983236789703369e-01 -7.415702342987060547e-01
-3.099465966224670410e-01 1.280364990234375000e-01 5.428681969642639160e-01
-2.248310893774032593e-01 -2.674317955970764160e-01 -8.734040856361389160e-01
1.534815505146980286e-02 -3.238784372806549072e-01 3.273693323135375977e-01
3.088854253292083740e-01 -1.970546841621398926e-01 4.671361744403839111e-01
-3.099465966224670410e-01 -1.758086234331130981e-01 -7.134056091308593750e-01
1.702482700347900391e-01 -3.430715501308441162e-01 -8.947433829307556152e-01
3.088854253292083740e-01 1.943167746067047119e-01 -5.558109283447265625e-01
-1.635698825120925903e-01 2.629436850547790527e-01 4.592102486640214920e-03
5.309125036001205444e-02 3.211565613746643066e-01 8.827288150787353516e-01
3.088854253292083740e-01 -2.658820748329162598e-01 -1.131091341376304626e-01
3.552199574187397957e-03 -3.238784372806549072e-01 4.712601006031036377e-01
-3.870122507214546204e-02 2.398561984300613403e-01 -1.450859569013118744e-02
-3.056212067604064941e-01 7.931160926818847656e-02 8.977338671684265137e-01
-1.716502904891967773e-01 1.208932371810078621e-03 4.522814750671386719e-01
3.088854253292083740e-01 -2.726924419403076172e-01 -6.932041049003601074e-01
-2.886072993278503418e-01 -3.300292193889617920e-01 4.355833530426025391e-01
-1.825143992900848389e-01 3.014983236789703369e-01 2.539228498935699463e-01
2.216818630695343018e-01 -2.120787799358367920e-01 1.749991811811923981e-02
-2.353253066539764404e-01 3.211565613746643066e-01 -5.594366192817687988e-01
2.048835009336471558e-01 2.964592278003692627e-01 -7.540662884712219238e-01
2.435409650206565857e-02 2.964592278003692627e-01 -3.387764096260070801e-01
-1.639147102832794189e-01 -1.631893683224916458e-03 -8.520647883415222168e-01
2.875461578369140625e-01 -3.402718305587768555e-01 6.280097365379333496e-01
-2.886072993278503418e-01 4.903104528784751892e-02 -5.430111289024353027e-01
-1.074690744280815125e-01 -1.070070117712020874e-01 4.202736020088195801e-01
-1.853191554546356201e-01 2.964592278003692627e-01 5.410317778587341309e-01
2.875461578369140625e-01 -5.309335514903068542e-02 -5.272743105888366699e-01
2.875461578369140625e-01 5.891168862581253052e-02 8.556918799877166748e-02
2.875461578369140625e-01 -6.329807639122009277e-02 6.142406463623046875e-01
-6.323307752609252930e-02 -2.000959813594818115e-01 -1.450859569013118744e-02
2.709372639656066895e-01 -3.330885767936706543e-01 8.977338671684265137e-01
-3.125658929347991943e-01 3.201862275600433350e-01 6.827473044395446777e-01
-1.715300083160400391e-01 2.949515879154205322e-01 8.958443403244018555e-01
1.869353652000427246e-01 -3.238784372806549072e-01 -4.258115291595458984e-01
3.010536134243011475e-01 3.211565613746643066e-01 7.431073188781738281e-01
-3.099465966224670410e-01 -1.216505020856857300e-01 3.572250902652740479e-01
-2.215742617845535278e-01 1.387176010757684708e-02 1.749991811811923981e-02
-2.886072993278503418e-01 1.959667354822158813e-01 3.460311591625213623e-01
-7.897569984197616577e-02 3.014983236789703369e-01 7.150930166244506836e-01
-1.046994179487228394e-01 2.964592278003692627e-01 -5.033488869667053223e-01
1.076739057898521423e-01 4.001828655600547791e-02 -8.520647883415222168e-01
3.088854253292083740e-01 -3.005168586969375610e-02 2.947790324687957764e-01
-9.218334406614303589e-02 3.014983236789703369e-01 3.591516911983489990e-01
1.336262822151184082e-01 3.995202854275703430e-02 4.202736020088195801e-01
-2.214900553226470947e-01 -3.238784372806549072e-01 -3.803813457489013672e-01
-1.027667671442031860e-01 -3.238784372806549072e-01 -4.915294796228408813e-02
2.456254065036773682e-01 3.211565613746643066e-01 -7.927181720733642578e-01
-2.936815321445465088e-01 2.949485778808593750e-01 -2.008128762245178223e-01
-2.070914655923843384e-01 -3.452187180519104004e-01 -7.882965803146362305e-01
-2.673783302307128906e-01 -3.238784372806549072e-01 -5.273475125432014465e-02
3.088854253292083740e-01 2.051668316125869751e-01 -7.228773832321166992e-01
5.904044210910797119e-02 2.964592278003692627e-01 1.151573881506919861e-01
-2.886072993278503418e-01 4.273993149399757385e-02 -3.835479617118835449e-01
3.088854253292083740e-01 -3.184473812580108643e-01 2.422618120908737183e-01
-2.507583796977996826e-01 1.077006235718727112e-01 -4.172830581665039062e-01
2.875461578369140625e-01 2.269802540540695190e-01 -1.834160648286342621e-02
3.088854253292083740e-01 -3.222761303186416626e-02 8.921394944190979004e-01
-5.398805812001228333e-02 1.143245473504066467e-01 -8.734040856361389160e-01
-2.227340489625930786e-01 -3.238784372806549072e-01 5.961902737617492676e-01
-3.033126592636108398e-01 -3.452187180519104004e-01 -7.043157219886779785e-01
-2.886072993278503418e-01 1.252768635749816895e-01 -7.977653145790100098e-01
3.088854253292083740e-01 1.593487411737442017e-01 -4.353855252265930176e-01
1.479957997798919678e-01 -4.472705349326133728e-02 -4.492919445037841797e-01
-1.895553320646286011e-01 2.964592278003692627e-01 -7.466444969177246094e-01
1.880420297384262085e-01 2.964592278003692627e-01 -6.518185883760452271e-02
4.483039677143096924e-02 -3.238784372806549072e-01 5.616012215614318848e-02
2.875461578369140625e-01 -2.283248305320739746e-01 -7.681201100349426270e-01
-2.231570631265640259e-01 -3.452187180519104004e-01 8.552097082138061523e-01
5.996486544609069824e-02 -2.226361483335494995e-01 -4.172830581665039062e-01
1.874566227197647095e-01 -3.238784372806549072e-01 1.767794489860534668e-01
-2.886072993278503418e-01 1.819805428385734558e-02 -7.534137368202209473e-01
1.054625958204269409e-01 2.964592278003692627e-01 5.491904020309448242e-01
-2.669342458248138428e-01 3.211565613746643066e-01 -2.903139404952526093e-02
9.432252496480941772e-02 3.866964951157569885e-02 -1.450859569013118744e-02
-2.247208207845687866e-01 -1.746369409374892712e-03 8.550563454627990723e-01
-6.114435568451881409e-02 2.964592278003692627e-01 -2.064514309167861938e-01
-2.876981496810913086e-01 -3.424721360206604004e-01 2.148860394954681396e-01
-3.099465966224670410e-01 -1.032336428761482239e-01 -8.120446801185607910e-01
-1.011579036712646484e-01 -3.238784372806549072e-01 -4.921038150787353516e-01
-3.099465966224670410e-01 -8.743698149919509888e-02 6.359989196062088013e-02
-1.078981012105941772e-01 -3.078749775886535645e-01 2.153751999139785767e-01
-1.102397292852401733e-01 -3.078749775886535645e-01 5.087592005729675293e-01
3.088854253292083740e-01 -6.614668294787406921e-03 -8.015263676643371582e-01
-3.099465966224670410e-01 -1.412696391344070435e-01 5.261008739471435547e-01
-3.099465966224670410e-01 6.828451156616210938e-02 3.213258385658264160e-01
3.088854253292083740e-01 1.202648207545280457e-01 6.939342021942138672e-01
-6.035615876317024231e-02 -2.615456581115722656e-01 8.763956427574157715e-01
1.515533477067947388e-01 -3.238784372806549072e-01 8.129812479019165039e-01
2.160904407501220703e-01 2.183525264263153076e-01 -1.450859569013118744e-02
-2.886072993278503418e-01 1.150583028793334961e-01 -3.551306575536727905e-02
2.875461578369140625e-01 2.324464023113250732e-01 4.247012436389923096e-01
-1.664983481168746948e-02 -3.078749775886535645e-01 -3.446875810623168945e-01
3.088854253292083740e-01 -1.526620090007781982e-01 7.042840123176574707e-01
2.875461578369140625e-01 -8.931790292263031006e-02 -1.313098669052124023e-01
3.101123571395874023e-01 3.211565613746643066e-01 -5.444726347923278809e-01
-3.233121708035469055e-02 1.238263770937919617e-01 -4.172830581665039062e-01
2.135984450578689575e-01 2.964592278003692627e-01 -4.064900875091552734e-01
3.364963084459304810e-02 -3.238784372806549072e-01 -2.362620681524276733e-01
2.197983413934707642e-01 -5.812685191631317139e-02 -1.450859569013118744e-02
1.200482062995433807e-02 -3.238784372806549072e-01 -4.001258015632629395e-01
2.875461578369140625e-01 -1.678745597600936890e-01 -3.364979028701782227e-01
-3.099465966224670410e-01 8.727654069662094116e-02 -1.660683900117874146e-01
-3.099465966224670410e-01 2.324143201112747192e-01 -6.233622431755065918e-01
3.088854253292083740e-01 -3.308241069316864014e-01 3.694865405559539795e-01
-2.886072993278503418e-01 -2.036585509777069092e-01 -5.830202996730804443e-02
-1.531448215246200562e-01 -3.402136862277984619e-01 8.977338671684265137e-01
2.418513298034667969e-01 3.211565613746643066e-01 -1.740255057811737061e-01
3.115528523921966553e-01 3.165645301342010498e-01 1.952939480543136597e-01
2.155411094427108765e-01 8.981966227293014526e-02 -4.172830581665039062e-01
1.939522325992584229e-01 2.039960175752639771e-01 8.550563454627990723e-01
-1.119087412953376770e-01 9.921222925186157227e-02 4.202736020088195801e-01
-2.567367553710937500e-01 -3.238784372806549072e-01 3.271989226341247559e-01
3.088854253292083740e-01 -3.374951481819152832e-01 -2.552887797355651855e-01
5.542235076427459717e-02 3.014983236789703369e-01 -1.234018653631210327e-01
-3.099465966224670410e-01 -2.890818417072296143e-01 -3.613145649433135986e-01
-1.716422736644744873e-01 -3.238784372806549072e-01 1.724209934473037720e-01
7.115642074495553970e-03 3.211565613746643066e-01 -8.267639875411987305e-01
-3.099465966224670410e-01 -3.425934016704559326e-01 -8.328326344490051270e-01
5.269429460167884827e-02 -1.072951033711433411e-01 -4.172830581665039062e-01
2.045116126537322998e-01 -1.085015013813972473e-01 8.550563454627990723e-01
-3.764979913830757141e-02 4.037624597549438477e-02 -1.450859569013118744e-02
-2.280438095331192017e-01 -1.061393246054649353e-01 -4.172830581665039062e-01
2.082315385341644287e-01 -2.781525552272796631e-01 4.522814750671386719e-01
-2.064469158649444580e-01 -3.452187180519104004e-01 -2.310505360364913940e-01
3.088854253292083740e-01 2.244822531938552856e-01 -6.439105868339538574e-01
1.868621855974197388e-01 -3.078749775886535645e-01 -5.345197767019271851e-02
-3.099465966224670410e-01 1.204472631216049194e-01 4.549539089202880859e-01
2.967212200164794922e-01 7.167726010084152222e-02 -8.947433829307556152e-01
7.791796699166297913e-03 3.014983236789703369e-01 -5.680773854255676270e-01
-1.160546988248825073e-01 -3.078749775886535645e-01 7.077884674072265625e-01
2.875461578369140625e-01 5.498605221509933472e-02 4.685766398906707764e-01
3.194122388958930969e-02 2.629436850547790527e-01 4.275240004062652588e-01
-3.099465966224670410e-01 1.073157042264938354e-01 7.945118546485900879e-01
-2.956572771072387695e-01 -3.452187180519104004e-01 7.659792900085449219e-01
-3.099465966224670410e-01 -2.360183000564575195e-01 2.485334873199462891e-03
-7.856621593236923218e-02 -1.057470813393592834e-01 -8.520647883415222168e-01
3.088854253292083740e-01 5.599838867783546448e-02 -2.305372990667819977e-02
2.437148094177246094e-01 -6.469052284955978394e-02 -4.492919445037841797e-01
2.157245576381683350e-01 -3.238784372806549072e-01 -7.791635990142822266e-01
-2.886072993278503418e-01 2.040421366691589355e-01 6.138527393341064453e-01
-3.099465966224670410e-01 -8.999031782150268555e-02 2.339458316564559937e-01
7.019304484128952026e-02 -3.078749775886535645e-01 -6.294468641281127930e-01
9.282472729682922363e-02 2.432553619146347046e-01 -4.492919445037841797e-01
1.944845169782638550e-01 3.014983236789703369e-01 6.006349921226501465e-01
-2.753253877162933350e-01 -2.136084735393524170e-01 4.202736020088195801e-01
2.208618968725204468e-01 3.050408065319061279e-01 -5.980433821678161621e-01
-2.673011124134063721e-01 2.062915563583374023e-01 -4.492919445037841797e-01
1.039399355649948120e-01 -3.452187180519104004e-01 -8.018842339515686035e-01
2.081603705883026123e-01 -3.238784372806549072e-01 -5.790307521820068359e-01
-3.099465966224670410e-01 2.026447653770446777e-01 6.024152413010597229e-02
4.049207270145416260e-02 2.170533984899520874e-01 8.763956427574157715e-01
-1.166691780090332031e-01 -2.473675757646560669e-01 4.202736020088195801e-01
2.391814813017845154e-02 3.014983236789703369e-01 3.581402450799942017e-02
3.088854253292083740e-01 -1.975629031658172607e-01 -6.011278033256530762e-01
2.338801920413970947e-01 1.376084983348846436e-01 4.522814750671386719e-01
-1.289847642183303833e-01 2.299684435129165649e-01 1.749991811811923981e-02
3.088854253292083740e-01 -1.396507471799850464e-01 2.493979632854461670e-01
4.482528567314147949e-02 1.178700625896453857e-01 4.522814750671386719e-01
-4.420899320393800735e-03 -3.078749775886535645e-01 6.514140367507934570e-01
1.368550211191177368e-01 -2.620167732238769531e-01 -4.172830581665039062e-01
-4.400997981429100037e-02 -3.452187180519104004e-01 -8.603186607360839844e-01
1.446908563375473022e-01 -1.100564301013946533e-01 -8.520647883415222168e-01
-1.523639559745788574e-01 2.964592278003692627e-01 -2.819037139415740967e-01
-2.886072993278503418e-01 2.007652521133422852e-01 -8.810264468193054199e-01
-6.872206181287765503e-02 2.964592278003692627e-01 7.712209224700927734e-01
1.082542985677719116e-01 -3.078749775886535645e-01 2.300905585289001465e-01
-3.084028959274291992e-01 2.949515879154205322e-01 1.814456731081008911e-01
1.997792273759841919e-01 7.613276690244674683e-02 8.550563454627990723e-01
8.897638320922851562e-02 2.629436850547790527e-01 -8.740296363830566406e-01
-4.594352468848228455e-02 -3.238784372806549072e-01 -1.657867133617401123e-01
-1.628521680831909180e-01 2.964592278003692627e-01 6.297760009765625000e-01
3.088854253292083740e-01 8.620497584342956543e-02 2.089357227087020874e-01
2.216162718832492828e-02 3.211565613746643066e-01 8.386359214782714844e-01
1.246777698397636414e-01 1.315649747848510742e-01 1.749991811811923981e-02
-3.099465966224670410e-01 1.743247359991073608e-01 -1.618442386388778687e-01
-7.890613377094268799e-02 3.014983236789703369e-01 4.444737434387207031e-01
2.875461578369140625e-01 7.481119036674499512e-02 -5.267270207405090332e-01
1.275055706501007080e-01 -2.356544435024261475e-01 4.202736020088195801e-01
3.088854253292083740e-01 2.526188790798187256e-01 8.333020806312561035e-01
-1.359244436025619507e-01 -1.570996791124343872e-01 -4.172830581665039062e-01
-9.694718569517135620e-02 -6.777133047580718994e-02 8.550563454627990723e-01
-1.172916740179061890e-01 -3.078749775886535645e-01 -7.387605309486389160e-01
5.198779702186584473e-02 -7.104890048503875732e-02 8.763956427574157715e-01
3.088854253292083740e-01 -5.196208949200809002e-04 6.498061418533325195e-01
-2.886072993278503418e-01 1.136719733476638794e-01 1.806818395853042603e-01
1.385190337896347046e-01 -3.452187180519104004e-01 -2.220358848571777344e-01
-3.099465966224670410e-01 -1.356671750545501709e-01 -6.012921929359436035e-01
3.088854253292083740e-01 -2.725280523300170898e-01 7.083137631416320801e-01
-3.099465966224670410e-01 -1.524615287780761719e-01 6.374584436416625977e-01
-1.477879583835601807e-01 8.054035902023315430e-02 -4.492919445037841797e-01
2.244204431772232056e-01 -3.078749775886535645e-01 -2.918616533279418945e-01
-1.258001178503036499e-01 -2.488130629062652588e-01 -8.520647883415222168e-01
1.726680845022201538e-01 3.014983236789703369e-01 3.382605016231536865e-01
2.875461578369140625e-01 -2.776333093643188477e-01 -4.564611613750457764e-01
3.088854253292083740e-01 2.648727595806121826e-02 3.441596925258636475e-01
2.645159838721156120e-03 -3.452187180519104004e-01 -7.858937978744506836e-01
3.088854253292083740e-01 2.336933761835098267e-01 -3.585188090801239014e-01
3.195550739765167236e-01 2.640794217586517334e-01 -7.868310213088989258e-01
1.793210655450820923e-01 -3.418085277080535889e-01 8.977338671684265137e-01
3.088854253292083740e-01 8.220536261796951294e-02 -1.960474401712417603e-01
3.088854253292083740e-01 1.715089678764343262e-01 2.498430311679840088e-01
-2.977242469787597656e-01 -1.678344607353210449e-01 -8.947433829307556152e-01
-2.906782925128936768e-01 2.949515879154205322e-01 -8.931475281715393066e-01
3.088854253292083740e-01 2.053372561931610107e-01 -2.422153800725936890e-01
-3.099465966224670410e-01 -3.031415939331054688e-01 -2.449559569358825684e-01
-3.099465966224670410e-01 -2.377183884382247925e-01 2.383564263582229614e-01
-2.994463741779327393e-01 2.629436850547790527e-01 -3.002879023551940918e-01
-2.886072993278503418e-01 -3.424651026725769043e-01 -8.941048383712768555e-01
1.828214824199676514e-01 6.558351963758468628e-02 -8.520647883415222168e-01
-1.777289062738418579e-01 -8.031707257032394409e-02 -1.450859569013118744e-02
-3.099465966224670410e-01 -4.897926747798919678e-02 -3.435699045658111572e-01
1.550156772136688232e-01 2.629436850547790527e-01 4.366288781166076660e-01
-3.099465966224670410e-01 -3.027236163616180420e-01 5.975224971771240234e-01
7.264824956655502319e-02 1.182710230350494385e-01 -4.492919445037841797e-01
2.177484184503555298e-01 2.964592278003692627e-01 -4.952273368835449219e-01
2.875461578369140625e-01 -2.636637389659881592e-01 8.919920921325683594e-01
2.799037992954254150e-01 2.629436850547790527e-01 6.439350247383117676e-01
2.875461578369140625e-01 -1.277742087841033936e-01 1.284964382648468018e-01
1.935592889785766602e-01 2.964592278003692627e-01 7.873626947402954102e-01
8.784265816211700439e-02 -3.238784372806549072e-01 4.029810130596160889e-01
2.400736324489116669e-02 2.964592278003692627e-01 6.487606167793273926e-01
2.875461578369140625e-01 -1.458015292882919312e-01 5.598068833351135254e-01
3.088854253292083740e-01 2.344772815704345703e-01 3.366546332836151123e-01
-2.344702482223510742e-01 -6.043740734457969666e-02 4.202736020088195801e-01
-2.815223038196563721e-01 -2.511566877365112305e-01 -4.492919445037841797e-01
3.001634776592254639e-01 2.669563293457031250e-01 8.977338671684265137e-01
-3.099465966224670410e-01 -4.570760577917098999e-02 -1.462597995996475220e-01
2.207387937232851982e-03 -1.306641548871994019e-01 -8.520647883415222168e-01
-2.309177219867706299e-01 3.211565613746643066e-01 1.417723298072814941e-01
-1.469449251890182495e-01 2.964592278003692627e-01 -1.201049387454986572e-01
2.083668708801269531e-01 2.345318160951137543e-02 -1.450859569013118744e-02
-2.336532920598983765e-01 2.325476557016372681e-01 1.749991811811923981e-02
-5.799729377031326294e-02 2.717057466506958008e-01 8.977338671684265137e-01
-1.306056678295135498e-01 3.681208565831184387e-02 8.763956427574157715e-01
3.088854253292083740e-01 -1.957024335861206055e-01 7.255260646343231201e-02
2.229499071836471558e-01 -2.071720063686370850e-01 -8.520647883415222168e-01
-6.838585436344146729e-02 -3.238784372806549072e-01 3.127010762691497803e-01
2.484952956438064575e-01 2.949485778808593750e-01 4.041678905487060547e-01
-1.444539427757263184e-01 2.964592278003692627e-01 -4.148131012916564941e-01
2.181028388440608978e-02 -3.238784372806549072e-01 -5.343092679977416992e-01
1.617408245801925659e-01 3.014983236789703369e-01 1.345058679580688477e-01
2.660886049270629883e-01 -3.452187180519104004e-01 -8.810625076293945312e-01
8.902058750391006470e-02 -2.617731988430023193e-01 8.550563454627990723e-01
7.927366346120834351e-02 1.849797554314136505e-02 8.550563454627990723e-01
2.351632565259933472e-01 -3.238784372806549072e-01 3.940616175532341003e-02
2.875461578369140625e-01 1.462803333997726440e-01 5.852249264717102051e-02
-1.848219484090805054e-01 -3.238784372806549072e-01 -4.735512435436248779e-01
-5.853508412837982178e-02 2.494723200798034668e-01 -4.172830581665039062e-01
1.442868858575820923e-01 2.629436850547790527e-01 8.976286649703979492e-01
-2.881963253021240234e-01 -1.875438243150711060e-01 -4.492919445037841797e-01
1.203182935714721680e-01 2.964592278003692627e-01 -3.713747262954711914e-01
-8.171348273754119873e-02 2.041193246841430664e-01 -8.520647883415222168e-01
-3.099465966224670410e-01 -1.183006465435028076e-01 8.593617081642150879e-01
-1.450403481721878052e-01 2.085459530353546143e-01 4.202736020088195801e-01
-3.102016448974609375e-02 1.436319798231124878e-01 4.202736020088195801e-01
-3.206162452697753906e-01 2.704496979713439941e-01 -5.100890398025512695e-01
2.875461578369140625e-01 -1.109888777136802673e-01 -8.021027445793151855e-01
-2.886072993278503418e-01 -2.454681694507598877e-02 2.922469377517700195e-01
-7.761684060096740723e-02 -2.438381016254425049e-01 -4.492919445037841797e-01
-3.014722466468811035e-01 3.211565613746643066e-01 -6.247054934501647949e-01
2.445057034492492676e-01 3.211565613746643066e-01 1.104797609150409698e-02
-3.099465966224670410e-01 6.831743754446506500e-03 7.250980138778686523e-01
4.055301845073699951e-02 -9.501489251852035522e-02 4.202736020088195801e-01
-2.886072993278503418e-01 -2.219111658632755280e-02 5.295581817626953125e-01
2.906251139938831329e-02 -3.238784372806549072e-01 8.171983361244201660e-01
-8.238783106207847595e-03 7.572258263826370239e-02 8.763956427574157715e-01
-2.554666697978973389e-01 2.140341401100158691e-01 8.763956427574157715e-01
-6.305744498968124390e-02 3.014983236789703369e-01 -7.583025097846984863e-01
-3.099465966224670410e-01 -1.296567320823669434e-01 -8.225427940487861633e-03
2.568052709102630615e-01 2.386482954025268555e-01 -4.492919445037841797e-01
-8.158196508884429932e-02 3.014983236789703369e-01 2.269670665264129639e-01
2.565371803939342499e-02 1.203119307756423950e-01 -8.520647883415222168e-01
-3.206162452697753906e-01 2.879166901111602783e-01 5.444079041481018066e-01
-3.099465966224670410e-01 -2.791037224233150482e-02 -4.311844408512115479e-01
2.432226240634918213e-01 -3.452187180519104004e-01 8.034833669662475586e-01
2.875461578369140625e-01 -7.678127288818359375e-02 -2.176503390073776245e-01
-1.555405855178833008e-01 -1.487756818532943726e-01 4.202736020088195801e-01
-3.038770258426666260e-01 2.949485778808593750e-01 2.855067253112792969e-01
-3.099465966224670410e-01 8.853556960821151733e-02 -2.744317650794982910e-01
2.830443382263183594e-01 2.629436850547790527e-01 1.247434169054031372e-01
2.062698304653167725e-01 1.818171702325344086e-02 -4.172830581665039062e-01
-2.886072993278503418e-01 2.106620371341705322e-01 -7.514099478721618652e-01
3.088854253292083740e-01 -1.782214343547821045e-01 -7.175084948539733887e-02
-3.099465966224670410e-01 6.656217575073242188e-02 6.112855672836303711e-01
2.913613021373748779e-01 -3.452187180519104004e-01 -6.205454468727111816e-01
1.948854774236679077e-01 -2.033518254756927490e-01 4.202736020088195801e-01
3.088854253292083740e-01 -3.229872882366180420e-01 1.379962563514709473e-01
-3.099465966224670410e-01 -4.299188032746315002e-02 -5.387268662452697754e-01
-3.051320314407348633e-01 -3.452187180519104004e-01 -1.317018121480941772e-01
2.485008910298347473e-02 -2.096068412065505981e-01 1.749991811811923981e-02
2.605642974376678467e-01 2.629436850547790527e-01 2.206087708473205566e-01
2.875461578369140625e-01 -2.471430450677871704e-01 5.078339576721191406e-01
2.168041467666625977e-01 -2.315676212310791016e-01 -4.492919445037841797e-01
2.875461578369140625e-01 -1.311473101377487183e-01 8.969580531120300293e-01
2.890608012676239014e-01 -3.452187180519104004e-01 -1.377643793821334839e-01
-1.379613429307937622e-01 3.913617134094238281e-02 -1.450859569013118744e-02
3.741858527064323425e-02 3.014983236789703369e-01 4.760926961898803711e-01
1.507073193788528442e-01 7.287363708019256592e-02 -4.492919445037841797e-01
-4.782404378056526184e-02 -3.238784372806549072e-01 -6.482460498809814453e-01
3.045870959758758545e-01 -3.452187180519104004e-01 -7.739030122756958008e-01
-1.953753083944320679e-01 -2.666158378124237061e-01 8.763956427574157715e-01
2.957765012979507446e-02 -3.238784372806549072e-01 -7.049221992492675781e-01
6.807816773653030396e-02 -3.238784372806549072e-01 6.770516037940979004e-01
-1.117062568664550781e-01 -1.358937174081802368e-01 1.749991811811923981e-02
3.088854253292083740e-01 -3.560452908277511597e-02 6.023691594600677490e-02
-3.099465966224670410e-01 8.402673900127410889e-02 -8.878748416900634766e-01
-2.454857230186462402e-01 -3.238784372806549072e-01 5.034063458442687988e-01
-3.099465966224670410e-01 -1.673252433538436890e-01 -2.604992985725402832e-01
2.549844607710838318e-02 3.014983236789703369e-01 -2.359733730554580688e-01
-3.099465966224670410e-01 -3.424530625343322754e-01 -4.406962990760803223e-01
2.444054782390594482e-01 -1.263147145509719849e-01 4.522814750671386719e-01
-2.182151824235916138e-01 2.964592278003692627e-01 6.969053149223327637e-01
2.457597255706787109e-01 -3.238784372806549072e-01 5.499902963638305664e-01
2.875461578369140625e-01 1.582962125539779663e-01 5.962093472480773926e-01
-2.728594839572906494e-01 2.629436850547790527e-01 3.809791505336761475e-01
2.875461578369140625e-01 2.460701316595077515e-01 -1.558769047260284424e-01
1.448041349649429321e-01 -2.736276984214782715e-01 -8.520647883415222168e-01
-2.302260547876358032e-01 -3.238784372806549072e-01 -2.911048531532287598e-01
-8.813200145959854126e-02 -1.594172418117523193e-01 8.763956427574157715e-01
8.208402246236801147e-02 2.964592278003692627e-01 -6.761340498924255371e-01
1.198010519146919250e-01 3.014983236789703369e-01 -7.922049760818481445e-01
-2.886072993278503418e-01 2.427946962416172028e-02 1.169988065958023071e-01
-2.256163954734802246e-02 -3.238784372806549072e-01 -1.243441179394721985e-02
2.875461578369140625e-01 -4.546602442860603333e-02 -6.160717010498046875e-01
-1.543186455965042114e-01 2.964592278003692627e-01 4.336437284946441650e-01
3.088854253292083740e-01 -1.053240671753883362e-01 3.627563714981079102e-01
-1.049941256642341614e-01 -2.607367038726806641e-01 1.749991811811923981e-02
-1.700704991817474365e-01 2.964592278003692627e-01 -5.471681356430053711e-01
2.390716522932052612e-01 -2.398675531148910522e-01 8.550563454627990723e-01
1.412611163686960936e-04 3.014983236789703369e-01 3.651691675186157227e-01
-1.604453623294830322e-01 -3.238784372806549072e-01 3.274585604667663574e-01
3.161624446511268616e-02 -2.184641361236572266e-01 -8.520647883415222168e-01
8.184885233640670776e-02 3.154899477958679199e-01 7.990417480468750000e-01
-2.387886196374893188e-01 3.211565613746643066e-01 -8.187467455863952637e-01
-1.620853096246719360e-01 -3.078749775886535645e-01 -5.823767781257629395e-01
3.088854253292083740e-01 5.783209204673767090e-02 -7.855069041252136230e-01
6.849205493927001953e-02 -4.576935246586799622e-02 -8.520647883415222168e-01
-3.126140236854553223e-01 3.125278353691101074e-01 7.671220898628234863e-01
-2.886072993278503418e-01 -2.835415005683898926e-01 3.913099765777587891e-01
-3.099465966224670410e-01 5.667060241103172302e-02 -6.344739198684692383e-01
-5.210012197494506836e-02 3.014983236789703369e-01 -6.073156595230102539e-01
-3.099465966224670410e-01 -2.555512487888336182e-01 -6.829293370246887207e-01
1.002897229045629501e-02 -9.487926214933395386e-02 -1.450859569013118744e-02
-9.301915019750595093e-02 3.014983236789703369e-01 4.240536689758300781e-02
-7.275318726897239685e-03 -3.078749775886535645e-01 3.854779601097106934e-01
1.174463927745819092e-01 -1.221246421337127686e-01 -1.450859569013118744e-02
3.088854253292083740e-01 -7.695880532264709473e-02 8.224810361862182617e-01
1.965534836053848267e-01 1.901818364858627319e-01 -8.734040856361389160e-01
3.088854253292083740e-01 5.645237863063812256e-02 8.140638470649719238e-01
-3.126140236854553223e-01 3.102332949638366699e-01 2.495513483881950378e-02
-2.886072993278503418e-01 -8.840360492467880249e-02 1.342452466487884521e-01
9.489189833402633667e-02 3.014983236789703369e-01 -5.494716763496398926e-01
1.945506632328033447e-01 3.014983236789703369e-01 -2.836870253086090088e-01
-2.886072993278503418e-01 -1.039681062102317810e-01 7.641038298606872559e-01
2.875461578369140625e-01 2.798607759177684784e-02 2.427539974451065063e-01
-1.298458427190780640e-01 3.211565613746643066e-01 -8.031933903694152832e-01
2.451097406446933746e-02 2.677241861820220947e-01 -8.947433829307556152e-01
-2.469362020492553711e-01 3.211565613746643066e-01 4.754551947116851807e-01
2.665326595306396484e-01 2.629436850547790527e-01 -4.977303445339202881e-01
-2.886072993278503418e-01 2.439991384744644165e-01 7.029849290847778320e-01
-2.446226477622985840e-01 -6.527362018823623657e-02 -1.450859569013118744e-02
1.582524478435516357e-01 -3.078749775886535645e-01 6.151368021965026855e-01
2.829811871051788330e-01 2.949485778808593750e-01 -8.592661023139953613e-01
3.088854253292083740e-01 -4.942584037780761719e-02 -2.534393221139907837e-02
-3.010452091693878174e-01 -2.087474800646305084e-02 8.977338671684265137e-01
-2.886072993278503418e-01 -2.693393826484680176e-01 1.367833614349365234e-01
-1.710949689149856567e-01 2.342487126588821411e-01 -8.520647883415222168e-01
2.875461578369140625e-01 -4.365307092666625977e-02 5.329964756965637207e-01
-7.115621119737625122e-02 -3.238784372806549072e-01 8.119908571243286133e-01
3.875195514410734177e-03 -3.238784372806549072e-01 -4.616416096687316895e-01
-4.880564287304878235e-03 2.964592278003692627e-01 -4.701781272888183594e-01
2.194936126470565796e-01 2.677331864833831787e-01 -8.307255506515502930e-01
-2.877767756581306458e-02 -1.374989375472068787e-02 -4.492919445037841797e-01
1.107689086347818375e-02 3.014983236789703369e-01 -4.208355844020843506e-01
-3.849463164806365967e-02 1.511430144309997559e-01 -1.450859569013118744e-02
3.088854253292083740e-01 -8.207439631223678589e-02 -7.409889101982116699e-01
-3.099465966224670410e-01 -3.142903745174407959e-01 8.746133446693420410e-01
3.088854253292083740e-01 2.481491416692733765e-01 5.799573063850402832e-01
2.611186504364013672e-01 3.211565613746643066e-01 -5.796251446008682251e-02
-3.206162452697753906e-01 2.850718498229980469e-01 -1.040473580360412598e-01
-2.886072993278503418e-01 1.433262377977371216e-01 2.797318696975708008e-01
-3.099465966224670410e-01 -2.684833407402038574e-01 7.382967472076416016e-01
-3.099465966224670410e-01 -2.533619999885559082e-01 4.821753203868865967e-01
-2.886072993278503418e-01 1.127898544073104858e-01 -4.769473969936370850e-01
-1.950986534357070923e-01 -3.134994804859161377e-01 -8.520647883415222168e-01
-1.893398016691207886e-01 2.964592278003692627e-01 -6.139636784791946411e-02
-1.291100680828094482e-01 5.741900205612182617e-02 -8.734040856361389160e-01
-2.886072993278503418e-01 -3.943283110857009888e-02 -7.936484217643737793e-01
2.875461578369140625e-01 8.583351969718933105e-03 -3.591343164443969727e-01
-6.492663919925689697e-02 -4.042090103030204773e-02 4.522814750671386719e-01
-2.886072993278503418e-01 -3.358050882816314697e-01 -6.113463640213012695e-01
-3.099465966224670410e-01 -1.700237244367599487e-01 8.184503912925720215e-01
6.538218259811401367e-02 -1.808968484401702881e-01 4.202736020088195801e-01
-1.178800910711288452e-01 9.416409581899642944e-02 8.550563454627990723e-01
2.473615854978561401e-01 3.211565613746643066e-01 6.714050769805908203e-01
2.957799434661865234e-01 -1.457453612238168716e-02 -8.947433829307556152e-01
2.875461578369140625e-01 1.270170509815216064e-01 -6.943699121475219727e-01
-2.296486645936965942e-01 3.211565613746643066e-01 4.877587407827377319e-02
2.521460950374603271e-01 -3.078749775886535645e-01 3.783418238162994385e-01
-2.263156622648239136e-01 -3.078749775886535645e-01 6.734740138053894043e-01
-1.557475142180919647e-02 2.964592278003692627e-01 1.621292531490325928e-01
-2.886072993278503418e-01 -1.875147670507431030e-01 -5.252815485000610352e-01
-1.664367765188217163e-01 3.014983236789703369e-01 1.690308451652526855e-01
-2.886072993278503418e-01 -9.398131072521209717e-02 -2.580714523792266846e-01
2.310032695531845093e-01 -3.078749775886535645e-01 -6.886832118034362793e-01
9.906121343374252319e-02 3.014983236789703369e-01 3.090703487396240234e-01
1.398221701383590698e-01 -1.538938377052545547e-02 1.749991811811923981e-02
3.115528523921966553e-01 3.195757567882537842e-01 8.591882586479187012e-01
2.875461578369140625e-01 -2.908591032028198242e-01 -4.141064360737800598e-02
2.406664937734603882e-01 3.211565613746643066e-01 -6.501154899597167969e-01
-2.386883944272994995e-01 -1.325857788324356079e-01 -8.520647883415222168e-01
2.875461578369140625e-01 -2.688762545585632324e-01 7.040685415267944336e-02
6.712737679481506348e-02 2.080788463354110718e-01 1.749991811811923981e-02
3.195550739765167236e-01 2.939762473106384277e-01 2.029172889888286591e-02
2.230992764234542847e-01 -3.238784372806549072e-01 -4.863149225711822510e-01
1.812056005001068115e-01 -2.783144079148769379e-02 4.522814750671386719e-01
4.235635325312614441e-02 -1.015430409461259842e-02 1.749991811811923981e-02
-1.249765790998935699e-02 2.964592278003692627e-01 -6.762783527374267578e-01
1.692644692957401276e-02 2.964592278003692627e-01 7.558850646018981934e-01
2.277865409851074219e-01 3.211565613746643066e-01 1.745280474424362183e-01
1.409729272127151489e-01 -3.238784372806549072e-01 2.845183573663234711e-02
3.195550739765167236e-01 2.719763815402984619e-01 4.607748985290527344e-01
-3.099465966224670410e-01 -1.309297978878021240e-01 -3.917617201805114746e-01
-2.886072993278503418e-01 -9.112775325775146484e-02 -7.230026721954345703e-01
-2.886072993278503418e-01 1.714067161083221436e-01 7.068221569061279297e-01
2.518684267997741699e-01 1.080895662307739258e-01 -8.520647883415222168e-01
3.685804083943367004e-02 -3.452187180519104004e-01 2.150343805551528931e-01
1.787928044795989990e-01 3.014983236789703369e-01 5.116130709648132324e-01
-2.210078984498977661e-01 5.277423933148384094e-02 -8.734040856361389160e-01
-1.918097287416458130e-01 2.629436850547790527e-01 8.338343501091003418e-01
-2.130297273397445679e-01 2.964592278003692627e-01 -6.576024889945983887e-01
-2.738338112831115723e-01 -1.449945867061614990e-01 4.202736020088195801e-01
1.158385276794433594e-01 2.151317894458770752e-01 8.550563454627990723e-01
1.729347258806228638e-01 2.964592278003692627e-01 -6.848549842834472656e-01
-3.192785009741783142e-02 3.608804196119308472e-02 -8.520647883415222168e-01
1.668030023574829102e-01 2.377761900424957275e-01 -4.172830581665039062e-01
9.265091270208358765e-02 -2.474146932363510132e-01 -8.734040856361389160e-01
2.296670526266098022e-01 3.211565613746643066e-01 3.322510421276092529e-01
-3.136043846607208252e-01 2.629436850547790527e-01 -3.945724666118621826e-01
2.875461578369140625e-01 3.460743697360157967e-03 -1.965155601501464844e-01
1.788258701562881470e-01 -1.605519801378250122e-01 -1.450859569013118744e-02
-3.099465966224670410e-01 -2.764554917812347412e-01 -9.154401719570159912e-02
5.316693335771560669e-02 -3.078749775886535645e-01 5.978492498397827148e-01
-9.218364208936691284e-02 -3.452187180519104004e-01 -7.904928326606750488e-01
-1.489377170801162720e-01 -3.038969822227954865e-02 1.749991811811923981e-02
2.875461578369140625e-01 -4.931908473372459412e-02 -3.838206231594085693e-01
-2.886072993278503418e-01 -1.789682209491729736e-01 5.695613101124763489e-02
7.996452599763870239e-02 3.014983236789703369e-01 -4.471317678689956665e-02
-2.496206611394882202e-01 -3.714352473616600037e-02 -8.520647883415222168e-01
3.088854253292083740e-01 8.662698417901992798e-02 -4.518671333789825439e-01
-3.099465966224670410e-01 7.575395703315734863e-02 3.946059048175811768e-01
1.336162537336349487e-01 -3.078749775886535645e-01 -1.200287640094757080e-01
-6.269507855176925659e-02 5.270297080278396606e-02 -4.172830581665039062e-01
2.836608290672302246e-01 2.304540388286113739e-02 1.749991811811923981e-02
-2.756121158599853516e-01 1.452077627182006836e-01 8.550563454627990723e-01
-1.732912361621856689e-01 -2.604399919509887695e-01 -4.172830581665039062e-01
1.225356161594390869e-01 2.964592278003692627e-01 6.262364983558654785e-01
1.511413604021072388e-01 -1.991848051548004150e-01 -4.172830581665039062e-01
3.088854253292083740e-01 -2.515366077423095703e-01 -2.310014218091964722e-01
-3.099465966224670410e-01 -9.232021868228912354e-02 4.732659161090850830e-01
2.240886539220809937e-01 -1.468340009450912476e-01 -8.734040856361389160e-01
-2.886072993278503418e-01 1.936531811952590942e-01 5.191230773925781250e-01
3.088854253292083740e-01 4.827142134308815002e-02 8.963976502418518066e-01
