4.994509369134902954e-02 1.663111709058284760e-02 -2.403157651424407959e-01
7.356405258178710938e-02 2.469317242503166199e-02 4.066718816757202148e-01
3.488853201270103455e-02 -3.326210379600524902e-02 6.625115871429443359e-02
2.293419986963272095e-01 -4.368765279650688171e-02 2.871245145797729492e-01
-7.514058053493499756e-02 -3.688066452741622925e-02 -6.914694309234619141e-01
1.027925014495849609e-01 2.005603909492492676e-02 -2.421406209468841553e-01
1.453166753053665161e-01 2.339544706046581268e-03 4.385788440704345703e-01
3.512573242187500000e-01 -2.301123552024364471e-02 -4.040867686271667480e-01
7.037661224603652954e-02 1.843521371483802795e-02 -2.430930733680725098e-02
2.592345178127288818e-01 1.555764488875865936e-02 6.734157204627990723e-01
-1.085614114999771118e-01 7.675081491470336914e-03 -4.000144302845001221e-01
-1.889716386795043945e-01 1.996479555964469910e-02 3.909449651837348938e-02
-1.702186912298202515e-01 1.109963841736316681e-02 -4.621348381042480469e-01
-3.298008441925048828e-01 1.020870823413133621e-02 -3.033999502658843994e-01
1.224065199494361877e-01 1.012426987290382385e-02 8.484566211700439453e-01
-1.867478489875793457e-01 5.114487558603286743e-02 4.638223946094512939e-01
3.468265011906623840e-02 -2.538184076547622681e-02 5.892057418823242188e-01
1.444467157125473022e-01 -5.284678190946578979e-03 -7.240474969148635864e-02
-1.488321870565414429e-01 3.365717828273773193e-03 -8.757816553115844727e-01
3.193454146385192871e-01 -1.337328553199768066e-02 2.119073867797851562e-01
-1.194590702652931213e-01 3.684589639306068420e-02 -1.705484539270401001e-01
-3.586625307798385620e-02 1.328578498214483261e-02 3.147103488445281982e-01
-3.810098767280578613e-02 2.338073030114173889e-02 -2.054325938224792480e-01
2.926187217235565186e-01 -2.337205596268177032e-02 -5.784680247306823730e-01
2.611650228500366211e-01 -4.132415726780891418e-02 5.938329696655273438e-01
-3.280352652072906494e-01 -9.113570675253868103e-03 -1.387353092432022095e-01
3.298550248146057129e-01 -1.113351900130510330e-02 4.102040529251098633e-01
3.138798177242279053e-01 -5.753546208143234253e-02 -2.361792922019958496e-01
3.355842828750610352e-01 -5.554937198758125305e-02 -5.263140797615051270e-01
-3.102214038372039795e-01 -3.990329429507255554e-02 2.674700319766998291e-01
4.265935625880956650e-03 3.446136787533760071e-02 7.305454611778259277e-01
-4.294856917113065720e-03 1.269449107348918915e-02 4.237945377826690674e-01
2.386932969093322754e-01 1.974064111709594727e-02 8.554270863533020020e-01
6.496432423591613770e-02 -1.098174508661031723e-02 -8.247672915458679199e-01
2.902349531650543213e-01 -4.017810896039009094e-02 8.066670894622802734e-01
2.994273006916046143e-01 -1.782645471394062042e-02 -1.777717322111129761e-01
-2.480269223451614380e-01 1.538898609578609467e-02 1.155792474746704102e-01
-1.247686594724655151e-01 -1.587512530386447906e-02 4.717566668987274170e-01
-2.254426330327987671e-01 3.092654235661029816e-02 6.573081612586975098e-01
3.375059068202972412e-01 -2.748099155724048615e-02 -4.525613784790039062e-01
2.644809186458587646e-01 -2.074648626148700714e-02 -5.361669659614562988e-01
2.604421973228454590e-01 -5.388549715280532837e-02 -2.446922063827514648e-01
-3.088863492012023926e-01 -3.236212581396102905e-02 8.100422620773315430e-01
3.367583751678466797e-01 -2.305330149829387665e-02 7.628780007362365723e-01
-1.558747887611389160e-01 -1.043627038598060608e-02 6.871434450149536133e-01
2.001821696758270264e-01 -7.347056642174720764e-03 5.245884135365486145e-02
6.602999567985534668e-02 2.144895493984222412e-02 -3.223325908184051514e-01
8.874750137329101562e-02 -3.297317028045654297e-02 3.386276960372924805e-01
-2.265120595693588257e-01 3.105194866657257080e-02 -5.809890031814575195e-01
-2.048362344503402710e-01 3.399508818984031677e-02 -2.834304571151733398e-01
1.063789799809455872e-01 1.357165630906820297e-02 -1.784649640321731567e-01
7.812831550836563110e-02 -7.208821363747119904e-03 -5.120491981506347656e-01
1.696764379739761353e-01 -7.582823280245065689e-03 -1.066071689128875732e-01
-1.222456991672515869e-01 2.798063680529594421e-02 8.856711983680725098e-01
1.819446831941604614e-01 5.290157161653041840e-03 8.069120049476623535e-01
-1.805950887501239777e-02 -1.672809594310820103e-03 -5.961100459098815918e-01
-1.781412214040756226e-02 1.480193808674812317e-02 -6.804039478302001953e-01
-1.392172425985336304e-01 3.701376542448997498e-02 2.257052212953567505e-01
1.915032230317592621e-02 -2.216754248365759850e-03 -4.573811888694763184e-01
1.718419492244720459e-01 2.457339130342006683e-02 3.827298283576965332e-01
-1.480589956045150757e-01 3.187401220202445984e-02 -3.813296258449554443e-01
-3.755886852741241455e-02 1.900981925427913666e-02 -4.934453666210174561e-01
1.719861179590225220e-01 1.581971719861030579e-02 2.793877422809600830e-01
2.961785495281219482e-01 -6.648672278970479965e-03 5.500971674919128418e-01
-2.402694225311279297e-01 -1.743502356112003326e-02 -3.835435211658477783e-01
1.999827027320861816e-01 -3.669610992074012756e-02 6.139515638351440430e-01
2.133648246526718140e-01 -9.085566736757755280e-03 -1.163635984994471073e-03
2.500787377357482910e-01 1.188466325402259827e-03 -3.263081014156341553e-01
-4.925953224301338196e-02 -2.770504727959632874e-02 4.018386825919151306e-02
1.329309046268463135e-01 7.074150256812572479e-03 6.951389312744140625e-01
4.985800012946128845e-02 3.382435068488121033e-02 9.046630859375000000e-01
1.046558544039726257e-01 -2.937959041446447372e-03 -1.034127175807952881e-01
-1.903294958174228668e-02 1.929371431469917297e-02 -5.574023723602294922e-01
-2.464272528886795044e-01 -5.458284169435501099e-03 -9.111477136611938477e-01
-1.605602949857711792e-01 1.119127403944730759e-02 -4.106464684009552002e-01
-2.208420336246490479e-01 3.029940277338027954e-02 5.799067616462707520e-01
3.485654890537261963e-01 -2.452106680721044540e-03 -1.054261475801467896e-01
-3.225054442882537842e-01 3.866589069366455078e-02 8.182569742202758789e-01
-3.149622082710266113e-01 3.353601321578025818e-02 -2.656339295208454132e-02
-5.559924989938735962e-02 3.167681628838181496e-03 -4.507454335689544678e-01
2.778620421886444092e-01 7.070773863233625889e-04 -7.056919336318969727e-01
-6.057893484830856323e-02 -3.933550417423248291e-02 -7.862344384193420410e-01
1.076597198843955994e-01 9.408209472894668579e-03 -4.492474496364593506e-01
1.118444744497537613e-02 1.048612594604492188e-02 3.497267961502075195e-01
1.296672318130731583e-02 -6.568687502294778824e-03 -7.757703065872192383e-01
-1.269835382699966431e-01 1.280538365244865417e-02 -1.455280631780624390e-01
2.957450151443481445e-01 -3.127956762909889221e-03 7.821286320686340332e-01
-2.081412822008132935e-01 -4.310090094804763794e-03 8.488012552261352539e-01
-2.632052600383758545e-01 3.733755275607109070e-02 -3.355666100978851318e-01
-2.093509137630462646e-01 3.385604918003082275e-02 8.668214678764343262e-01
9.956251084804534912e-02 -3.997537866234779358e-02 -7.607544958591461182e-02
-2.079092115163803101e-01 4.705538973212242126e-02 3.249118030071258545e-01
-1.306401342153549194e-01 -2.549520134925842285e-02 -1.953979879617691040e-01
-8.843778073787689209e-02 2.530500479042530060e-02 -3.140675425529479980e-01
-2.006356790661811829e-02 2.807049639523029327e-02 -2.867986857891082764e-01
-2.859238684177398682e-01 5.702058225870132446e-02 8.929112553596496582e-01
-1.384945400059223175e-02 9.996580891311168671e-03 1.995137184858322144e-01
2.338122576475143433e-01 -2.141144499182701111e-02 -7.245327830314636230e-01
9.264798462390899658e-02 -3.527277847751975060e-03 -9.114607572555541992e-01
3.200317025184631348e-01 -6.142429634928703308e-02 -4.657736420631408691e-01
-2.509014606475830078e-01 -2.111757546663284302e-02 3.231541216373443604e-01
-6.473755091428756714e-02 3.717590495944023132e-02 3.340587019920349121e-01
2.814080119132995605e-01 4.684743005782365799e-03 -4.245272576808929443e-01
1.620976328849792480e-01 -8.733723312616348267e-03 -2.187426239252090454e-01
2.409723550081253052e-01 2.085292944684624672e-04 -4.342370033264160156e-01
-2.766802012920379639e-01 -5.490712448954582214e-02 -7.151133418083190918e-01
4.708569496870040894e-02 2.338507771492004395e-02 1.952962577342987061e-01
-2.132642418146133423e-01 1.469203503802418709e-03 9.312811493873596191e-01
-1.085021644830703735e-01 1.010673306882381439e-02 -2.380732446908950806e-01
-1.572463661432266235e-01 1.317222695797681808e-02 -2.633730769157409668e-01
5.534435063600540161e-02 -2.831105515360832214e-02 4.915770590305328369e-01
2.568409144878387451e-01 -7.418993860483169556e-03 3.139884769916534424e-01
3.353334665298461914e-01 -5.331602320075035095e-02 -5.074372887611389160e-02
-3.085979819297790527e-01 -3.334949538111686707e-02 7.542840838432312012e-01
1.335125267505645752e-01 -1.441229507327079773e-02 -7.306451797485351562e-01
2.613092064857482910e-01 3.552516456693410873e-03 -1.163613349199295044e-01
1.912583410739898682e-02 1.674921833910048008e-03 -9.115239381790161133e-01
2.570788860321044922e-01 -4.896910488605499268e-02 6.636491417884826660e-02
-2.818723022937774658e-01 3.860219940543174744e-02 2.040326781570911407e-02
-1.610372513532638550e-01 1.605522818863391876e-02 -8.952995389699935913e-02
1.697386503219604492e-01 1.279550883919000626e-02 6.772138923406600952e-02
-3.303992450237274170e-01 -3.166181966662406921e-02 -7.641330361366271973e-01
2.361940145492553711e-01 -1.172599755227565765e-02 -6.940227001905441284e-02
-1.529627591371536255e-01 5.763587541878223419e-03 -7.357799410820007324e-01
1.502569615840911865e-01 -1.257778261788189411e-03 2.226351946592330933e-01
-3.170793354511260986e-01 2.527241781353950500e-02 -4.874889850616455078e-01
2.471845000982284546e-01 7.541477680206298828e-03 8.411102741956710815e-02
2.048005461692810059e-01 1.621549390256404877e-02 4.599416553974151611e-01
-1.652487814426422119e-01 4.481216520071029663e-02 1.438671350479125977e-01
1.534444838762283325e-01 -1.015415135771036148e-02 -3.538514673709869385e-01
2.291188240051269531e-01 -4.874278232455253601e-02 -5.001152679324150085e-02
-1.690870523452758789e-01 3.539067134261131287e-02 -5.005728602409362793e-01
-1.129363942891359329e-02 -3.387018293142318726e-02 -1.912368237972259521e-01
-1.633538305759429932e-01 3.482406213879585266e-02 -3.334944695234298706e-02
3.323006676509976387e-03 1.835236512124538422e-02 -8.229395151138305664e-01
-2.445234209299087524e-01 -9.155725711025297642e-04 1.543431431055068970e-01
-2.733159065246582031e-01 -2.904414944350719452e-02 9.386880993843078613e-01
9.215870499610900879e-02 3.961227834224700928e-03 2.965340614318847656e-01
8.610238134860992432e-02 -8.422770537436008453e-03 -5.552763938903808594e-01
2.902626395225524902e-01 -1.546789426356554031e-03 8.614822626113891602e-01
-2.658101618289947510e-01 4.386736080050468445e-02 8.632344007492065430e-02
-2.937348000705242157e-02 3.652546554803848267e-02 2.315707504749298096e-01
2.024543285369873047e-01 5.787276662886142731e-03 9.363597035408020020e-01
-1.235866695642471313e-01 1.764721795916557312e-02 1.923348754644393921e-01
2.189282029867172241e-01 1.024567894637584686e-02 1.294630020856857300e-01
2.139029949903488159e-01 -3.214972326532006264e-03 3.916703462600708008e-01
4.332247003912925720e-02 2.840040810406208038e-02 3.894287943840026855e-01
-5.038830265402793884e-02 -2.295495010912418365e-02 3.506747484207153320e-01
2.009434066712856293e-02 -3.461117669939994812e-02 -9.297225624322891235e-02
2.036727406084537506e-02 -3.918234258890151978e-03 -5.647807717323303223e-01
1.457974500954151154e-02 1.267681550234556198e-02 -6.694213747978210449e-01
-3.623823449015617371e-02 2.283703535795211792e-03 -4.185155630111694336e-01
-1.275572627782821655e-01 4.505804553627967834e-02 5.298354029655456543e-01
8.279722183942794800e-03 1.273399032652378082e-02 4.855229258537292480e-01
-1.009218022227287292e-01 4.520191997289657593e-02 4.721299409866333008e-01
-3.291037082672119141e-01 2.483911812305450439e-02 6.016457676887512207e-01
9.553464502096176147e-02 1.999442093074321747e-02 1.975960731506347656e-01
-9.303680062294006348e-02 5.890802480280399323e-03 -4.456669092178344727e-01
3.751844540238380432e-02 -3.518479317426681519e-02 -4.921296238899230957e-02
1.330049633979797363e-01 -4.420972615480422974e-02 -2.004014551639556885e-01
-2.152757197618484497e-01 3.199942037463188171e-02 -7.794159650802612305e-01
-1.826567947864532471e-01 2.841966412961483002e-02 -5.498463511466979980e-01
-2.078568935394287109e-01 4.057189449667930603e-02 1.329714655876159668e-01
1.484913676977157593e-01 -1.243341714143753052e-02 -5.286712050437927246e-01
-2.508619427680969238e-01 3.347992524504661560e-02 -5.340202450752258301e-01
1.328914165496826172e-01 -1.628156565129756927e-02 -8.578364849090576172e-01
-3.224866986274719238e-01 -2.806557156145572662e-02 3.787316083908081055e-01
-1.575979143381118774e-01 -2.293579280376434326e-02 -1.519495546817779541e-01
3.217509090900421143e-01 -1.520108152180910110e-02 1.017076447606086731e-01
-3.092566430568695068e-01 2.870306558907032013e-02 -6.042823195457458496e-01
-2.150801867246627808e-01 4.738510400056838989e-02 2.569278776645660400e-01
-1.617295667529106140e-02 2.318748459219932556e-02 -1.151961162686347961e-01
-1.667556464672088623e-01 2.571806125342845917e-02 5.260069966316223145e-01
-1.642899662256240845e-01 -1.556397601962089539e-02 3.066921234130859375e-01
-5.955987051129341125e-02 2.043028734624385834e-02 6.783362627029418945e-01
1.783888339996337891e-01 1.646276214160025120e-04 -7.313383221626281738e-01
2.789680063724517822e-01 -5.644263327121734619e-02 -3.276214599609375000e-01
9.247606992721557617e-02 -3.486890718340873718e-02 2.301172167062759399e-01
-3.079008460044860840e-01 3.231067210435867310e-02 -4.221929013729095459e-01
8.430253714323043823e-02 7.202303502708673477e-03 4.750883579254150391e-01
2.804343998432159424e-01 -4.192443937063217163e-02 6.444987654685974121e-01
1.623494476079940796e-01 -3.615753666963428259e-04 3.390552699565887451e-01
2.121432125568389893e-02 6.923562614247202873e-04 -2.542597353458404541e-01
2.574225068092346191e-01 1.524837105534970760e-03 9.113383293151855469e-01
-1.389032304286956787e-01 -2.247908897697925568e-02 -3.372102603316307068e-02
-1.595540642738342285e-01 -2.768974378705024719e-02 -4.771995842456817627e-01
-2.770248055458068848e-01 -6.205705180764198303e-02 -8.226432800292968750e-01
3.198786675930023193e-01 -5.156347528100013733e-02 1.890791952610015869e-01
-1.215584203600883484e-01 4.380663111805915833e-02 2.823659181594848633e-01
2.506080269813537598e-01 9.525106288492679596e-03 2.320032715797424316e-01
-1.054479405283927917e-01 1.583867706358432770e-02 1.573598533868789673e-01
1.879603266716003418e-01 -2.869547344744205475e-03 2.926957905292510986e-01
1.985321193933486938e-01 5.487985908985137939e-03 8.980273008346557617e-01
1.876956820487976074e-01 8.315857499837875366e-03 -1.456929743289947510e-01
1.531848013401031494e-01 2.753608115017414093e-02 4.920095801353454590e-01
-3.116236031055450439e-01 2.506603673100471497e-02 -7.434209585189819336e-01
2.113454639911651611e-01 -7.623645476996898651e-03 8.653970062732696533e-02
-2.371786534786224365e-01 1.629745215177536011e-02 3.834062516689300537e-01
1.088939327746629715e-02 9.505929425358772278e-03 2.831756472587585449e-01
1.708999127149581909e-01 6.159639917314052582e-03 -8.458842039108276367e-01
-7.725484669208526611e-02 8.702518418431282043e-03 -1.845635324716567993e-01
-1.985599100589752197e-01 7.279513403773307800e-03 -8.493058085441589355e-01
-2.380812019109725952e-01 -2.584081143140792847e-03 -7.210894823074340820e-01
6.941631436347961426e-02 1.389781571924686432e-02 8.502675890922546387e-01
-1.974569112062454224e-01 3.191044926643371582e-02 7.933916449546813965e-01
1.243695914745330811e-01 9.637657552957534790e-03 -8.333868980407714844e-01
2.183228880167007446e-01 -9.935427224263548851e-04 -6.206110119819641113e-01
2.873318195343017578e-01 -1.156691648066043854e-02 1.815319955348968506e-01
5.185090005397796631e-02 -1.071651279926300049e-02 -8.687667250633239746e-01
3.426614403724670410e-01 -5.652863532304763794e-03 8.347733020782470703e-01
-2.218077927827835083e-01 -9.633066132664680481e-03 -6.287714242935180664e-01
1.622635424137115479e-01 -1.381981652230024338e-02 -5.561107993125915527e-01
1.531008630990982056e-01 1.912554912269115448e-02 4.103867411613464355e-01
-1.082701086997985840e-01 -2.171913906931877136e-02 1.607843786478042603e-01
2.829978466033935547e-01 -1.482999324798583984e-02 -5.578078702092170715e-02
-2.876431494951248169e-02 -2.980498969554901123e-02 -3.090276382863521576e-03
3.085751533508300781e-01 -2.848741365596652031e-03 -3.194729089736938477e-01
-1.864141076803207397e-01 -1.576067879796028137e-02 1.896301954984664917e-01
-1.144983456470072269e-03 4.800510214408859611e-05 -4.022076129913330078e-01
-1.546453833580017090e-01 3.064244613051414490e-02 9.103488922119140625e-01
1.633477658033370972e-01 -1.014654804021120071e-02 -3.068027496337890625e-01
2.426391988992691040e-01 -2.290577255189418793e-02 -7.823902368545532227e-01
-1.704754233360290527e-01 1.792449690401554108e-02 -9.611295536160469055e-03
6.499937921762466431e-02 1.265637576580047607e-02 -4.337886869907379150e-01
1.665510982275009155e-01 -4.033777862787246704e-02 2.146999388933181763e-01
3.066229522228240967e-01 -5.209275055676698685e-03 -4.858399331569671631e-01
-3.188785016536712646e-01 2.195878326892852783e-02 -6.306876987218856812e-02
1.355496644973754883e-01 7.933530025184154510e-03 7.645853161811828613e-01
6.929130107164382935e-02 9.711273014545440674e-03 -6.094180941581726074e-01
3.222466111183166504e-01 8.206831291317939758e-03 1.570949913002550602e-03
-3.293525576591491699e-01 -1.226446125656366348e-02 6.771907806396484375e-01
2.315361499786376953e-01 -1.722390390932559967e-02 -4.568282067775726318e-01
5.028833821415901184e-02 2.255758270621299744e-02 1.553197652101516724e-01
-3.217096999287605286e-02 2.412745170295238495e-02 -6.058346033096313477e-01
2.441559284925460815e-01 -2.412015758454799652e-02 -8.559988141059875488e-01
-2.059500813484191895e-01 1.927070692181587219e-02 -8.685687929391860962e-02
-3.441024199128150940e-02 -2.682393183931708336e-03 -7.400774359703063965e-01
-1.324758231639862061e-01 1.250006072223186493e-02 -1.916357576847076416e-01
-1.134148091077804565e-01 -2.733731828629970551e-02 -2.369021177291870117e-01
-5.505090951919555664e-02 6.668045651167631149e-03 -2.154583185911178589e-01
2.310493290424346924e-01 -7.388194557279348373e-03 1.948104500770568848e-01
1.515948493033647537e-02 1.086284406483173370e-02 3.934566676616668701e-01
3.476195037364959717e-01 1.022651232779026031e-02 9.350888133049011230e-01
-1.659775376319885254e-01 4.536149278283119202e-02 6.549145579338073730e-01
2.037646919488906860e-01 2.414384298026561737e-02 5.041880011558532715e-01
1.100948080420494080e-01 -7.450898177921772003e-03 -3.778883218765258789e-01
1.085573285818099976e-01 -9.392322972416877747e-03 -5.141890048980712891e-01
-2.154949307441711426e-01 1.408632192760705948e-02 -4.764283895492553711e-01
1.623484641313552856e-01 -1.846652850508689880e-02 -8.646450638771057129e-01
1.623405665159225464e-01 -5.191204696893692017e-02 -5.745941996574401855e-01
6.012555211782455444e-02 -9.003785438835620880e-03 -7.160089612007141113e-01
-2.852257192134857178e-01 -4.443052411079406738e-02 3.939632475376129150e-01
6.111223250627517700e-02 4.864441696554422379e-03 2.106542885303497314e-01
2.103836685419082642e-01 -3.556763054803013802e-03 3.524028360843658447e-01
-3.217974603176116943e-01 3.063020110130310059e-02 7.849023938179016113e-01
-1.316414177417755127e-01 1.637585833668708801e-02 6.994929909706115723e-02
1.643905341625213623e-01 5.437319166958332062e-03 -4.465635120868682861e-01
-1.751550287008285522e-01 2.315430715680122375e-02 3.160789608955383301e-01
8.267450332641601562e-02 1.412453781813383102e-02 9.276542067527770996e-01
-2.202831506729125977e-01 1.988708227872848511e-02 2.532175183296203613e-02
1.133415848016738892e-01 -4.165555164217948914e-02 -1.230128929018974304e-01
-1.313471645116806030e-01 -3.451233357191085815e-02 -7.982015013694763184e-01
-2.412420660257339478e-01 4.698853939771652222e-02 4.093143641948699951e-01
-5.650228634476661682e-02 -3.542800992727279663e-02 -5.072905421257019043e-01
-5.902684107422828674e-02 1.719397120177745819e-02 -7.150837182998657227e-01
-3.198876678943634033e-01 -4.001784324645996094e-02 -2.373296916484832764e-01
-1.981155574321746826e-01 4.132266342639923096e-02 -2.426333427429199219e-01
-2.644623219966888428e-01 5.660545453429222107e-02 9.396075010299682617e-01
-9.358879760839045048e-04 2.309831604361534119e-02 -4.947710782289505005e-02
9.449158608913421631e-02 2.629108540713787079e-02 6.113111376762390137e-01
1.358804702758789062e-01 -2.791221812367439270e-02 8.966349959373474121e-01
5.363633483648300171e-02 -3.029398433864116669e-02 3.517175316810607910e-01
3.229535371065139771e-02 2.826009131968021393e-02 4.498872756958007812e-01
-8.132220804691314697e-02 3.734594956040382385e-02 5.199123620986938477e-01
9.693783521652221680e-02 3.851303365081548691e-03 -8.690827488899230957e-01
-3.304703533649444580e-01 2.593066170811653137e-02 8.633248209953308105e-01
-2.073374688625335693e-01 -1.144911255687475204e-02 3.779613673686981201e-01
-3.252338171005249023e-01 -3.142097592353820801e-02 -1.112077608704566956e-01
-3.117045760154724121e-01 4.290260747075080872e-02 4.577939212322235107e-01
8.958190679550170898e-02 1.130927633494138718e-02 -4.077996015548706055e-01
-8.639343082904815674e-02 -3.222467377781867981e-02 -4.348225593566894531e-01
1.667377352714538574e-01 -4.486411809921264648e-02 -8.534704893827438354e-02
-3.277804851531982422e-01 -1.245059911161661148e-02 8.746372461318969727e-01
-7.241863757371902466e-02 5.205956753343343735e-03 -3.942901194095611572e-01
1.894670724868774414e-02 1.275146845728158951e-02 5.368236899375915527e-01
1.028033718466758728e-01 1.414754660800099373e-03 1.772691160440444946e-01
2.971037626266479492e-01 -2.465240098536014557e-02 -6.425149440765380859e-01
1.837675422430038452e-01 -6.972324103116989136e-03 2.176291600335389376e-04
-1.865523457527160645e-01 2.511086873710155487e-02 3.925857245922088623e-01
-2.797868661582469940e-02 2.806852199137210846e-02 1.538188010454177856e-01
-1.048050969839096069e-01 1.338077988475561142e-02 -3.031128318980336189e-03
1.122178584337234497e-01 2.861794829368591309e-02 3.713819086551666260e-01
6.032176315784454346e-02 -4.843133315443992615e-02 -8.226936459541320801e-01
1.208759471774101257e-01 -4.458575323224067688e-02 -2.824202775955200195e-01
-1.984809190034866333e-01 3.281111642718315125e-02 -3.322941362857818604e-01
2.486923635005950928e-01 7.909416221082210541e-03 -3.639166951179504395e-01
8.080473542213439941e-02 -4.998935386538505554e-03 -3.525450527667999268e-01
1.545603275299072266e-01 -4.031604912597686052e-04 2.996811270713806152e-01
-1.394147425889968872e-01 -2.364044636487960815e-02 -1.133317947387695312e-01
1.659230738878250122e-01 1.505463104695081711e-02 2.000222653150558472e-01
-1.701653599739074707e-01 -7.388066034764051437e-03 -8.979028463363647461e-01
-1.355736237019300461e-02 1.697613485157489777e-02 6.649195551872253418e-01
-1.105788052082061768e-01 -2.640732377767562866e-02 -1.617442071437835693e-01
-6.917106360197067261e-02 1.386118028312921524e-02 1.964199841022491455e-01
-1.777273714542388916e-01 -6.941544823348522186e-03 8.167698979377746582e-01
2.811295688152313232e-01 1.166436914354562759e-02 3.814752027392387390e-02
-1.376787871122360229e-01 2.568596787750720978e-02 6.605737209320068359e-01
-8.916021138429641724e-02 -2.684832364320755005e-02 -9.039793163537979126e-02
6.946577876806259155e-02 2.655878849327564240e-02 2.578333616256713867e-01
-7.079593837261199951e-02 2.366502396762371063e-02 8.405874967575073242e-01
-7.429185509681701660e-02 2.906220778822898865e-02 2.231464954093098640e-03
-2.537581920623779297e-01 1.334147807210683823e-02 -6.280090808868408203e-01
-2.455908656120300293e-01 2.003154903650283813e-02 8.796338438987731934e-01
2.951565086841583252e-01 -6.306564807891845703e-02 -6.918476819992065430e-01
-3.201286494731903076e-01 3.136319667100906372e-02 1.434820294380187988e-01
2.563639581203460693e-01 -4.946659132838249207e-02 2.992757037281990051e-02
3.549009561538696289e-02 -3.689577430486679077e-02 -1.724957227706909180e-01
1.341711729764938354e-01 -3.711825236678123474e-02 2.765507400035858154e-01
-8.875682950019836426e-02 -1.410746597684919834e-03 -9.109926819801330566e-01
2.698764204978942871e-01 -3.809416294097900391e-02 8.495250344276428223e-01
-3.306490480899810791e-01 -1.442750263959169388e-02 2.903337776660919189e-01
-1.645634919404983521e-01 2.490518055856227875e-02 4.822632968425750732e-01
1.729163080453872681e-01 1.828166283667087555e-02 4.474363923072814941e-01
-6.287271529436111450e-02 -3.640816360712051392e-02 -6.023982167243957520e-01
-1.847146600484848022e-01 1.606687903404235840e-02 -2.000361084938049316e-01
-3.984583541750907898e-02 1.644567027688026428e-02 5.060858726501464844e-01
-1.896964311599731445e-01 4.744603112339973450e-02 2.040274292230606079e-01
3.203319013118743896e-01 -3.042946103960275650e-03 9.033497571945190430e-01
-1.492924708873033524e-02 -2.605045214295387268e-02 3.115632832050323486e-01
1.314358860254287720e-01 1.393790729343891144e-02 -3.631341829895973206e-02
1.341099441051483154e-01 -3.293840959668159485e-02 5.541536808013916016e-01
2.671085596084594727e-01 -1.133091282099485397e-02 1.021666154265403748e-01
2.499691247940063477e-01 -1.215307507663965225e-02 -3.305103629827499390e-02
-8.200366050004959106e-02 4.074223339557647705e-02 2.645570039749145508e-01
-2.472665756940841675e-01 -1.213826332241296768e-02 4.395653307437896729e-01
-1.221400350332260132e-01 1.850394159555435181e-02 2.560944557189941406e-01
-2.479686886072158813e-01 -2.170215360820293427e-02 6.145825386047363281e-01
-1.744953989982604980e-01 2.740563638508319855e-02 6.018255352973937988e-01
-1.779989302158355713e-01 -9.395353496074676514e-03 6.523599624633789062e-01
-1.625875681638717651e-01 8.806113153696060181e-03 -5.787454843521118164e-01
1.877193897962570190e-01 -5.009955540299415588e-02 -3.348003029823303223e-01
-1.056898683309555054e-01 4.229284822940826416e-02 7.342642545700073242e-01
2.207757383584976196e-01 2.764342119917273521e-03 -3.592795729637145996e-01
-8.812070637941360474e-02 -3.524256125092506409e-02 -6.435725092887878418e-01
2.945225536823272705e-01 -8.228546008467674255e-03 -7.434634566307067871e-01
9.734466671943664551e-02 -3.798485174775123596e-02 4.584233835339546204e-02
-2.596395313739776611e-01 -2.572666294872760773e-02 6.766673922538757324e-01
2.751544117927551270e-01 -6.376289576292037964e-02 -8.322227001190185547e-01
2.796918153762817383e-01 -4.766723513603210449e-02 -8.973883390426635742e-01
-1.318458318710327148e-01 7.509345654398202896e-03 -5.204692482948303223e-01
2.342417985200881958e-01 -2.102168975397944450e-03 5.612506270408630371e-01
1.016993820667266846e-01 -8.307622745633125305e-03 -4.743083119392395020e-01
-3.314183056354522705e-01 -6.171548156999051571e-04 -7.929818034172058105e-01
-2.679470479488372803e-01 -4.383992031216621399e-02 -1.708782613277435303e-01
-1.754650920629501343e-01 2.520763874053955078e-02 4.511285126209259033e-01
1.826813519001007080e-01 3.634841181337833405e-03 -4.804256260395050049e-01
8.421889692544937134e-02 1.332202553749084473e-02 -2.992219626903533936e-01
-3.480848297476768494e-02 -1.379226567223668098e-03 -6.553134918212890625e-01
-8.409827202558517456e-02 2.764638280496001244e-03 -6.114867925643920898e-01
-2.587202191352844238e-01 3.827821463346481323e-02 6.839598417282104492e-01
7.479601353406906128e-02 2.012190222740173340e-02 1.085948124527931213e-01
8.574857562780380249e-02 2.357496693730354309e-02 -8.829660713672637939e-02
-7.507372647523880005e-02 -3.743305429816246033e-02 -7.278822064399719238e-01
-3.028292357921600342e-01 -4.301538690924644470e-02 3.059021532535552979e-01
-1.277760043740272522e-02 -4.325109720230102539e-02 -8.218789696693420410e-01
-1.311931163072586060e-01 1.584637723863124847e-02 3.685829043388366699e-02
9.781173616647720337e-02 7.867883890867233276e-03 5.828385353088378906e-01
-1.813405007123947144e-01 6.843103095889091492e-03 -7.973878979682922363e-01
-2.877063490450382233e-02 -3.484441712498664856e-02 -3.381557166576385498e-01
2.336394488811492920e-01 -9.140123729594051838e-04 6.374087929725646973e-01
-3.265797495841979980e-01 1.277951151132583618e-02 -5.686308741569519043e-01
-4.867260344326496124e-03 1.118080690503120422e-02 3.204652667045593262e-01
2.540245465934276581e-02 1.865502260625362396e-02 -2.210888564586639404e-01
2.505162060260772705e-01 9.141387417912483215e-03 -2.734422385692596436e-01
7.748220860958099365e-02 1.433565746992826462e-02 -2.634658813476562500e-01
3.161805868148803711e-01 1.099704019725322723e-02 6.366079449653625488e-01
1.977441161870956421e-01 5.205265246331691742e-03 -3.052217960357666016e-01
6.607907265424728394e-02 2.349912747740745544e-02 -1.858077198266983032e-01
-2.176417969167232513e-02 -7.132898463169112802e-05 -5.070526003837585449e-01
2.667175233364105225e-01 -2.360292337834835052e-02 -7.155655622482299805e-01
-8.101668208837509155e-02 1.694690808653831482e-02 3.458944261074066162e-01
8.343385905027389526e-02 3.259732946753501892e-02 5.006538629531860352e-01
8.707226812839508057e-02 -4.631737247109413147e-02 -5.564199090003967285e-01
-6.730979681015014648e-02 -2.536959573626518250e-02 1.106134876608848572e-01
2.608006298542022705e-01 3.308948362246155739e-03 -6.129028797149658203e-01
1.655497326282784343e-04 -5.128411576151847839e-03 -7.401850223541259766e-01
-2.438282370567321777e-01 -2.279043756425380707e-02 2.785132639110088348e-02
-3.994517400860786438e-02 -3.594573587179183960e-02 -4.638945162296295166e-01
-1.158094033598899841e-01 2.567273564636707306e-02 7.624830007553100586e-01
-2.456175386905670166e-01 -2.136256359517574310e-02 3.705336749553680420e-01
-2.047266364097595215e-01 2.567905560135841370e-02 3.449050188064575195e-01
1.629350185394287109e-01 7.463300134986639023e-03 -7.966580986976623535e-01
-8.030541241168975830e-02 3.554668650031089783e-02 4.050475060939788818e-01
-2.868935465812683105e-01 -4.373189061880111694e-02 4.472033381462097168e-01
-3.280125260353088379e-01 -1.978696510195732117e-02 -6.992319226264953613e-01
6.827163696289062500e-02 -2.787755988538265228e-02 5.811588764190673828e-01
-8.606410771608352661e-02 3.879742324352264404e-02 5.941272377967834473e-01
3.055336512625217438e-02 -8.625852060504257679e-04 -3.137426376342773438e-01
1.233515217900276184e-01 1.845328509807586670e-02 2.258632332086563110e-01
1.107425838708877563e-01 -1.096900645643472672e-02 -6.087486147880554199e-01
1.873313039541244507e-01 1.546353939920663834e-02 3.278317451477050781e-01
-1.879704557359218597e-02 -4.226007498800754547e-03 -7.693161964416503906e-01
1.660652756690979004e-01 5.916002672165632248e-03 -8.848091363906860352e-01
3.005065917968750000e-01 -9.757979772984981537e-03 -8.170216083526611328e-01
6.797834299504756927e-03 7.885530591011047363e-03 1.562124192714691162e-01
-8.157410472631454468e-02 2.529443800449371338e-02 -7.604724764823913574e-01
2.498773187398910522e-01 1.917383633553981781e-02 3.905248641967773438e-01
-3.147311508655548096e-01 3.367790952324867249e-02 4.126045703887939453e-01
-2.581958472728729248e-01 -4.243919998407363892e-02 -5.310223102569580078e-01
-3.265619575977325439e-01 -1.147340424358844757e-02 2.227171510457992554e-01
2.780792713165283203e-01 -9.108021855354309082e-03 9.366401433944702148e-01
-1.443026810884475708e-01 4.807514324784278870e-02 4.592198133468627930e-01
-2.817873656749725342e-01 -3.626310825347900391e-02 5.807470679283142090e-01
1.315306723117828369e-01 -5.203360226005315781e-03 -1.277082860469818115e-01
1.567860841751098633e-01 7.529726717621088028e-03 8.375539779663085938e-01
3.064807355403900146e-01 -4.903684929013252258e-02 2.940594851970672607e-01
1.394195407629013062e-01 -4.852514341473579407e-02 -4.571599960327148438e-01
-2.606299519538879395e-01 -4.042319208383560181e-02 -2.661379873752593994e-01
-1.098312884569168091e-01 -1.831268146634101868e-02 3.799116015434265137e-01
-1.070841699838638306e-01 2.416655607521533966e-02 7.033595442771911621e-01
-6.848744302988052368e-02 -2.925339341163635254e-02 -1.531236469745635986e-01
3.295528292655944824e-01 9.139619767665863037e-03 5.758759379386901855e-01
-2.354002296924591064e-01 4.591318964958190918e-02 3.652773797512054443e-01
2.645362019538879395e-01 -1.848746277391910553e-02 -3.857209086418151855e-01
3.187489807605743408e-01 -8.303652517497539520e-03 -6.346023678779602051e-01
-2.479104101657867432e-01 4.345064982771873474e-02 1.427552551031112671e-01
-1.076845452189445496e-01 3.162961453199386597e-02 -4.620074331760406494e-01
-1.204139515757560730e-01 3.565363213419914246e-02 -2.543071508407592773e-01
-1.284321546554565430e-01 2.048410288989543915e-02 3.581716120243072510e-01
-3.328234553337097168e-01 4.667679779231548309e-03 9.410896301269531250e-01
-1.867863684892654419e-01 -2.978237718343734741e-02 -7.443146109580993652e-01
-1.969088762998580933e-01 1.229367963969707489e-02 -5.082000494003295898e-01
2.406464964151382446e-01 1.092021539807319641e-02 -2.015864402055740356e-01
-2.629822818562388420e-03 1.467129681259393692e-02 5.630438327789306641e-01
3.166644573211669922e-01 -1.371445413678884506e-02 1.766272485256195068e-01
3.441781699657440186e-01 -1.622172631323337555e-02 1.392398774623870850e-01
-2.294863015413284302e-01 2.965991944074630737e-02 -6.875176429748535156e-01
3.345463424921035767e-02 1.475197263062000275e-02 7.380195856094360352e-01
3.300949633121490479e-01 -6.278481800109148026e-03 7.341102361679077148e-01
3.125961124897003174e-01 -2.973744831979274750e-02 -9.077686667442321777e-01
-2.276525795459747314e-01 2.891754359006881714e-02 -7.282564640045166016e-01
3.181624412536621094e-01 6.315224338322877884e-03 -1.433832943439483643e-01
5.152246728539466858e-02 3.523366153240203857e-02 5.259053111076354980e-01
-1.200436502695083618e-01 1.906847395002841949e-02 -8.772648572921752930e-01
-1.636609435081481934e-01 2.951979823410511017e-02 7.933393120765686035e-01
2.933099567890167236e-01 -2.658417820930480957e-02 -7.887801527976989746e-01
1.510834693908691406e-01 -4.694885388016700745e-02 -2.975294589996337891e-01
-3.269638419151306152e-01 -1.232499349862337112e-02 9.136622399091720581e-02
-1.963963657617568970e-01 3.536815568804740906e-02 -6.304244399070739746e-01
-2.952069938182830811e-01 4.588771238923072815e-02 5.490366220474243164e-01
2.986550927162170410e-01 1.236596144735813141e-02 1.672167032957077026e-01
-2.357418984174728394e-01 1.085998024791479111e-02 -1.866688132286071777e-01
2.195206731557846069e-01 7.821917533874511719e-03 -2.892609685659408569e-02
1.164372935891151428e-01 5.450126715004444122e-03 -6.711296439170837402e-01
3.340754508972167969e-01 -5.667784810066223145e-02 -8.420554548501968384e-02
-2.812720090150833130e-02 1.720038987696170807e-02 6.113466620445251465e-01
-2.152618765830993652e-01 3.857850283384323120e-02 -2.773758582770824432e-02
1.595875173807144165e-01 -4.781949799507856369e-03 3.218708932399749756e-02
2.841521799564361572e-01 -5.514698103070259094e-02 -2.171133011579513550e-01
-1.059693247079849243e-01 4.454594478011131287e-02 4.047947227954864502e-01
-5.666849669069051743e-03 6.577337160706520081e-03 1.064917445182800293e-02
-9.745460748672485352e-02 -3.298294916749000549e-02 -5.372216105461120605e-01
8.256884664297103882e-02 -2.386124432086944580e-02 9.153810143470764160e-01
-2.222718894481658936e-01 -4.685366060584783554e-03 3.178553879261016846e-01
-1.311792880296707153e-01 2.234705351293087006e-02 -7.116256356239318848e-01
3.095102906227111816e-01 -4.639942944049835205e-02 4.836506843566894531e-01
-2.364499121904373169e-01 2.589629776775836945e-02 9.242771267890930176e-01
-2.999409139156341553e-01 3.463160246610641479e-02 -4.604709744453430176e-01
2.913625352084636688e-02 4.612776916474103928e-03 4.362330585718154907e-02
1.720947474241256714e-01 3.499756101518869400e-03 6.415818333625793457e-01
2.147265225648880005e-01 7.237575482577085495e-03 -9.028930962085723877e-02
3.309698700904846191e-01 2.564745722338557243e-03 -2.058641165494918823e-01
-3.018605411052703857e-01 5.501859635114669800e-02 9.452093243598937988e-01
-1.710847020149230957e-01 2.510602958500385284e-02 -7.157502174377441406e-01
3.516246676445007324e-01 -2.338281832635402679e-02 -8.611356616020202637e-01
1.667505800724029541e-01 1.313193887472152710e-02 -4.018886685371398926e-01
-8.410428464412689209e-02 2.512153238058090210e-02 8.748643994331359863e-01
-2.981555461883544922e-01 4.539526253938674927e-02 2.192343771457672119e-01
-1.479860488325357437e-02 3.918065875768661499e-02 4.765932559967041016e-01
-1.738071441650390625e-01 -2.430669032037258148e-02 -3.192744255065917969e-01
2.168041616678237915e-01 -4.905600100755691528e-03 -8.878702521324157715e-01
-1.620257049798965454e-01 -1.449168752878904343e-02 3.886190652847290039e-01
2.849589586257934570e-01 1.512286439538002014e-02 2.860965728759765625e-01
2.412952631711959839e-01 -5.339225754141807556e-02 -3.018910884857177734e-01
-8.615436404943466187e-02 -1.591818034648895264e-02 6.504176855087280273e-01
-8.819278329610824585e-02 2.441223710775375366e-02 8.084889650344848633e-01
6.112239882349967957e-02 -4.301134124398231506e-02 -4.585977494716644287e-01
-3.096812665462493896e-01 -4.409429058432579041e-02 8.282942697405815125e-03
2.800858318805694580e-01 -1.838911138474941254e-02 -3.060947358608245850e-01
-1.985273212194442749e-01 1.367958635091781616e-02 -4.236721098423004150e-01
-1.637350022792816162e-01 3.435620293021202087e-02 -6.622865051031112671e-02
-2.952948808670043945e-01 -3.150609508156776428e-02 8.441473245620727539e-01
-9.206324815750122070e-02 3.476037085056304932e-02 -1.804438382387161255e-01
1.188634932041168213e-01 2.241281978785991669e-02 4.680269956588745117e-01
1.433990150690078735e-01 -3.687345981597900391e-02 3.361995220184326172e-01
2.210107594728469849e-01 -4.926376417279243469e-02 -1.227591112256050110e-01
-3.113846182823181152e-01 1.665678992867469788e-02 -9.045090079307556152e-01
-3.176579773426055908e-01 -4.767848923802375793e-02 -6.111678481101989746e-01
1.676215231418609619e-01 -5.574765428900718689e-02 -8.047750592231750488e-01
2.193063944578170776e-01 -3.413048014044761658e-02 8.753522038459777832e-01
1.918736398220062256e-01 1.431995723396539688e-02 -2.048114687204360962e-01
2.178331017494201660e-01 -4.571244865655899048e-02 9.841434657573699951e-02
-2.765766158699989319e-02 -1.908912695944309235e-02 7.145524621009826660e-01
5.875950306653976440e-02 1.410301122814416885e-02 -8.448957204818725586e-01
-1.715004146099090576e-01 -3.261008113622665405e-02 -8.604611754417419434e-01
-2.185817360877990723e-01 5.175769701600074768e-02 8.329020738601684570e-01
3.399212360382080078e-01 3.250599140301346779e-03 2.331033200025558472e-01
1.410301029682159424e-01 1.757868751883506775e-02 2.508302628993988037e-01
2.358582764863967896e-01 -4.609123989939689636e-02 1.579493731260299683e-01
1.034787967801094055e-01 2.689521759748458862e-02 6.943361163139343262e-01
-2.443802356719970703e-01 -4.683341830968856812e-03 7.847368717193603516e-02
-2.820796370506286621e-01 3.276411071419715881e-02 -7.283483147621154785e-01
-9.303886443376541138e-02 2.959770895540714264e-02 -5.029038712382316589e-02
-2.845038771629333496e-01 4.213643446564674377e-02 -1.041177585721015930e-01
-2.205783873796463013e-01 -2.815078943967819214e-02 -7.947137951850891113e-01
-1.836491972208023071e-01 2.958437800407409668e-02 7.036479115486145020e-01
1.429100986570119858e-02 1.854393258690834045e-02 -2.807070314884185791e-01
-1.634851694107055664e-01 3.580234199762344360e-02 3.109050728380680084e-02
2.186299860477447510e-01 4.074411001056432724e-03 -2.822375893592834473e-01
3.523869812488555908e-01 1.926409197039902210e-03 3.317292630672454834e-01
-1.393288373947143555e-01 2.351700328290462494e-02 5.085930824279785156e-01
2.005100101232528687e-01 2.207016758620738983e-02 8.316726684570312500e-01
2.628436982631683350e-01 -8.771286346018314362e-03 2.522976398468017578e-01
2.681572735309600830e-01 1.542364619672298431e-02 7.062498331069946289e-01
-1.178919672966003418e-01 3.406006097793579102e-02 1.295656859874725342e-01
1.412315368652343750e-01 1.406509242951869965e-02 1.818216592073440552e-02
-1.191114857792854309e-01 -1.328935101628303528e-02 6.702775359153747559e-01
9.067759662866592407e-02 2.798715606331825256e-02 2.282054871320724487e-01
4.943852499127388000e-02 2.523775771260261536e-02 3.295272290706634521e-01
3.196969926357269287e-01 1.271611731499433517e-02 7.673472762107849121e-01
-2.118995636701583862e-01 5.226564779877662659e-02 8.981428742408752441e-01
3.292289376258850098e-01 -2.887470088899135590e-02 -7.722114920616149902e-01
-8.279204368591308594e-02 1.755014806985855103e-02 3.776552379131317139e-01
-2.759366333484649658e-01 -4.552236199378967285e-02 2.583320438861846924e-01
-2.957668900489807129e-01 -5.642179772257804871e-02 -4.671393036842346191e-01
2.228306531906127930e-01 -1.150608900934457779e-02 -1.175966486334800720e-01
-1.416355520486831665e-01 2.719313465058803558e-02 7.421728968620300293e-01
2.675173580646514893e-01 -5.295292939990758896e-03 -6.753827333450317383e-01
-1.910187676548957825e-02 -3.246748819947242737e-03 -7.056465148925781250e-01
-2.123992145061492920e-01 4.602269828319549561e-02 4.806784093379974365e-01
-2.228633761405944824e-01 -2.234341204166412354e-02 -4.461872875690460205e-01
2.983104586601257324e-01 -6.251592934131622314e-02 -6.404836773872375488e-01
-2.474462985992431641e-01 -9.491207078099250793e-03 6.452493071556091309e-01
2.685058116912841797e-01 -4.747813567519187927e-02 2.192008048295974731e-01
-7.956156134605407715e-02 9.759618900716304779e-03 -1.251280307769775391e-01
-1.641447991132736206e-01 -3.218379244208335876e-02 -7.975458502769470215e-01
2.062511295080184937e-01 2.004438638687133789e-02 2.433679997920989990e-01
3.267690911889076233e-02 6.544977892190217972e-03 1.887276470661163330e-01
1.609176248311996460e-01 -1.733035221695899963e-02 -9.112671613693237305e-01
1.390867680311203003e-01 1.159011106938123703e-02 -6.344059109687805176e-01
-2.711819708347320557e-01 -4.624795168638229370e-02 1.037351042032241821e-01
6.292906403541564941e-02 8.062265813350677490e-03 4.317999184131622314e-01
3.273695409297943115e-01 1.162932487204670906e-03 -4.426709413528442383e-01
-3.318360149860382080e-01 4.653045441955327988e-03 -2.720341086387634277e-01
1.007079705595970154e-01 1.492616161704063416e-02 -5.929856896400451660e-01
-1.365718394517898560e-01 2.189430221915245056e-02 4.136641323566436768e-01
-2.620617747306823730e-01 -5.639889091253280640e-02 -8.611237406730651855e-01
2.505458295345306396e-01 5.035717505961656570e-03 -5.462993383407592773e-01
-1.412919014692306519e-01 3.767872229218482971e-02 2.601617872714996338e-01
-1.613375544548034668e-02 2.026459015905857086e-02 -3.093138635158538818e-01
1.378800719976425171e-01 1.035499107092618942e-02 9.365265965461730957e-01
3.132991790771484375e-01 -5.927497521042823792e-03 6.785140037536621094e-01
-3.144824132323265076e-02 3.847590088844299316e-02 8.303850293159484863e-01
3.524748384952545166e-01 4.314661026000976562e-03 4.263530671596527100e-01
-2.210276871919631958e-01 4.565299488604068756e-03 -3.690139651298522949e-01
2.946527861058712006e-02 5.452684592455625534e-03 1.010105907917022705e-01
-2.452274858951568604e-01 -3.606521710753440857e-02 -6.884685754776000977e-01
-1.523939669132232666e-01 1.157253514975309372e-02 -3.469175100326538086e-01
-2.458732873201370239e-01 1.833745464682579041e-02 7.170922160148620605e-01
-2.762486636638641357e-01 -4.877625778317451477e-02 4.779386147856712341e-02
9.885844588279724121e-02 -2.700770087540149689e-02 7.827546596527099609e-01
2.065729349851608276e-02 1.660820655524730682e-02 8.012794852256774902e-01
-3.282110393047332764e-01 1.001177821308374405e-02 7.429213523864746094e-01
-3.754227980971336365e-02 3.246480971574783325e-02 4.011381566524505615e-01
1.144761890172958374e-01 4.122431389987468719e-03 -7.686052918434143066e-01
2.056970447301864624e-02 1.651370711624622345e-02 -3.861919045448303223e-01
-4.016330465674400330e-02 3.030779771506786346e-03 -3.872968852519989014e-01
-1.475603282451629639e-01 2.403255738317966461e-02 -6.765646934509277344e-01
-6.316984444856643677e-02 -2.038813382387161255e-02 4.612707793712615967e-01
-3.333448469638824463e-01 -1.123690628446638584e-03 1.565402597188949585e-01
-2.125661075115203857e-01 3.806008026003837585e-02 -5.274348855018615723e-01
-2.124811708927154541e-01 2.548166178166866302e-02 2.953787147998809814e-01
2.802902162075042725e-01 2.334103919565677643e-03 -5.861109495162963867e-01
2.995566427707672119e-01 -2.038527093827724457e-02 -3.472858369350433350e-01
2.408459633588790894e-01 1.455378904938697815e-02 5.206559300422668457e-01
-3.154973983764648438e-01 3.119987249374389648e-02 -1.596813946962356567e-01
-2.394448816776275635e-01 3.655666485428810120e-02 -2.757963538169860840e-01
1.486799716949462891e-01 4.802181851118803024e-03 6.181137561798095703e-01
7.916297763586044312e-02 -2.822178974747657776e-02 -8.976402282714843750e-01
-2.150169909000396729e-01 4.565773159265518188e-02 4.252070561051368713e-02
2.272999286651611328e-01 -4.024426639080047607e-02 5.064551830291748047e-01
5.258350074291229248e-02 3.177763521671295166e-02 7.802237868309020996e-01
1.620907336473464966e-01 -4.280426725745201111e-02 2.974844537675380707e-02
-6.470505893230438232e-02 2.931588701903820038e-02 -3.495569825172424316e-01
2.507897317409515381e-01 5.910620166105218232e-05 -8.760048747062683105e-01
-6.756208837032318115e-02 1.543914806097745895e-02 3.088941574096679688e-01
-2.547644376754760742e-01 2.917961776256561279e-02 -8.382728695869445801e-01
8.726304769515991211e-02 2.246318012475967407e-02 -1.551044881343841553e-01
-2.738758027553558350e-01 4.268101975321769714e-02 -3.046436980366706848e-02
-2.561251521110534668e-01 4.591397568583488464e-02 2.679143846035003662e-01
9.512286633253097534e-02 -2.854686230421066284e-02 6.628686189651489258e-01
-1.951166242361068726e-01 4.599988833069801331e-02 8.240982890129089355e-02
5.903796479105949402e-02 -2.788693644106388092e-03 -3.079106807708740234e-01
-2.794332504272460938e-01 -4.727204889059066772e-02 1.814184337854385376e-01
3.062773346900939941e-01 1.003219932317733765e-02 5.257956981658935547e-01
2.162847518920898438e-01 -4.318977519869804382e-02 2.588514685630798340e-01
-2.388525195419788361e-02 1.330612692981958389e-02 -8.083931803703308105e-01
1.302172336727380753e-02 2.083830721676349640e-02 -1.341366916894912720e-01
-7.126053422689437866e-02 1.192189939320087433e-02 5.764905735850334167e-02
-5.240174382925033569e-02 3.671110793948173523e-02 6.136375665664672852e-01
-2.477395832538604736e-01 -1.843019016087055206e-02 8.182026743888854980e-01
1.266545802354812622e-01 2.724823541939258575e-02 3.481616675853729248e-01
1.831049621105194092e-01 -5.053996294736862183e-02 -3.857702910900115967e-01
3.271444141864776611e-01 -8.100837469100952148e-03 -5.816762447357177734e-01
9.687759727239608765e-02 2.486459352076053619e-02 4.973649978637695312e-02
3.584726154804229736e-02 -4.379992559552192688e-02 -6.298220753669738770e-01
7.417914271354675293e-02 -3.535729483701288700e-04 -7.484368979930877686e-02
-6.452079862356185913e-02 4.071883112192153931e-02 3.717966377735137939e-01
3.372254371643066406e-01 -1.934171840548515320e-02 5.438041090965270996e-01
9.720345586538314819e-02 8.721823804080486298e-03 6.367530822753906250e-01
-1.503370851278305054e-01 -9.091600775718688965e-03 8.025938272476196289e-01
7.019936293363571167e-02 1.588726043701171875e-02 -6.725012660026550293e-01
-2.147197574377059937e-01 3.804181143641471863e-02 -6.085427850484848022e-02
-2.078105317195877433e-04 -3.373450366780161858e-03 -6.252668499946594238e-01
-3.158885613083839417e-02 2.491456083953380585e-02 -7.281267642974853516e-02
-6.483481079339981079e-02 2.954102866351604462e-02 -1.804586350917816162e-01
-3.375229239463806152e-02 -2.296117134392261505e-02 4.284770786762237549e-01
