-6.021816730499267578e-01 -7.227683067321777344e-02 6.502622365951538086e-01
-5.545535311102867126e-02 1.430989056825637817e-01 6.525114774703979492e-01
3.755617737770080566e-01 -6.018945574760437012e-02 6.395493149757385254e-01
5.408458709716796875e-01 1.487646698951721191e-01 5.498216748237609863e-01
-4.389864802360534668e-01 1.790717393159866333e-01 5.594983100891113281e-01
-5.252228379249572754e-01 -6.018945574760437012e-02 5.859479904174804688e-01
-7.943064719438552856e-02 1.487646698951721191e-01 -2.176426053047180176e-01
-3.070219457149505615e-01 1.487646698951721191e-01 2.483337593730539083e-04
4.266361892223358154e-01 -5.471899360418319702e-02 3.130910396575927734e-01
-2.461213022470474243e-01 1.487646698951721191e-01 -2.047533541917800903e-01
2.654114961624145508e-01 1.487646698951721191e-01 2.480415850877761841e-01
4.185968935489654541e-01 1.487646698951721191e-01 -5.357547402381896973e-01
1.428390890359878540e-01 -6.018945574760437012e-02 -5.969612672924995422e-02
-4.028171300888061523e-02 3.275936245918273926e-01 6.741907596588134766e-01
-3.238930106163024902e-01 -2.218825370073318481e-01 4.375581741333007812e-01
1.496139168739318848e-01 1.487646698951721191e-01 -2.861989438533782959e-01
-4.216182231903076172e-01 -2.218825370073318481e-01 9.749776124954223633e-02
4.610949754714965820e-01 -2.218825370073318481e-01 6.429289579391479492e-01
3.648381829261779785e-01 1.487646698951721191e-01 3.798206150531768799e-01
-5.163688063621520996e-01 -2.218825370073318481e-01 -3.754342496395111084e-01
-1.795102506875991821e-01 -2.218825370073318481e-01 -3.914933800697326660e-01
-4.910252690315246582e-01 1.487646698951721191e-01 3.103241920471191406e-01
4.432090818881988525e-01 2.800454795360565186e-01 5.513522624969482422e-01
-2.571100294589996338e-01 1.487646698951721191e-01 9.902733564376831055e-02
-1.522477567195892334e-01 -5.471899360418319702e-02 -6.118104457855224609e-01
9.423753619194030762e-02 -2.218825370073318481e-01 2.206703275442123413e-01
3.626627922058105469e-01 1.487646698951721191e-01 -4.139185249805450439e-01
1.148009765893220901e-02 1.487646698951721191e-01 -4.960148036479949951e-01
4.091688394546508789e-01 -2.218825370073318481e-01 2.943339943885803223e-01
-5.624523758888244629e-01 -1.513819396495819092e-01 -7.494077086448669434e-01
-1.620027422904968262e-02 -2.218825370073318481e-01 -2.210747152566909790e-01
1.070148423314094543e-01 -2.218825370073318481e-01 -7.313372492790222168e-01
-1.178083717823028564e-01 1.487646698951721191e-01 -6.267925500869750977e-01
-2.044089138507843018e-01 -6.018945574760437012e-02 4.777225255966186523e-01
5.070785284042358398e-01 1.487646698951721191e-01 3.367757499217987061e-01
6.155136823654174805e-01 -1.232347264885902405e-01 3.560960590839385986e-01
2.410780340433120728e-01 1.487646698951721191e-01 -2.974469661712646484e-01
2.580416575074195862e-02 1.487646698951721191e-01 3.706994354724884033e-01
-3.419886529445648193e-01 6.845746934413909912e-02 -7.847249507904052734e-01
-1.044218689203262329e-01 -5.471899360418319702e-02 -7.022655010223388672e-01
1.081462427973747253e-01 -6.018945574760437012e-02 -6.246355772018432617e-01
4.339179694652557373e-01 -2.218825370073318481e-01 -6.301631778478622437e-02
4.685217887163162231e-02 -6.018945574760437012e-02 2.549310028553009033e-01
-2.418948262929916382e-01 -5.471899360418319702e-02 -5.157206058502197266e-01
2.897880040109157562e-02 7.887309789657592773e-02 -7.847249507904052734e-01
-1.100222393870353699e-02 -2.218825370073318481e-01 4.304919838905334473e-01
3.630512356758117676e-01 7.223733514547348022e-02 -7.847249507904052734e-01
5.998624563217163086e-01 1.291131973266601562e-01 6.509643793106079102e-01
-1.391768753528594971e-01 1.487646698951721191e-01 -1.451035588979721069e-01
-7.921048253774642944e-02 -2.218825370073318481e-01 9.912445396184921265e-02
5.981836840510368347e-02 1.487646698951721191e-01 -3.527158200740814209e-01
-4.311560094356536865e-01 1.487646698951721191e-01 -7.191625237464904785e-02
5.619637966156005859e-01 6.203469261527061462e-02 6.816774010658264160e-01
3.560472130775451660e-01 -2.218825370073318481e-01 3.820804953575134277e-01
3.293169438838958740e-01 1.487646698951721191e-01 1.871457844972610474e-01
4.449027776718139648e-01 3.197563290596008301e-01 6.423249244689941406e-01
4.991208314895629883e-01 -5.471899360418319702e-02 3.647967278957366943e-01
2.962293922901153564e-01 -6.018945574760437012e-02 5.741884186863899231e-02
6.155136823654174805e-01 2.135539613664150238e-02 2.814524769783020020e-01
5.510392189025878906e-01 1.487646698951721191e-01 -6.336819529533386230e-01
-6.111746430397033691e-01 1.169547289609909058e-01 -2.831873893737792969e-01
-5.342361927032470703e-01 -6.018945574760437012e-02 -6.637510657310485840e-01
-4.995346069335937500e-01 -2.218825370073318481e-01 5.831218957901000977e-01
2.897973954677581787e-01 1.487646698951721191e-01 6.371682882308959961e-02
-7.182731479406356812e-02 1.487646698951721191e-01 -5.595074221491813660e-02
-6.088156700134277344e-01 4.050264880061149597e-02 -7.617667317390441895e-01
4.886040687561035156e-01 1.487646698951721191e-01 -3.393507003784179688e-01
-5.074195265769958496e-01 2.731939554214477539e-01 4.695239961147308350e-01
-2.979503273963928223e-01 1.487646698951721191e-01 -5.467191934585571289e-01
3.288585245609283447e-01 1.487646698951721191e-01 -4.644277095794677734e-01
5.016409754753112793e-01 -5.544425174593925476e-02 6.361104249954223633e-01
3.904195725917816162e-01 1.487646698951721191e-01 6.708677113056182861e-02
-3.623920725658535957e-03 -6.018945574760437012e-02 1.639507897198200226e-02
-3.440038263797760010e-01 -6.018945574760437012e-02 -2.453809678554534912e-01
-5.904554948210716248e-02 1.487646698951721191e-01 8.787838369607925415e-02
-3.771603107452392578e-01 -6.018945574760437012e-02 2.700481414794921875e-01
3.859658241271972656e-01 1.487646698951721191e-01 4.182961285114288330e-01
6.118116378784179688e-01 1.133850216865539551e-01 2.750855386257171631e-01
3.248777389526367188e-01 -6.018945574760437012e-02 -4.985617846250534058e-02
-6.986682116985321045e-02 -2.218825370073318481e-01 -8.013413101434707642e-02
-4.542191624641418457e-01 1.487646698951721191e-01 -6.957722902297973633e-01
-5.167601704597473145e-01 -1.098754033446311951e-01 6.816774010658264160e-01
-3.945324420928955078e-01 1.487646698951721191e-01 2.557205557823181152e-01
-5.693243145942687988e-01 -6.018945574760437012e-02 -7.752357721328735352e-01
-5.945887416601181030e-02 -5.471899360418319702e-02 1.687704324722290039e-01
4.142159819602966309e-01 2.425391674041748047e-01 5.219230651855468750e-01
4.673803448677062988e-01 -6.018945574760437012e-02 -6.042654514312744141e-01
5.864050388336181641e-01 -2.218825370073318481e-01 -1.770955920219421387e-01
3.637096881866455078e-01 -6.018945574760437012e-02 -3.956761956214904785e-01
-3.632328808307647705e-01 1.429444849491119385e-01 6.530436873435974121e-01
1.712902784347534180e-01 -5.471899360418319702e-02 6.235562562942504883e-01
9.550821036100387573e-02 -2.218825370073318481e-01 1.594268828630447388e-01
-4.040178358554840088e-01 1.773964911699295044e-01 4.427334964275360107e-01
1.107615903019905090e-01 -2.218825370073318481e-01 -6.739522218704223633e-01
5.680918097496032715e-01 -2.218825370073318481e-01 4.972623586654663086e-01
-5.119839310646057129e-01 -5.471899360418319702e-02 4.907283782958984375e-01
-7.160633336752653122e-03 1.487646698951721191e-01 4.518614709377288818e-01
-9.285123646259307861e-02 -5.471899360418319702e-02 -3.878020048141479492e-01
5.047642588615417480e-01 6.438519060611724854e-02 -7.847249507904052734e-01
5.827214121818542480e-01 1.456705480813980103e-01 -3.041441142559051514e-01
5.728058815002441406e-01 -6.018945574760437012e-02 4.743953645229339600e-01
3.365035057067871094e-01 3.186900019645690918e-01 6.369806528091430664e-01
1.555661708116531372e-01 -6.018945574760437012e-02 7.110349833965301514e-02
-2.136349529027938843e-01 -2.218825370073318481e-01 4.018174409866333008e-01
5.467223525047302246e-01 -6.018945574760437012e-02 3.851998746395111084e-01
5.432814955711364746e-01 -5.471899360418319702e-02 -1.137057691812515259e-01
-5.559931993484497070e-01 1.487646698951721191e-01 2.920090258121490479e-01
-2.351685613393783569e-01 1.027295216917991638e-01 -7.830681800842285156e-01
1.430420577526092529e-01 -5.471899360418319702e-02 1.548099666833877563e-01
2.513995766639709473e-01 -2.218825370073318481e-01 -2.037880122661590576e-01
-1.927122175693511963e-01 -5.471899360418319702e-02 -3.541240096092224121e-01
2.808714210987091064e-01 -6.018945574760437012e-02 2.461206018924713135e-01
1.427672207355499268e-01 1.246856674551963806e-01 6.730418205261230469e-01
2.647180855274200439e-01 -5.471899360418319702e-02 -3.908123448491096497e-02
-4.672939479351043701e-01 -6.018945574760437012e-02 -2.724666893482208252e-01
-1.432072073221206665e-01 -2.218825370073318481e-01 5.204527378082275391e-01
-1.572968363761901855e-01 2.990880608558654785e-01 4.703174233436584473e-01
-1.293574571609497070e-01 -2.218825370073318481e-01 4.235899448394775391e-01
4.599460959434509277e-01 1.977996379137039185e-01 5.319940447807312012e-01
8.695732057094573975e-02 -2.218825370073318481e-01 -2.609205543994903564e-01
2.908987104892730713e-01 3.176401853561401367e-01 5.160620808601379395e-01
2.234640419483184814e-01 2.168577462434768677e-01 3.852416276931762695e-01
-3.908760249614715576e-01 1.487646698951721191e-01 -6.583426147699356079e-04
1.519000232219696045e-01 -2.178920209407806396e-01 6.816774010658264160e-01
7.025856524705886841e-02 2.627384066581726074e-01 5.121424794197082520e-01
-2.755057811737060547e-01 -6.018945574760437012e-02 4.659423530101776123e-01
-2.830623984336853027e-01 1.487646698951721191e-01 -7.068833708763122559e-01
3.243494331836700439e-01 1.487646698951721191e-01 -1.481565088033676147e-01
-3.364190757274627686e-01 -6.018945574760437012e-02 -3.046772480010986328e-01
2.648190855979919434e-01 -6.018945574760437012e-02 1.645439267158508301e-01
-4.758731722831726074e-01 1.487646698951721191e-01 -4.560504853725433350e-01
-2.604828476905822754e-01 -5.471899360418319702e-02 5.630421042442321777e-01
2.678306400775909424e-01 -5.471899360418319702e-02 4.915703833103179932e-01
-2.909404635429382324e-01 1.487646698951721191e-01 4.813343286514282227e-01
-7.781507447361946106e-03 1.487646698951721191e-01 -7.713789492845535278e-02
3.594987094402313232e-01 1.888542771339416504e-01 4.452837705612182617e-01
5.695068240165710449e-01 -6.018945574760437012e-02 -3.374685943126678467e-01
-5.177302956581115723e-01 2.428392618894577026e-01 5.725750327110290527e-01
-5.317335128784179688e-01 2.799711003899574280e-02 6.816774010658264160e-01
4.743406772613525391e-01 -6.018945574760437012e-02 -6.812417507171630859e-01
3.505115807056427002e-01 -6.018945574760437012e-02 3.836770951747894287e-01
-6.143386363983154297e-01 1.021232232451438904e-01 -5.767455697059631348e-01
3.675011098384857178e-01 -2.218825370073318481e-01 -4.690057933330535889e-01
1.269181724637746811e-02 1.487646698951721191e-01 -6.265584826469421387e-01
-1.476745605468750000e-01 -5.471899360418319702e-02 8.684895932674407959e-02
-1.636268645524978638e-01 -2.218825370073318481e-01 6.134027242660522461e-01
1.814059019088745117e-01 -5.471899360418319702e-02 2.633878886699676514e-01
5.815026760101318359e-01 -1.530513614416122437e-01 -7.494077086448669434e-01
5.651754140853881836e-01 -2.218825370073318481e-01 -1.132233962416648865e-01
-3.962941467761993408e-01 1.487646698951721191e-01 -3.820634186267852783e-01
-4.222154319286346436e-01 9.654864668846130371e-02 -7.845968008041381836e-01
5.161268711090087891e-01 1.487646698951721191e-01 -8.339238911867141724e-02
-4.476433992385864258e-01 -5.471899360418319702e-02 -1.366862058639526367e-01
-6.156380772590637207e-01 4.922728240489959717e-02 -2.993834614753723145e-01
-2.027540504932403564e-01 -6.018945574760437012e-02 2.346757426857948303e-02
6.155136823654174805e-01 -3.269243612885475159e-02 -4.105262458324432373e-01
5.745131373405456543e-01 1.484335064888000488e-01 -4.184234887361526489e-02
-3.604786396026611328e-01 -6.018945574760437012e-02 3.948260545730590820e-01
2.808753252029418945e-01 -2.218825370073318481e-01 -3.003701567649841309e-01
4.831180274486541748e-01 -8.304411917924880981e-02 6.773907542228698730e-01
-2.068203091621398926e-01 -2.218825370073318481e-01 -3.139839172363281250e-01
3.557591140270233154e-02 -6.018945574760437012e-02 -2.259577065706253052e-01
-1.637958586215972900e-01 -6.018945574760437012e-02 1.855249255895614624e-01
-2.352132350206375122e-01 -6.018945574760437012e-02 1.208882182836532593e-01
1.311424076557159424e-01 3.265710175037384033e-01 5.607977509498596191e-01
2.187335193157196045e-01 1.487646698951721191e-01 4.761980846524238586e-02
2.889981269836425781e-01 -5.471899360418319702e-02 -2.008823007345199585e-01
3.258634805679321289e-01 2.694792449474334717e-01 6.581267118453979492e-01
-3.984044790267944336e-01 2.318991273641586304e-01 6.209991574287414551e-01
-1.615058481693267822e-01 -6.018945574760437012e-02 -5.468162894248962402e-01
1.136080622673034668e-01 -2.218825370073318481e-01 -4.184033572673797607e-01
3.271900713443756104e-01 2.075073868036270142e-01 4.769504964351654053e-01
2.764798402786254883e-01 -2.218825370073318481e-01 2.689099311828613281e-01
3.536289930343627930e-01 1.487646698951721191e-01 -2.841313481330871582e-01
-4.779893457889556885e-01 -6.018945574760437012e-02 -3.451980650424957275e-01
1.105993986129760742e-01 1.144705861806869507e-01 -7.801634669303894043e-01
4.596343338489532471e-01 -6.018945574760437012e-02 1.580759733915328979e-01
3.929164409637451172e-01 1.487646698951721191e-01 -3.523594141006469727e-01
3.270842134952545166e-01 1.487646698951721191e-01 4.974808692932128906e-01
-4.026649892330169678e-01 -6.018945574760437012e-02 1.148893386125564575e-01
-4.839386940002441406e-01 3.306343257427215576e-01 6.843869686126708984e-01
-6.052389144897460938e-01 -1.871479153633117676e-01 -7.429378032684326172e-01
1.594517976045608521e-01 1.582257300615310669e-01 4.690209627151489258e-01
1.148997172713279724e-01 -3.939792886376380920e-02 6.816774010658264160e-01
-6.124206185340881348e-01 1.111124977469444275e-01 3.205592632293701172e-01
-2.677491009235382080e-01 -2.218825370073318481e-01 -4.200251996517181396e-01
-1.771066039800643921e-01 -5.471899360418319702e-02 -4.458221793174743652e-01
-4.844495356082916260e-01 1.487646698951721191e-01 -2.642496824264526367e-01
1.721215844154357910e-01 3.290785253047943115e-01 6.080351471900939941e-01
5.039553046226501465e-01 1.487646698951721191e-01 -2.240979522466659546e-01
-3.640564084053039551e-01 1.487646698951721191e-01 -4.788951277732849121e-01
-3.739360570907592773e-01 -6.018945574760437012e-02 -7.164735794067382812e-01
2.791359722614288330e-01 1.487646698951721191e-01 4.660414159297943115e-01
4.699296653270721436e-01 2.430529147386550903e-01 4.526083171367645264e-01
-4.148064553737640381e-01 1.487646698951721191e-01 -7.242429256439208984e-01
4.260661005973815918e-01 -6.018945574760437012e-02 -6.985022425651550293e-01
6.155136823654174805e-01 -1.571418941020965576e-01 -6.784040331840515137e-01
-2.045251242816448212e-02 -6.018945574760437012e-02 5.634548068046569824e-01
-4.862374663352966309e-01 2.177220880985260010e-01 3.816580474376678467e-01
-1.720643341541290283e-01 -6.018945574760437012e-02 -2.850102484226226807e-01
-1.189980506896972656e-01 2.742233872413635254e-01 5.293855071067810059e-01
-4.029705747961997986e-02 -5.471899360418319702e-02 4.894464313983917236e-01
7.282593101263046265e-02 1.487646698951721191e-01 -5.443505644798278809e-01
-2.560747563838958740e-01 1.635671257972717285e-01 3.686396181583404541e-01
4.991995096206665039e-01 -2.218825370073318481e-01 -3.811825811862945557e-01
3.417361676692962646e-01 -5.471899360418319702e-02 2.782246097922325134e-02
-8.732279390096664429e-02 2.475676685571670532e-02 -7.847249507904052734e-01
2.114993184804916382e-01 -2.218825370073318481e-01 4.538193345069885254e-01
7.967136055231094360e-02 2.410804927349090576e-01 4.016368091106414795e-01
4.935515671968460083e-02 1.487646698951721191e-01 -2.863572537899017334e-01
-6.052389144897460938e-01 -1.597922146320343018e-01 -6.897510886192321777e-01
-6.156380772590637207e-01 -1.041727438569068909e-01 -3.383688628673553467e-01
-3.796843588352203369e-01 -5.471899360418319702e-02 6.184760928153991699e-01
-5.149537324905395508e-01 -2.218825370073318481e-01 -4.821378588676452637e-01
3.025452047586441040e-02 1.487646698951721191e-01 9.250403940677642822e-02
-1.060106903314590454e-01 -6.018945574760437012e-02 5.091085433959960938e-01
-3.108065724372863770e-01 -6.018945574760437012e-02 5.674142837524414062e-01
-3.644070029258728027e-01 1.487646698951721191e-01 4.537768661975860596e-02
-1.550544202327728271e-01 -6.018945574760437012e-02 -1.643626838922500610e-01
-6.025118231773376465e-01 -6.018945574760437012e-02 -6.057202816009521484e-01
4.401285350322723389e-01 -2.218825370073318481e-01 -6.229107975959777832e-01
-2.010059505701065063e-01 1.487646698951721191e-01 -5.401512384414672852e-01
-2.532311975955963135e-01 -5.471899360418319702e-02 2.025396823883056641e-01
6.155136823654174805e-01 -1.768089234828948975e-01 -1.114919111132621765e-01
3.691083788871765137e-01 -6.018945574760437012e-02 2.107421308755874634e-01
4.142373204231262207e-01 1.432008743286132812e-01 -7.552026510238647461e-01
3.583576083183288574e-01 -1.972431540489196777e-01 6.816774010658264160e-01
6.155136823654174805e-01 -4.854560270905494690e-02 3.335204422473907471e-01
-5.553278923034667969e-01 -1.014292016625404358e-01 -7.426046729087829590e-01
1.241480782628059387e-01 1.487646698951721191e-01 5.875154137611389160e-01
-5.688464641571044922e-01 -5.471899360418319702e-02 8.428994566202163696e-02
3.407174050807952881e-01 3.151957392692565918e-01 5.601364374160766602e-01
1.927063614130020142e-01 1.487646698951721191e-01 -1.506780385971069336e-01
-5.275876522064208984e-01 -2.218825370073318481e-01 -1.205328479409217834e-01
3.821831643581390381e-01 1.487646698951721191e-01 -5.721821188926696777e-01
-4.763859510421752930e-01 3.171720802783966064e-01 5.235953927040100098e-01
6.155136823654174805e-01 -1.781488419510424137e-03 1.431278586387634277e-01
-3.415438532829284668e-01 3.204245269298553467e-01 5.344976782798767090e-01
2.943385541439056396e-01 5.817431584000587463e-02 6.816774010658264160e-01
-6.102569103240966797e-01 -6.018945574760437012e-02 3.437933623790740967e-01
-5.448451638221740723e-01 -6.018945574760437012e-02 -2.104171663522720337e-01
3.894192874431610107e-01 -2.218825370073318481e-01 6.206281781196594238e-01
-2.958749532699584961e-01 -2.218825370073318481e-01 2.514620125293731689e-01
1.271276026964187622e-01 -6.018945574760437012e-02 -3.815661668777465820e-01
1.861772239208221436e-01 -6.018945574760437012e-02 -8.743125200271606445e-02
6.155136823654174805e-01 -5.864190682768821716e-02 -7.294133901596069336e-01
-2.786979973316192627e-01 -2.218825370073318481e-01 1.502940654754638672e-01
-4.169430136680603027e-01 -7.733077555894851685e-02 6.756241917610168457e-01
3.033820092678070068e-01 -2.218825370073318481e-01 -3.483621180057525635e-01
-2.800896763801574707e-01 -2.218825370073318481e-01 6.723737120628356934e-01
6.155136823654174805e-01 -1.871731728315353394e-01 -5.287779569625854492e-01
1.530450433492660522e-01 1.487646698951721191e-01 -3.948555588722229004e-01
-3.552275598049163818e-01 -5.471899360418319702e-02 5.414881706237792969e-01
2.239554673433303833e-01 2.781109511852264404e-01 6.582306623458862305e-01
-1.314794272184371948e-01 1.750802695751190186e-01 5.419707894325256348e-01
4.999803304672241211e-01 -6.018945574760437012e-02 5.778067111968994141e-01
3.131499886512756348e-01 -2.218825370073318481e-01 -6.911019682884216309e-01
-4.831889569759368896e-01 -1.716986596584320068e-01 6.816774010658264160e-01
-5.838033556938171387e-01 8.925502002239227295e-02 -7.815706729888916016e-01
6.101256608963012695e-01 -6.018945574760437012e-02 -1.684648841619491577e-01
6.015765666961669922e-01 -6.018945574760437012e-02 -7.081184536218643188e-02
-6.156380772590637207e-01 8.365481346845626831e-02 3.621396124362945557e-01
5.399265140295028687e-02 -6.018945574760437012e-02 7.471524924039840698e-02
2.464961707592010498e-01 -5.471899360418319702e-02 -4.139787256717681885e-01
-1.919207274913787842e-01 1.783608496189117432e-01 4.427441656589508057e-01
4.538306891918182373e-01 -6.018945574760437012e-02 3.706256449222564697e-01
-4.914050102233886719e-01 1.487646698951721191e-01 3.875112533569335938e-01
-6.156380772590637207e-01 4.151819273829460144e-02 4.338794052600860596e-01
-4.274879097938537598e-01 -2.218825370073318481e-01 4.533185064792633057e-02
1.432324051856994629e-01 -2.218825370073318481e-01 2.915720045566558838e-01
4.540045261383056641e-01 1.487646698951721191e-01 2.382328212261199951e-01
-2.144235372543334961e-01 -2.218825370073318481e-01 -5.434483289718627930e-01
-6.156380772590637207e-01 7.730534672737121582e-02 -4.637452214956283569e-02
-7.982153445482254028e-02 3.099796473979949951e-01 6.151459813117980957e-01
6.155136823654174805e-01 8.642145991325378418e-02 5.141052007675170898e-01
-1.366343647241592407e-01 1.487646698951721191e-01 7.284188270568847656e-02
4.176927506923675537e-01 1.487646698951721191e-01 1.460005491971969604e-01
-1.877563893795013428e-01 -2.218825370073318481e-01 3.639721870422363281e-01
-5.404448509216308594e-01 -6.018945574760437012e-02 -9.825593233108520508e-02
6.340030580759048462e-02 -2.218825370073318481e-01 -4.606887698173522949e-01
2.631856203079223633e-01 -6.018945574760437012e-02 5.860518813133239746e-01
2.248673886060714722e-01 1.487646698951721191e-01 -5.590694546699523926e-01
-6.156380772590637207e-01 -1.903527528047561646e-01 3.894331753253936768e-01
2.785406708717346191e-01 2.311008125543594360e-01 6.271718740463256836e-01
4.394312500953674316e-01 6.265030801296234131e-02 -7.847249507904052734e-01
-1.959345489740371704e-01 2.871388792991638184e-01 5.408665537834167480e-01
1.246443465352058411e-01 1.664689630270004272e-01 3.556163012981414795e-01
-4.178462028503417969e-01 -6.018945574760437012e-02 1.525716669857501984e-02
-4.505585134029388428e-02 -6.018945574760437012e-02 -2.507007494568824768e-02
-3.248758316040039062e-01 -5.471899360418319702e-02 -3.891247212886810303e-01
-4.323048591613769531e-01 -2.218825370073318481e-01 -9.906530380249023438e-02
-5.179468989372253418e-01 -2.085261195898056030e-01 6.816774010658264160e-01
-2.736547589302062988e-01 2.861531376838684082e-01 5.598664283752441406e-01
-9.658079594373703003e-02 -2.218825370073318481e-01 -6.655079126358032227e-01
-4.722079932689666748e-01 1.823717653751373291e-01 4.368696212768554688e-01
5.267944931983947754e-02 1.487646698951721191e-01 2.485290914773941040e-01
5.148351788520812988e-01 -1.838508099317550659e-01 -7.847249507904052734e-01
-5.084702372550964355e-01 -5.471899360418319702e-02 9.632652997970581055e-02
-4.034273326396942139e-01 -6.018945574760437012e-02 5.666655302047729492e-01
1.548921912908554077e-01 1.487646698951721191e-01 -7.133571505546569824e-01
-5.786397457122802734e-01 1.470855325460433960e-01 1.747323721647262573e-01
3.278087079524993896e-01 1.487646698951721191e-01 -3.215376436710357666e-01
5.829039812088012695e-01 -2.218825370073318481e-01 5.587282180786132812e-01
-1.065088957548141479e-01 3.240168094635009766e-01 5.653573870658874512e-01
3.074550926685333252e-01 -6.018945574760437012e-02 -6.837940216064453125e-01
6.147659420967102051e-01 9.953623265027999878e-02 -1.732488274574279785e-01
-1.974146068096160889e-01 1.487646698951721191e-01 -7.919948548078536987e-02
5.129550099372863770e-01 -5.471899360418319702e-02 4.570630192756652832e-01
1.998181790113449097e-01 1.487646698951721191e-01 1.840196400880813599e-01
2.993196249008178711e-01 1.487646698951721191e-01 -6.855236291885375977e-01
-9.367595613002777100e-02 -2.218825370073318481e-01 -2.505932152271270752e-01
-3.458762466907501221e-01 -2.832725085318088531e-02 6.816774010658264160e-01
3.314078152179718018e-01 -2.218825370073318481e-01 5.679872632026672363e-01
-2.127142995595932007e-01 2.548787891864776611e-01 3.847055435180664062e-01
-3.272318542003631592e-01 2.173374891281127930e-01 6.059665083885192871e-01
3.742215335369110107e-01 2.117775976657867432e-01 3.822543323040008545e-01
-2.502788603305816650e-01 -2.218825370073318481e-01 5.627216696739196777e-01
-4.280230104923248291e-01 -6.018945574760437012e-02 6.299931406974792480e-01
4.685039818286895752e-01 -2.218825370073318481e-01 1.378670483827590942e-01
1.885993033647537231e-01 -5.471899360418319702e-02 -5.359557867050170898e-01
1.934075355529785156e-01 1.487646698951721191e-01 -2.504475414752960205e-01
-1.182696744799613953e-01 1.965808421373367310e-01 4.580749869346618652e-01
-5.788213014602661133e-01 -6.018945574760437012e-02 -1.797352135181427002e-01
-1.084861829876899719e-01 -1.807449012994766235e-02 6.816774010658264160e-01
3.065353929996490479e-01 1.487646698951721191e-01 -7.334735244512557983e-02
-1.056193113327026367e-01 -5.471899360418319702e-02 2.427050322294235229e-01
-3.516964316368103027e-01 -2.218825370073318481e-01 -9.346100687980651855e-02
-3.758727805688977242e-03 -5.471899360418319702e-02 -6.316745877265930176e-01
-6.302090734243392944e-02 2.590411901473999023e-01 6.113312840461730957e-01
4.818399846553802490e-01 -6.018945574760437012e-02 -5.519869178533554077e-02
3.506439924240112305e-02 1.487646698951721191e-01 -7.987417280673980713e-03
-3.156669065356254578e-02 1.143248155713081360e-01 6.771517992019653320e-01
-1.448882967233657837e-01 1.487646698951721191e-01 2.196544855833053589e-01
7.997722364962100983e-03 1.487646698951721191e-01 2.512036859989166260e-01
5.976297259330749512e-01 1.377934515476226807e-01 2.312744557857513428e-01
-5.067017674446105957e-01 -2.218825370073318481e-01 3.869722485542297363e-01
-2.986757755279541016e-01 1.487646698951721191e-01 3.185761570930480957e-01
2.861924469470977783e-01 -3.502167388796806335e-02 6.816774010658264160e-01
-5.582122802734375000e-01 8.901213109493255615e-02 6.816774010658264160e-01
-6.156380772590637207e-01 8.201820403337478638e-02 -6.971805095672607422e-01
-4.546707570552825928e-01 -4.275368526577949524e-02 -7.847249507904052734e-01
-6.156380772590637207e-01 -2.066614776849746704e-01 -3.332255482673645020e-01
6.134723424911499023e-01 -8.924888074398040771e-02 -3.333916366100311279e-01
3.947373628616333008e-01 -6.018945574760437012e-02 5.825110077857971191e-01
-4.790038615465164185e-02 -6.018945574760437012e-02 4.471874982118606567e-02
-5.786765813827514648e-01 -6.018945574760437012e-02 5.378841161727905273e-01
5.539837479591369629e-01 -2.218825370073318481e-01 -3.024511039257049561e-02
1.298546344041824341e-01 -6.018945574760437012e-02 5.618815422058105469e-01
-1.419971287250518799e-01 2.597297430038452148e-01 6.349217295646667480e-01
-4.609324783086776733e-02 1.487646698951721191e-01 5.818127393722534180e-01
3.946217894554138184e-01 3.224454820156097412e-01 5.401324033737182617e-01
-2.524494230747222900e-01 -6.018945574760437012e-02 5.631365627050399780e-02
1.453776955604553223e-01 1.487646698951721191e-01 -1.929886937141418457e-01
-3.825075030326843262e-01 -1.794281452894210815e-01 -7.847249507904052734e-01
4.529459476470947266e-01 2.293643951416015625e-01 5.714446306228637695e-01
2.907258272171020508e-01 1.487646698951721191e-01 -6.335158944129943848e-01
-2.906258404254913330e-01 -6.009796634316444397e-02 -7.847249507904052734e-01
2.352015227079391479e-01 -2.218825370073318481e-01 -2.854249179363250732e-01
-6.156380772590637207e-01 -9.924787096679210663e-03 -5.243766307830810547e-01
-4.560497999191284180e-01 1.487646698951721191e-01 2.059572041034698486e-01
-4.325796961784362793e-01 1.487646698951721191e-01 -3.552612364292144775e-01
7.573164999485015869e-02 -4.115825518965721130e-02 -7.847249507904052734e-01
4.458234608173370361e-01 -6.018945574760437012e-02 2.482795119285583496e-01
-4.959597587585449219e-01 1.487646698951721191e-01 -7.199386954307556152e-01
5.756241679191589355e-01 1.480596065521240234e-01 3.979842662811279297e-01
-5.220176279544830322e-02 -5.471899360418319702e-02 -6.356427073478698730e-01
-4.123426079750061035e-01 -2.218825370073318481e-01 2.531557381153106689e-01
3.592009097337722778e-02 1.487646698951721191e-01 4.963542819023132324e-01
3.237667381763458252e-01 2.700056135654449463e-01 4.265684783458709717e-01
-4.758333563804626465e-01 1.487646698951721191e-01 -2.052049487829208374e-01
4.708357453346252441e-01 1.487646698951721191e-01 1.761541664600372314e-01
-3.422343730926513672e-01 -6.018945574760437012e-02 4.817046225070953369e-02
1.260790880769491196e-02 -1.523958146572113037e-01 6.816774010658264160e-01
1.552117019891738892e-01 -2.218825370073318481e-01 -5.808109045028686523e-01
6.755795329809188843e-02 3.067029416561126709e-01 5.178840160369873047e-01
1.940057575702667236e-01 1.399126369506120682e-02 6.816774010658264160e-01
1.593168079853057861e-01 -2.218825370073318481e-01 3.458804190158843994e-01
2.333631068468093872e-01 -5.471899360418319702e-02 6.268494725227355957e-01
4.546066522598266602e-01 -5.471899360418319702e-02 -1.540411859750747681e-01
6.155136823654174805e-01 5.235442519187927246e-02 -3.795840144157409668e-01
-3.638874292373657227e-01 1.487646698951721191e-01 -6.668093204498291016e-01
-4.285212159156799316e-01 2.112618982791900635e-01 5.966414809226989746e-01
1.196817159652709961e-01 -6.018945574760437012e-02 -2.583955228328704834e-01
-1.981410235166549683e-01 2.366568446159362793e-01 5.041673183441162109e-01
5.235018730163574219e-01 -2.218825370073318481e-01 -4.749910831451416016e-01
-1.737386286258697510e-01 -5.471899360418319702e-02 -1.138726435601711273e-02
-2.462504804134368896e-01 1.637904942035675049e-01 4.854190349578857422e-01
6.065741777420043945e-01 -2.497198246419429779e-02 6.611761450767517090e-01
5.676033496856689453e-01 -2.057621926069259644e-01 -6.884769201278686523e-01
2.643461227416992188e-01 -2.218825370073318481e-01 -3.860247731208801270e-01
2.684969007968902588e-01 1.283042132854461670e-01 -7.727476358413696289e-01
2.883037328720092773e-01 1.487646698951721191e-01 1.719927340745925903e-01
5.395322293043136597e-02 1.487646698951721191e-01 -7.018964290618896484e-01
3.020923137664794922e-01 -2.218825370073318481e-01 -7.610995173454284668e-01
-3.382623195648193359e-01 -5.471899360418319702e-02 -6.748709678649902344e-01
-4.730937182903289795e-01 -2.218825370073318481e-01 -5.570338964462280273e-01
6.155136823654174805e-01 -1.174708679318428040e-01 -4.180517792701721191e-01
2.478596717119216919e-01 1.487646698951721191e-01 -1.810210347175598145e-01
5.369136333465576172e-01 -2.218825370073318481e-01 1.692385226488113403e-01
2.258773893117904663e-01 1.487646698951721191e-01 -1.208071038126945496e-01
-2.696444839239120483e-02 -4.313661158084869385e-02 -7.847249507904052734e-01
1.716078519821166992e-01 1.487646698951721191e-01 -5.419031977653503418e-01
4.440093040466308594e-01 2.185300886631011963e-01 3.881541490554809570e-01
4.935094416141510010e-01 -2.218825370073318481e-01 -5.958707332611083984e-01
6.155136823654174805e-01 -1.543747726827859879e-03 -5.210037231445312500e-01
-3.301764130592346191e-01 1.487646698951721191e-01 1.863649636507034302e-01
-3.333006501197814941e-01 1.487646698951721191e-01 3.751444518566131592e-01
-1.241228878498077393e-01 6.672209501266479492e-02 -7.847249507904052734e-01
-1.792460829019546509e-01 -2.569608017802238464e-02 -7.847249507904052734e-01
-5.208117961883544922e-01 1.049865037202835083e-01 -7.825097441673278809e-01
-9.013897925615310669e-02 -2.218825370073318481e-01 2.146034687757492065e-01
-2.003445923328399658e-01 -2.218825370073318481e-01 -7.502632737159729004e-01
2.725116908550262451e-01 -2.218825370073318481e-01 -8.407675474882125854e-02
4.446939826011657715e-01 -6.018945574760437012e-02 7.116758823394775391e-02
5.340749025344848633e-01 1.487646698951721191e-01 -6.818866133689880371e-01
2.176147401332855225e-01 -2.218825370073318481e-01 -5.395616888999938965e-01
9.277671575546264648e-02 1.487646698951721191e-01 3.882891535758972168e-01
-2.039126455783843994e-01 1.487646698951721191e-01 2.853060662746429443e-01
6.042822003364562988e-01 1.104354113340377808e-01 -7.618405222892761230e-01
-3.003345131874084473e-01 3.214879333972930908e-01 5.380647778511047363e-01
3.887278139591217041e-01 -5.471899360418319702e-02 -8.965570479631423950e-02
4.144811034202575684e-01 1.829951629042625427e-02 -7.847249507904052734e-01
-6.156380772590637207e-01 8.780264854431152344e-02 -2.378360182046890259e-01
1.442191004753112793e-01 1.854027658700942993e-01 5.367352366447448730e-01
1.364711672067642212e-01 -2.218825370073318481e-01 -1.842637658119201660e-01
-1.296468526124954224e-01 1.487646698951721191e-01 -5.330753326416015625e-01
-4.220231771469116211e-01 -5.471899360418319702e-02 -3.688789010047912598e-01
-5.716444253921508789e-01 -6.018945574760437012e-02 2.449066489934921265e-01
4.443132579326629639e-01 -5.471899360418319702e-02 -6.510561108589172363e-01
-5.228289365768432617e-01 -2.218825370073318481e-01 4.948868751525878906e-01
6.155136823654174805e-01 9.601219557225704193e-03 -4.645967185497283936e-01
-2.024015188217163086e-01 -2.218825370073318481e-01 2.310239076614379883e-01
6.155136823654174805e-01 -2.745504863560199738e-02 -2.808002531528472900e-01
-3.955211043357849121e-01 9.136855602264404297e-02 6.816774010658264160e-01
-6.156380772590637207e-01 3.434025123715400696e-02 -5.216068625450134277e-01
-2.719241380691528320e-01 1.487646698951721191e-01 -3.683078587055206299e-01
3.792424798011779785e-01 -6.018945574760437012e-02 -7.747326493263244629e-01
4.939794838428497314e-01 -5.328603833913803101e-02 -7.847249507904052734e-01
-4.986382424831390381e-01 -2.218825370073318481e-01 -7.261723279953002930e-02
-2.742568850517272949e-01 -6.018945574760437012e-02 -1.876278198324143887e-03
-4.079170525074005127e-01 1.487646698951721191e-01 3.542003631591796875e-01
2.485087327659130096e-02 -6.018945574760437012e-02 -3.959500789642333984e-01
-2.744229137897491455e-01 -2.218825370073318481e-01 -7.294648885726928711e-01
2.152295559644699097e-01 1.487646698951721191e-01 1.397734582424163818e-01
3.614808619022369385e-01 -2.218825370073318481e-01 5.665550753474235535e-02
-4.774464666843414307e-01 -6.018945574760437012e-02 -5.888065099716186523e-01
6.111298799514770508e-01 1.165790781378746033e-01 -4.619055986404418945e-01
5.297872424125671387e-01 -6.609333213418722153e-03 6.816774010658264160e-01
3.158973753452301025e-01 -5.471899360418319702e-02 5.052210092544555664e-01
-6.260903179645538330e-02 1.813326030969619751e-01 5.193018913269042969e-01
-3.365313634276390076e-02 -5.471899360418319702e-02 -3.458400070667266846e-01
-5.491571426391601562e-01 -5.471899360418319702e-02 2.894004881381988525e-01
-2.499253600835800171e-01 1.487646698951721191e-01 -6.317502856254577637e-01
6.155136823654174805e-01 -1.073863133788108826e-01 -2.785355150699615479e-01
6.155136823654174805e-01 -4.758647456765174866e-02 4.449302852153778076e-01
-3.380379974842071533e-01 1.487646698951721191e-01 5.075421333312988281e-01
-9.303089976310729980e-02 -2.540045790374279022e-02 -7.847249507904052734e-01
1.482173949480056763e-01 -6.018945574760437012e-02 -4.951417148113250732e-01
2.314139902591705322e-01 2.405492514371871948e-01 6.399378180503845215e-01
-2.222210019826889038e-01 -6.018945574760437012e-02 -7.331970334053039551e-01
3.816353976726531982e-01 1.487646698951721191e-01 -1.717937737703323364e-02
-6.575968116521835327e-02 1.487646698951721191e-01 3.889932334423065186e-01
1.945068836212158203e-01 -6.018945574760437012e-02 -4.594427347183227539e-01
5.285490155220031738e-01 -5.471899360418319702e-02 -2.546934783458709717e-01
-4.237767681479454041e-02 1.487646698951721191e-01 1.410456746816635132e-01
-5.379330366849899292e-02 1.487646698951721191e-01 -4.081041514873504639e-01
-4.121949970722198486e-01 -6.018945574760437012e-02 2.937998473644256592e-01
-5.656290054321289062e-01 -4.458597302436828613e-02 6.816774010658264160e-01
-4.484485089778900146e-01 -6.018945574760437012e-02 -1.868499666452407837e-01
3.501668274402618408e-01 -5.471899360418319702e-02 2.700996100902557373e-01
1.179122552275657654e-01 -5.471899360418319702e-02 -9.342478960752487183e-02
-4.977069199085235596e-01 1.487646698951721191e-01 5.781164765357971191e-01
-6.156380772590637207e-01 -1.910539418458938599e-01 -5.052608624100685120e-02
-3.485780060291290283e-01 1.487646698951721191e-01 -9.754649549722671509e-02
3.095149099826812744e-01 2.801232039928436279e-01 5.518320202827453613e-01
1.612134873867034912e-01 1.487646698951721191e-01 -6.237100958824157715e-01
6.091438531875610352e-01 1.233332231640815735e-01 1.680546700954437256e-01
4.524759054183959961e-01 -6.018945574760437012e-02 4.849441349506378174e-01
-6.156380772590637207e-01 -2.389797382056713104e-02 -3.103954792022705078e-01
5.783327817916870117e-01 -6.018945574760437012e-02 -7.649977803230285645e-01
5.251343846321105957e-01 -2.218825370073318481e-01 5.068771168589591980e-02
-2.284170240163803101e-01 1.487646698951721191e-01 -1.665215939283370972e-01
-4.241043627262115479e-01 2.646554708480834961e-01 4.236462712287902832e-01
-4.640609323978424072e-01 -2.218825370073318481e-01 -7.574149370193481445e-01
8.433401584625244141e-02 6.338139623403549194e-02 -7.847249507904052734e-01
5.413081049919128418e-01 1.487646698951721191e-01 2.824848592281341553e-01
-6.156380772590637207e-01 -1.941004693508148193e-01 -6.393895149230957031e-01
-3.619596660137176514e-01 -5.471899360418319702e-02 -4.773995578289031982e-01
1.009382680058479309e-01 -6.018945574760437012e-02 3.564068377017974854e-01
4.662790596485137939e-01 -2.218825370073318481e-01 -5.145183205604553223e-01
-6.055554747581481934e-01 2.059250883758068085e-02 6.625018119812011719e-01
1.623973250389099121e-01 3.062387406826019287e-01 4.559276998043060303e-01
4.551893472671508789e-01 1.487646698951721191e-01 3.434226289391517639e-02
-6.156380772590637207e-01 5.771466344594955444e-02 -5.954909920692443848e-01
4.956187903881072998e-01 1.487646698951721191e-01 4.496957957744598389e-01
5.782981589436531067e-02 -1.346080005168914795e-01 6.816774010658264160e-01
5.599554181098937988e-01 -6.018945574760437012e-02 -6.630004048347473145e-01
-5.429465770721435547e-01 1.487646698951721191e-01 6.303262114524841309e-01
3.531541228294372559e-01 1.480906754732131958e-01 -7.383529543876647949e-01
-5.833012461662292480e-01 1.455171108245849609e-01 -6.273140311241149902e-01
-2.219209223985671997e-01 6.448242813348770142e-03 6.816774010658264160e-01
5.157412886619567871e-01 -5.471899360418319702e-02 -6.724109649658203125e-01
1.722216159105300903e-01 -6.018945574760437012e-02 3.162065148353576660e-01
2.909851372241973877e-01 -2.218825370073318481e-01 4.569280445575714111e-01
-3.731736838817596436e-01 -5.471899360418319702e-02 -2.771037444472312927e-02
2.875277698040008545e-01 1.840596348047256470e-01 4.283612668514251709e-01
1.885148137807846069e-01 1.331279724836349487e-01 6.652463674545288086e-01
5.639828443527221680e-01 -4.809672385454177856e-02 6.816774010658264160e-01
6.155136823654174805e-01 5.065528303384780884e-02 -2.108658552169799805e-01
5.710043311119079590e-01 1.487646698951721191e-01 -3.286358551122248173e-04
-1.076587587594985962e-01 2.847478687763214111e-01 6.526474356651306152e-01
-4.278831481933593750e-01 2.290545850992202759e-01 5.013917684555053711e-01
2.984242439270019531e-01 1.576537191867828369e-01 3.515461683273315430e-01
4.623555541038513184e-01 -2.218825370073318481e-01 5.451542735099792480e-01
6.155136823654174805e-01 7.795757800340652466e-02 2.286338508129119873e-01
3.457363545894622803e-01 1.487646698951721191e-01 6.101794242858886719e-01
6.155136823654174805e-01 2.243389375507831573e-02 -5.602338910102844238e-01
-1.715496182441711426e-01 1.697563529014587402e-01 3.996430039405822754e-01
3.911615312099456787e-01 -1.930292695760726929e-01 -7.847249507904052734e-01
4.313259124755859375e-01 1.771265119314193726e-01 4.775429069995880127e-01
3.847654759883880615e-01 -6.018945574760437012e-02 -7.022917270660400391e-01
3.718849122524261475e-01 -2.218825370073318481e-01 -4.172981679439544678e-01
-1.852197051048278809e-01 -5.471899360418319702e-02 -4.023102223873138428e-01
-5.755251646041870117e-01 1.481334120035171509e-01 -3.141733109951019287e-01
2.308565378189086914e-01 2.003538161516189575e-01 4.911983907222747803e-01
3.797416388988494873e-01 1.459366530179977417e-01 6.427318453788757324e-01
1.627735048532485962e-02 -6.018945574760437012e-02 -1.769033223390579224e-01
-4.153240919113159180e-01 1.487646698951721191e-01 3.064104318618774414e-01
2.010311633348464966e-01 1.487646698951721191e-01 -7.193337082862854004e-01
-4.363643229007720947e-01 -6.018945574760437012e-02 -6.869266927242279053e-02
-3.955444097518920898e-01 1.487646698951721191e-01 4.101626276969909668e-01
-5.530078411102294922e-01 1.487646698951721191e-01 3.792485892772674561e-01
-2.234174758195877075e-01 1.487646698951721191e-01 -3.705570697784423828e-01
-1.873620897531509399e-01 -5.471899360418319702e-02 4.320507049560546875e-01
6.033596396446228027e-01 1.305980980396270752e-01 -3.652895092964172363e-01
-3.386585414409637451e-01 -6.018945574760437012e-02 -1.215712204575538635e-01
-4.816778004169464111e-01 -2.218825370073318481e-01 -3.128632009029388428e-01
-4.966123998165130615e-01 -6.018945574760437012e-02 -7.449635863304138184e-01
2.169514298439025879e-01 -6.018945574760437012e-02 5.478802919387817383e-01
-1.073071956634521484e-01 1.487646698951721191e-01 -2.904620952904224396e-02
-2.625155150890350342e-01 1.487646698951721191e-01 -4.669896662235260010e-01
5.493183135986328125e-01 -6.018945574760437012e-02 1.414088755846023560e-01
1.399061828851699829e-01 -6.018945574760437012e-02 -2.146572619676589966e-01
-3.540272116661071777e-01 -2.218825370073318481e-01 -7.575936317443847656e-01
-2.478664964437484741e-01 1.487646698951721191e-01 -1.167094148695468903e-02
3.296995759010314941e-01 -1.899642944335937500e-01 -7.847249507904052734e-01
-6.156380772590637207e-01 -1.810946464538574219e-01 6.020858287811279297e-01
-2.422522157430648804e-01 -2.218825370073318481e-01 3.165318667888641357e-01
2.028052462264895439e-03 -6.018945574760437012e-02 3.374274075031280518e-01
-7.425346970558166504e-02 2.438871711492538452e-01 4.841263890266418457e-01
4.361778497695922852e-01 1.487646698951721191e-01 -2.606697380542755127e-02
1.398275047540664673e-01 1.487646698951721191e-01 -1.022106036543846130e-01
-1.983741074800491333e-01 1.203631162643432617e-01 -7.787047624588012695e-01
-5.752221941947937012e-01 1.482353806495666504e-01 4.767795801162719727e-01
2.704159021377563477e-01 -2.218825370073318481e-01 -6.694353222846984863e-01
-3.823705911636352539e-01 1.487646698951721191e-01 1.187574863433837891e-01
-1.688575446605682373e-01 -2.218825370073318481e-01 4.003383815288543701e-01
5.632030367851257324e-01 1.487646698951721191e-01 1.326470524072647095e-01
-3.810041546821594238e-01 -2.218825370073318481e-01 -5.205492973327636719e-01
2.459755986928939819e-01 -2.218825370073318481e-01 5.490059256553649902e-01
-1.482475399971008301e-01 -1.563066989183425903e-01 -7.847249507904052734e-01
5.449674725532531738e-01 1.487646698951721191e-01 -1.201337054371833801e-01
4.517012834548950195e-02 2.701736390590667725e-01 6.014574766159057617e-01
5.412881076335906982e-02 5.602979287505149841e-02 6.816774010658264160e-01
4.591320175677537918e-03 1.487646698951721191e-01 -2.121400088071823120e-01
4.197117984294891357e-01 -8.556039631366729736e-02 -7.812171578407287598e-01
-9.145791083574295044e-02 -6.018945574760437012e-02 -4.282422065734863281e-01
-7.642023265361785889e-02 1.487646698951721191e-01 -5.333414077758789062e-01
-2.541848719120025635e-01 -6.018945574760437012e-02 2.458632737398147583e-01
4.593119025230407715e-01 -7.144065946340560913e-02 -7.731565237045288086e-01
-3.127702772617340088e-01 -6.018945574760437012e-02 6.411780118942260742e-01
-3.802573382854461670e-01 -5.471899360418319702e-02 -1.350091099739074707e-01
1.516786217689514160e-01 1.487646698951721191e-01 2.619495987892150879e-01
2.871655523777008057e-01 -2.218825370073318481e-01 -5.150641202926635742e-01
-3.026118874549865723e-01 -5.471899360418319702e-02 -5.389556884765625000e-01
-3.758317530155181885e-01 1.487646698951721191e-01 -1.680132895708084106e-01
-2.807986140251159668e-01 2.795220613479614258e-01 6.535612940788269043e-01
6.107394695281982422e-01 -6.018945574760437012e-02 -5.867068171501159668e-01
-8.943284302949905396e-02 -2.218825370073318481e-01 5.349922552704811096e-02
1.273276805877685547e-01 -1.010485142469406128e-01 6.816774010658264160e-01
4.237061738967895508e-01 2.964319288730621338e-01 4.667668938636779785e-01
-6.156380772590637207e-01 -2.698848256841301918e-03 -6.568332761526107788e-02
-2.395951151847839355e-01 1.487646698951721191e-01 1.438319534063339233e-01
-1.184046715497970581e-01 -6.018945574760437012e-02 -1.391611149301752448e-04
5.429649353027343750e-01 1.487646698951721191e-01 -4.579724073410034180e-01
3.451002538204193115e-01 1.487646698951721191e-01 4.612943530082702637e-01
-4.767782986164093018e-01 -3.465690463781356812e-02 6.816774010658264160e-01
5.814666748046875000e-01 -6.018945574760437012e-02 4.156613647937774658e-01
-3.392363786697387695e-01 2.795035839080810547e-01 6.547655463218688965e-01
-4.593604803085327148e-01 -5.471899360418319702e-02 3.571655973792076111e-02
-2.456697076559066772e-01 -4.569678753614425659e-02 6.816774010658264160e-01
-6.156380772590637207e-01 -1.595542728900909424e-01 5.529255270957946777e-01
6.155136823654174805e-01 -3.891612961888313293e-02 1.013399660587310791e-02
-2.373410314321517944e-01 4.577673971652984619e-02 -7.847249507904052734e-01
5.289772748947143555e-01 -5.471899360418319702e-02 -7.597425580024719238e-02
-5.612529516220092773e-01 -5.471899360418319702e-02 -3.496012985706329346e-01
5.058140754699707031e-01 -6.018945574760437012e-02 -4.619202017784118652e-01
5.368135571479797363e-01 -6.018945574760437012e-02 -4.140942990779876709e-01
-1.644999533891677856e-01 1.487646698951721191e-01 1.206308603286743164e-01
5.471496582031250000e-01 1.487646698951721191e-01 -4.983688890933990479e-01
-3.268919587135314941e-01 1.487646698951721191e-01 -2.318837642669677734e-01
-3.363598287105560303e-01 1.487646698951721191e-01 -2.983297705650329590e-01
-9.492661058902740479e-02 1.485665440559387207e-01 -7.367154955863952637e-01
5.107844471931457520e-01 1.487646698951721191e-01 -6.342054009437561035e-01
4.214316904544830322e-01 1.251032650470733643e-01 6.726562976837158203e-01
-4.631878435611724854e-01 1.487646698951721191e-01 -1.564503833651542664e-02
2.536886036396026611e-01 -2.218825370073318481e-01 -4.673431515693664551e-01
-1.532917618751525879e-01 -1.555627882480621338e-01 6.816774010658264160e-01
-6.156380772590637207e-01 5.612787976861000061e-02 -1.977172791957855225e-01
3.954307734966278076e-01 -6.018945574760437012e-02 -2.760231196880340576e-01
2.655678689479827881e-01 -5.471899360418319702e-02 -4.940520524978637695e-01
4.541239738464355469e-01 1.487646698951721191e-01 -6.234275102615356445e-01
-5.005999803543090820e-01 1.487646698951721191e-01 2.163457423448562622e-01
-2.556668817996978760e-01 -5.471899360418319702e-02 3.839577436447143555e-01
2.521706521511077881e-01 -6.018945574760437012e-02 7.658765465021133423e-02
-6.156380772590637207e-01 3.930491209030151367e-02 -3.631567955017089844e-01
-4.252212047576904297e-01 1.487646698951721191e-01 5.291070044040679932e-02
3.185846209526062012e-01 -2.218825370073318481e-01 -2.873750030994415283e-01
-9.957382082939147949e-02 -6.018945574760437012e-02 3.567030429840087891e-01
-2.857466936111450195e-01 2.016522437334060669e-01 4.732940196990966797e-01
5.818347334861755371e-01 -5.695518851280212402e-02 5.816496014595031738e-01
1.173033341765403748e-01 -6.018945574760437012e-02 4.564929008483886719e-01
-5.054686218500137329e-03 -6.018945574760437012e-02 6.627397537231445312e-01
-6.365226209163665771e-02 3.017092347145080566e-01 4.978266060352325439e-01
-5.856854915618896484e-01 1.439603269100189209e-01 6.384567618370056152e-01
-3.332394957542419434e-01 -2.218825370073318481e-01 4.789238870143890381e-01
-6.104549765586853027e-01 1.203265041112899780e-01 -5.532076582312583923e-02
