-8.675490617752075195e-01 -1.320712119340896606e-01 -5.109804123640060425e-02
-6.055479049682617188e-01 -1.696983426809310913e-01 3.507325649261474609e-01
-3.816945552825927734e-01 2.001253664493560791e-01 3.918749839067459106e-02
7.806958556175231934e-01 1.588989794254302979e-01 3.034629523754119873e-01
8.752630352973937988e-01 -1.882650256156921387e-01 -2.751992940902709961e-01
-4.003805220127105713e-01 1.570797562599182129e-01 -3.053038120269775391e-01
4.710512235760688782e-03 3.346608579158782959e-01 1.465936005115509033e-01
7.827829122543334961e-01 6.174669414758682251e-02 3.481119275093078613e-01
-1.248823851346969604e-01 -2.146772444248199463e-01 2.611666321754455566e-01
8.332054018974304199e-01 -6.530138850212097168e-02 3.016705811023712158e-01
-6.922170519828796387e-01 1.559767425060272217e-01 -4.026255384087562561e-02
3.057344555854797363e-01 -1.392194479703903198e-01 1.072080731391906738e-01
5.318516492843627930e-01 -2.332240641117095947e-01 3.620866835117340088e-01
3.244263231754302979e-01 3.067089915275573730e-01 -2.299010157585144043e-01
-3.226156830787658691e-01 -2.146772444248199463e-01 -2.781264781951904297e-01
-6.124363467097282410e-02 -2.484741620719432831e-03 -3.285876512527465820e-01
2.369077950716018677e-01 3.206755816936492920e-01 2.052231729030609131e-01
2.127745896577835083e-01 1.127446368336677551e-01 3.823953866958618164e-01
7.103435397148132324e-01 -2.112643979489803314e-02 3.140987157821655273e-01
-3.864373862743377686e-01 -2.176042087376117706e-02 -3.892248570919036865e-01
2.006822377443313599e-01 -1.392194479703903198e-01 2.676725685596466064e-01
7.867138981819152832e-01 2.561109364032745361e-01 -4.008437320590019226e-02
-3.662889301776885986e-01 -2.146772444248199463e-01 -1.164222955703735352e-01
5.962653160095214844e-01 7.928526401519775391e-02 -3.369877040386199951e-01
-2.036380767822265625e-01 3.442915854975581169e-03 -3.285396993160247803e-01
8.349416255950927734e-01 -4.474932327866554260e-02 1.852186322212219238e-01
5.456216335296630859e-01 2.238736599683761597e-01 -2.395259886980056763e-01
-1.139307245612144470e-01 2.519272863864898682e-01 -2.749618291854858398e-01
1.628890037536621094e-01 -2.146772444248199463e-01 3.051710128784179688e-01
-8.316076546907424927e-02 1.535382717847824097e-01 -3.241443037986755371e-01
6.071023941040039062e-01 9.619881398975849152e-03 -3.255435228347778320e-01
-8.359739780426025391e-01 1.120981425046920776e-01 2.094091773033142090e-01
-4.890035390853881836e-01 -1.497862190008163452e-01 -3.105056658387184143e-02
9.501709938049316406e-01 -1.170914918184280396e-01 1.328177303075790405e-01
2.254530489444732666e-01 -6.519995629787445068e-02 3.204326927661895752e-01
-5.720015168190002441e-01 1.744537204504013062e-01 -9.268196672201156616e-02
3.366239964962005615e-01 -7.523042708635330200e-02 -2.597633302211761475e-01
7.343748807907104492e-01 6.939718127250671387e-02 3.019525706768035889e-01
3.151535391807556152e-01 -2.146772444248199463e-01 2.609151005744934082e-01
-9.186466932296752930e-01 7.718560099601745605e-02 -1.191117241978645325e-01
-8.643738031387329102e-01 3.841329365968704224e-02 -3.192750513553619385e-01
-4.004121124744415283e-01 1.875732541084289551e-01 -8.672996610403060913e-02
3.940813988447189331e-02 1.061778515577316284e-01 -3.289655745029449463e-01
1.647573560476303101e-01 -8.841898292303085327e-02 3.786083459854125977e-01
-1.331232190132141113e-01 -2.146772444248199463e-01 -2.888991534709930420e-01
-9.332531094551086426e-01 -1.852325797080993652e-01 2.004393488168716431e-01
4.619392752647399902e-01 -9.482431411743164062e-02 -2.791361212730407715e-01
-8.874650113284587860e-03 -1.392194479703903198e-01 -1.176756471395492554e-01
-1.848833560943603516e-01 -2.146772444248199463e-01 -1.883742958307266235e-01
9.307374358177185059e-01 -1.258694380521774292e-01 -2.143408954143524170e-01
7.458869814872741699e-01 1.497115641832351685e-01 -2.869628965854644775e-01
8.650507926940917969e-01 -3.798235952854156494e-02 -3.321231901645660400e-01
1.549311876296997070e-01 8.780208975076675415e-02 3.222905099391937256e-01
-2.674832046031951904e-01 1.035919710993766785e-01 -3.285934925079345703e-01
8.709016442298889160e-01 1.240043416619300842e-01 -2.277296334505081177e-01
4.659333527088165283e-01 -9.471902251243591309e-02 2.872594892978668213e-01
2.015866041183471680e-01 -1.392194479703903198e-01 -2.959057986736297607e-01
-7.181671261787414551e-01 -1.990306824445724487e-01 2.298173457384109497e-01
1.965196579694747925e-01 -2.146772444248199463e-01 6.916446983814239502e-02
-3.298692107200622559e-01 2.248212993144989014e-01 1.373722404241561890e-01
7.727333307266235352e-01 1.961815506219863892e-01 -1.877344697713851929e-01
-6.724301576614379883e-01 5.253167450428009033e-02 2.421167492866516113e-01
-1.029359996318817139e-01 3.224878013134002686e-01 -1.354244500398635864e-01
3.097262382507324219e-01 -1.315435767173767090e-01 -3.649933636188507080e-01
-7.967054247856140137e-01 -3.699330240488052368e-02 2.564693987369537354e-01
6.871475279331207275e-02 3.425449728965759277e-01 7.520947605371475220e-02
-2.902754545211791992e-01 2.194958180189132690e-01 2.776239514350891113e-01
5.193966627120971680e-01 -1.455534249544143677e-01 2.814484536647796631e-01
8.873834609985351562e-01 -1.637352257966995239e-01 2.452931106090545654e-01
-3.815599679946899414e-01 -2.146772444248199463e-01 1.136847808957099915e-01
1.768379956483840942e-01 -1.392194479703903198e-01 -2.327018231153488159e-01
-7.282238602638244629e-01 6.204455345869064331e-02 -3.116155564785003662e-01
8.196415007114410400e-02 -1.392194479703903198e-01 -2.163099944591522217e-01
-8.501837402582168579e-02 -1.392194479703903198e-01 -2.158852964639663696e-01
6.515314579010009766e-01 2.247253656387329102e-01 9.056670591235160828e-03
8.839908242225646973e-01 5.717684701085090637e-02 -8.236673474311828613e-02
5.954663157463073730e-01 1.689737886190414429e-01 2.883053719997406006e-01
-7.301343083381652832e-01 1.491689532995223999e-01 1.292841695249080658e-02
-4.195556342601776123e-01 -1.392194479703903198e-01 2.531292438507080078e-01
-8.161752820014953613e-01 -2.611909247934818268e-02 3.684370219707489014e-01
-8.478158712387084961e-01 -8.702794462442398071e-02 -2.714675851166248322e-02
7.176859974861145020e-01 2.060159444808959961e-01 9.408855438232421875e-02
-3.770581185817718506e-01 -3.840973600745201111e-02 -3.266970515251159668e-01
-3.721362650394439697e-01 5.409923195838928223e-02 3.217055499553680420e-01
-3.797898590564727783e-01 -1.385245174169540405e-01 -3.535234630107879639e-01
-3.892814815044403076e-01 -2.146772444248199463e-01 3.033505976200103760e-01
-9.027590155601501465e-01 -1.297114789485931396e-01 1.463631242513656616e-01
7.390722632408142090e-01 -6.851107627153396606e-02 -3.577831089496612549e-01
3.469216525554656982e-01 3.238893449306488037e-01 -1.953136920928955078e-02
2.385831326246261597e-01 9.707608073949813843e-02 -3.300781548023223877e-01
5.108105540275573730e-01 -5.719322711229324341e-02 3.353164494037628174e-01
2.291043996810913086e-01 2.165440917015075684e-01 2.832980751991271973e-01
8.994606733322143555e-01 -4.196431860327720642e-02 2.511825263500213623e-01
5.729136466979980469e-01 -2.081537544727325439e-01 -3.468232750892639160e-01
2.783734500408172607e-01 1.557378470897674561e-01 3.485810458660125732e-01
-8.210971355438232422e-01 -1.879503279924392700e-01 3.363811075687408447e-01
3.713543713092803955e-01 2.803821861743927002e-01 2.335880249738693237e-01
1.991426348686218262e-01 2.300779707729816437e-02 -3.297845125198364258e-01
-1.621903479099273682e-01 -2.146772444248199463e-01 -7.875166833400726318e-02
-6.140041351318359375e-01 1.631089597940444946e-01 1.615709811449050903e-01
-5.535564422607421875e-01 -1.209031119942665100e-01 -2.374049127101898193e-01
-7.391684651374816895e-01 4.275263845920562744e-02 3.104929924011230469e-01
8.165996670722961426e-01 1.883957087993621826e-01 1.252249181270599365e-01
-5.159854143857955933e-02 -1.392194479703903198e-01 -3.812884166836738586e-02
-1.397804319858551025e-01 -1.392194479703903198e-01 2.278039157390594482e-01
1.970917582511901855e-01 1.977200061082839966e-01 -3.006966710090637207e-01
1.092900633811950684e-01 -1.392194479703903198e-01 2.892073988914489746e-01
-8.812265992164611816e-01 7.702801376581192017e-02 -2.179595828056335449e-01
7.083382606506347656e-01 1.990455240011215210e-01 -1.784221231937408447e-01
-2.101075351238250732e-01 -1.392194479703903198e-01 -1.161589547991752625e-01
4.642136096954345703e-01 -2.078671157360076904e-01 3.308169245719909668e-01
6.490616798400878906e-01 -4.937613755464553833e-02 -3.822216987609863281e-01
3.350363671779632568e-01 -9.779943525791168213e-02 2.508034408092498779e-01
-5.943868756294250488e-01 1.664128303527832031e-01 -1.652108430862426758e-01
9.420377612113952637e-01 5.460215732455253601e-03 1.981705613434314728e-02
4.984573125839233398e-01 2.331687211990356445e-01 2.435616105794906616e-01
5.670043826103210449e-01 -2.217974066734313965e-01 2.846598923206329346e-01
-8.805667757987976074e-01 8.158522099256515503e-02 5.337283387780189514e-02
9.995171567425131798e-04 -1.392194479703903198e-01 -2.882884144783020020e-01
-2.524192631244659424e-01 2.496050000190734863e-01 -2.223889231681823730e-01
1.636541485786437988e-01 4.192928969860076904e-02 -3.797274231910705566e-01
-9.517132490873336792e-02 3.300256133079528809e-01 -5.677359644323587418e-03
7.507210969924926758e-02 -2.146772444248199463e-01 -2.613427340984344482e-01
-8.673595190048217773e-01 -8.832773566246032715e-02 -3.350901007652282715e-01
-4.651920497417449951e-01 1.851316094398498535e-01 7.609743624925613403e-02
-9.585012793540954590e-01 1.476357225328683853e-02 -2.542603388428688049e-02
9.143269062042236328e-01 -1.113541796803474426e-01 -2.143519185483455658e-02
-6.637598276138305664e-01 7.576484978199005127e-02 3.404243588447570801e-01
9.057210087776184082e-01 -1.403739769011735916e-02 -5.898415297269821167e-02
7.695791721343994141e-01 7.853031158447265625e-02 -3.031265735626220703e-01
7.504988312721252441e-01 2.061001658439636230e-01 1.791163384914398193e-01
-2.728204131126403809e-01 1.926144510507583618e-01 3.420470356941223145e-01
7.696506381034851074e-02 -2.146772444248199463e-01 -3.243751078844070435e-02
1.022716909646987915e-01 -1.392194479703903198e-01 1.212951391935348511e-01
-9.381328821182250977e-01 -1.084460527636110783e-03 1.498085260391235352e-01
-6.951547265052795410e-01 -9.496939927339553833e-02 2.785961627960205078e-01
-2.805019021034240723e-01 2.213454693555831909e-01 -3.436305522918701172e-01
8.169516324996948242e-01 2.620623409748077393e-01 2.302689403295516968e-01
-8.713769912719726562e-01 -8.307360112667083740e-02 2.767477035522460938e-01
5.549178719520568848e-01 9.795020334422588348e-03 -2.815134227275848389e-01
-3.991907536983489990e-01 -1.392194479703903198e-01 1.943566091358661652e-02
-1.469384599477052689e-02 1.787508577108383179e-01 -3.081315159797668457e-01
2.329054772853851318e-01 -2.028177231550216675e-01 -3.512338995933532715e-01
-8.287472277879714966e-02 -1.392194479703903198e-01 3.060519695281982422e-01
3.056584000587463379e-01 -2.146772444248199463e-01 -4.606830328702926636e-02
4.280605614185333252e-01 2.984400093555450439e-01 1.314465850591659546e-01
4.457358419895172119e-01 2.641997933387756348e-01 -2.285146564245223999e-01
8.613362312316894531e-01 2.671363055706024170e-01 1.281625926494598389e-01
-5.055217146873474121e-01 1.811807900667190552e-01 -4.782576113939285278e-02
6.926346104592084885e-03 -1.392194479703903198e-01 4.861357808113098145e-02
-9.743642807006835938e-01 -1.848523616790771484e-01 4.049078747630119324e-02
-8.471314907073974609e-01 -8.702794462442398071e-02 -1.994830816984176636e-01
1.751229166984558105e-01 3.426245450973510742e-01 -9.070722013711929321e-02
7.070840597152709961e-01 -8.174572885036468506e-02 3.841175138950347900e-01
-8.966825008392333984e-01 -4.551293328404426575e-02 2.054513394832611084e-01
-6.486268639564514160e-01 -1.924299597740173340e-01 3.364548087120056152e-01
2.707583904266357422e-01 -1.392194479703903198e-01 -7.261366397142410278e-02
8.162789940834045410e-01 -1.191456988453865051e-02 3.520978689193725586e-01
8.696802258491516113e-01 1.289458870887756348e-01 1.255524903535842896e-01
-3.918097019195556641e-01 -1.667384207248687744e-01 3.665043115615844727e-01
3.100620210170745850e-01 -2.146772444248199463e-01 8.138316124677658081e-02
3.758176267147064209e-01 5.539037287235260010e-02 3.895401358604431152e-01
-4.494846463203430176e-01 -2.146772444248199463e-01 -3.009096086025238037e-01
9.447859525680541992e-01 -6.173861399292945862e-02 -1.725830137729644775e-01
6.449740529060363770e-01 -3.345556929707527161e-02 3.309690356254577637e-01
6.323903203010559082e-01 2.078094333410263062e-01 1.971050649881362915e-01
4.402465373277664185e-02 1.525109559297561646e-01 3.254551589488983154e-01
-2.766763567924499512e-01 -1.392194479703903198e-01 5.014618486166000366e-02
7.889729738235473633e-01 1.948677301406860352e-01 -5.490100011229515076e-02
-6.158058047294616699e-01 5.433942005038261414e-02 -3.845849335193634033e-01
4.296657443046569824e-01 1.611282825469970703e-01 -3.157442212104797363e-01
-4.854714125394821167e-02 3.180116713047027588e-01 -2.313236296176910400e-01
-4.464825689792633057e-01 1.795966923236846924e-01 2.155079841613769531e-01
-8.528652191162109375e-01 -3.653984889388084412e-02 -3.423284292221069336e-01
-9.074258804321289062e-02 -2.146772444248199463e-01 1.826764196157455444e-01
-1.889131814241409302e-01 -1.392194479703903198e-01 3.647915720939636230e-01
-6.779942512512207031e-01 1.390706300735473633e-01 -2.711783051490783691e-01
4.464389681816101074e-01 9.994754195213317871e-02 -2.741288244724273682e-01
5.359007716178894043e-01 9.275402128696441650e-02 3.318967819213867188e-01
-2.324209213256835938e-01 -1.392194479703903198e-01 -2.420845925807952881e-01
-7.423389554023742676e-01 -4.221643134951591492e-02 1.853859573602676392e-01
6.109794974327087402e-01 -1.967399716377258301e-01 3.558650016784667969e-01
-8.768241107463836670e-02 -2.146772444248199463e-01 -7.227269932627677917e-03
-3.452069163322448730e-01 2.210822254419326782e-01 7.353063672780990601e-02
1.405703425407409668e-01 -1.392194479703903198e-01 -5.948546528816223145e-02
-4.591248035430908203e-01 -2.146772444248199463e-01 -1.751034855842590332e-01
1.527130156755447388e-01 -1.082281544804573059e-01 -3.818590044975280762e-01
-5.461285710334777832e-01 1.746514290571212769e-01 1.286925822496414185e-01
-1.336898207664489746e-01 -1.392194479703903198e-01 -9.013351798057556152e-02
6.232402324676513672e-01 2.335582971572875977e-01 -5.933513119816780090e-02
-6.627081036567687988e-01 -2.202226966619491577e-01 -3.287608027458190918e-01
-6.397447586059570312e-01 1.555381417274475098e-01 2.492041587829589844e-01
4.684850275516510010e-01 1.241471432149410248e-02 -2.799913287162780762e-01
3.478774726390838623e-01 3.231827020645141602e-01 1.194174066185951233e-01
8.649408817291259766e-01 1.153690144419670105e-01 2.630160888656973839e-03
-4.687790274620056152e-01 -1.392194479703903198e-01 -3.124848008155822754e-01
5.660485029220581055e-01 2.497395277023315430e-01 -1.300169378519058228e-01
-8.093651533126831055e-01 7.611407339572906494e-02 -3.094055652618408203e-01
7.675213366746902466e-02 3.312844634056091309e-01 -2.083175331354141235e-01
5.763754248619079590e-01 8.852060884237289429e-03 3.414071202278137207e-01
-7.699083089828491211e-01 -1.129944175481796265e-01 2.252242118120193481e-01
8.497588038444519043e-01 1.789134740829467773e-01 -1.314924508333206177e-01
-4.599425792694091797e-01 3.559134155511856079e-02 3.578316569328308105e-01
-2.219898700714111328e-01 2.815907299518585205e-01 -6.144754588603973389e-02
-6.202176213264465332e-01 -1.104568541049957275e-01 -3.178477585315704346e-01
-2.197578847408294678e-01 2.445497363805770874e-01 2.709846496582031250e-01
-5.628140568733215332e-01 1.175201535224914551e-01 -3.133751153945922852e-01
1.750386804342269897e-01 3.424794673919677734e-01 3.005272708833217621e-02
6.170725226402282715e-01 -9.762160480022430420e-02 3.365940451622009277e-01
6.719992160797119141e-01 -5.295247957110404968e-02 -2.586074769496917725e-01
-8.985624909400939941e-01 -1.268755793571472168e-01 -2.062401026487350464e-01
-9.423762559890747070e-01 -6.591583043336868286e-02 -2.611461877822875977e-01
7.822938561439514160e-01 2.565531730651855469e-01 2.869950532913208008e-01
-1.941567286849021912e-02 -1.692841798067092896e-01 3.665043115615844727e-01
-3.691891208291053772e-02 -1.702914834022521973e-01 -3.512338995933532715e-01
-2.369597554206848145e-01 6.426799297332763672e-02 3.218845725059509277e-01
-5.286580920219421387e-01 -3.638638649135828018e-03 3.087544739246368408e-01
8.365117311477661133e-01 4.950462654232978821e-02 3.099735677242279053e-01
2.556031942367553711e-01 3.161187469959259033e-01 -2.296541631221771240e-01
-9.506651163101196289e-01 -3.214034438133239746e-02 2.717825174331665039e-01
-1.350999176502227783e-01 9.871911257505416870e-02 -3.288426995277404785e-01
-7.591285705566406250e-01 1.661587739363312721e-03 -4.092750251293182373e-01
-9.347366094589233398e-01 1.564323902130126953e-02 4.824272170662879944e-02
8.034707307815551758e-01 2.605262398719787598e-01 8.867180347442626953e-02
7.594733238220214844e-01 -1.291721314191818237e-01 3.752389848232269287e-01
-4.170204102993011475e-01 -2.146772444248199463e-01 -5.677287653088569641e-02
3.833905458450317383e-01 6.101080775260925293e-02 -3.311603367328643799e-01
-7.178711891174316406e-01 -1.337430328130722046e-01 -3.899595737457275391e-01
4.318301379680633545e-01 3.572643548250198364e-02 3.425793647766113281e-01
5.723684430122375488e-01 -1.256939619779586792e-01 -3.358657658100128174e-01
-3.414666652679443359e-01 -1.392194479703903198e-01 1.157005727291107178e-01
2.463631331920623779e-01 1.763454824686050415e-01 -3.120507895946502686e-01
-3.081612288951873779e-01 -1.392194479703903198e-01 2.451971620321273804e-01
-3.439913392066955566e-01 -8.770533651113510132e-02 -3.278892040252685547e-01
-3.149304091930389404e-01 -2.146772444248199463e-01 -4.988365992903709412e-02
-6.273576021194458008e-01 -3.546562045812606812e-02 -2.626226246356964111e-01
6.698489189147949219e-01 7.240399718284606934e-02 -3.152563869953155518e-01
2.355565130710601807e-01 -1.392194479703903198e-01 -2.431983649730682373e-01
-7.832477688789367676e-01 1.296523958444595337e-01 -1.799494475126266479e-01
-9.239135980606079102e-01 8.639829605817794800e-02 -6.005662307143211365e-02
-1.961413217941299081e-04 -2.146772444248199463e-01 -2.452749758958816528e-01
7.675259113311767578e-01 5.426539853215217590e-02 -3.569419682025909424e-01
3.228984177112579346e-01 -1.392194479703903198e-01 -2.017227858304977417e-01
7.769602537155151367e-01 2.313775569200515747e-01 3.892464935779571533e-01
1.651820689439773560e-01 3.339308202266693115e-01 1.785138100385665894e-01
-7.158343791961669922e-01 -1.176600754261016846e-01 -3.201279342174530029e-01
-8.146626353263854980e-01 1.233975142240524292e-01 1.549035608768463135e-01
7.558805346488952637e-01 1.690205782651901245e-01 2.528999745845794678e-01
-5.139217376708984375e-01 -5.688062310218811035e-02 -2.822071909904479980e-01
-4.092029333114624023e-01 1.996365375816822052e-02 3.579708635807037354e-01
-5.367586612701416016e-01 -1.468099206686019897e-01 3.456246554851531982e-01
-6.049044132232666016e-01 -2.373983561992645264e-01 3.265993595123291016e-01
5.235041975975036621e-01 -1.004797294735908508e-01 -2.791361212730407715e-01
-4.043606519699096680e-01 6.600556522607803345e-02 -3.534813225269317627e-01
7.974948734045028687e-02 3.917250409722328186e-02 3.220553696155548096e-01
4.406327009201049805e-02 -2.146772444248199463e-01 8.842259645462036133e-02
5.769650936126708984e-01 7.904917746782302856e-02 -2.521541416645050049e-01
5.657700896263122559e-01 2.399460971355438232e-01 1.641986221075057983e-01
9.048259258270263672e-01 -8.480859547853469849e-02 1.097854226827621460e-01
4.980607330799102783e-01 7.363861799240112305e-02 -3.858554661273956299e-01
-9.630593061447143555e-01 -1.107856109738349915e-01 1.669853925704956055e-01
-3.256925642490386963e-01 -2.146772444248199463e-01 6.657777726650238037e-02
-7.623248100280761719e-01 4.697151482105255127e-02 -3.701469004154205322e-01
-9.164904356002807617e-01 8.393759280443191528e-02 1.002634093165397644e-01
-1.278942376375198364e-01 -1.261513829231262207e-01 -3.661504387855529785e-01
2.625209391117095947e-01 3.371656835079193115e-01 -1.364436894655227661e-01
9.171755909919738770e-01 -1.700035110116004944e-02 -2.099590450525283813e-01
-4.890035390853881836e-01 -1.441682279109954834e-01 2.744838893413543701e-01
3.957110047340393066e-01 -1.230159997940063477e-01 3.121730089187622070e-01
2.361754328012466431e-01 2.652161521837115288e-03 -3.880783319473266602e-01
-4.548721611499786377e-01 -1.206258386373519897e-01 3.799315094947814941e-01
3.983527123928070068e-01 -7.129549235105514526e-02 3.311714231967926025e-01
-2.067489176988601685e-01 -1.392194479703903198e-01 8.151771128177642822e-02
1.616172790527343750e-01 1.506808549165725708e-01 3.315376043319702148e-01
-7.375879287719726562e-01 -7.283780723810195923e-02 2.839158177375793457e-01
-2.701219916343688965e-01 -6.066465284675359726e-03 3.215382695198059082e-01
8.911436200141906738e-01 -1.388684809207916260e-01 3.164280354976654053e-01
7.029448747634887695e-01 1.459075659513473511e-01 2.921614646911621094e-01
-8.364828824996948242e-01 -1.323730498552322388e-01 -1.682465672492980957e-01
-7.044146209955215454e-02 -1.392194479703903198e-01 1.416108906269073486e-01
-4.890035390853881836e-01 -2.054208070039749146e-01 1.488655954599380493e-01
-3.624820113182067871e-01 -1.392194479703903198e-01 2.959391474723815918e-01
6.431746482849121094e-01 4.726620763540267944e-02 3.786867558956146240e-01
3.392328917980194092e-01 -9.507000446319580078e-02 -3.028739094734191895e-01
-4.974468648433685303e-01 1.639840751886367798e-01 2.851945459842681885e-01
8.105592131614685059e-01 2.093151360750198364e-01 -2.986305952072143555e-01
8.399723172187805176e-01 1.779599785804748535e-01 1.769379228353500366e-01
-4.020664095878601074e-01 1.839944571256637573e-01 1.867664605379104614e-01
6.460198760032653809e-01 -1.922262087464332581e-02 -3.296768665313720703e-01
4.911382794380187988e-01 -3.109209239482879639e-02 2.754023075103759766e-01
8.875590562820434570e-01 -6.166845560073852539e-03 -2.884405553340911865e-01
2.212050557136535645e-01 -1.392194479703903198e-01 -1.237301230430603027e-01
2.216707020998001099e-01 -2.146772444248199463e-01 -2.456356771290302277e-02
3.483630120754241943e-01 -1.371966451406478882e-01 3.150604069232940674e-01
-5.806682705879211426e-01 1.456585619598627090e-02 3.904503285884857178e-01
-5.449831485748291016e-02 -2.146772444248199463e-01 -5.079818889498710632e-02
-5.358964204788208008e-01 5.273610353469848633e-03 -3.141238987445831299e-01
5.681847929954528809e-01 -7.129549235105514526e-02 3.282489478588104248e-01
5.701783671975135803e-02 -1.392194479703903198e-01 -1.411556899547576904e-01
-9.238281100988388062e-02 3.192716836929321289e-01 1.735158860683441162e-01
-8.388331532478332520e-01 -1.323496550321578979e-01 1.345667690038681030e-01
1.935796141624450684e-01 3.416698575019836426e-01 -3.847011178731918335e-02
1.655774861574172974e-01 -1.392194479703903198e-01 1.531580537557601929e-01
-7.268574237823486328e-01 1.005485281348228455e-01 3.271843194961547852e-01
-3.485610783100128174e-01 -2.146772444248199463e-01 -1.809947788715362549e-01
-8.703380823135375977e-01 -1.550939492881298065e-02 -2.815192639827728271e-01
-2.207340747117996216e-01 -1.392194479703903198e-01 1.749034225940704346e-01
-5.955473184585571289e-01 -1.242139935493469238e-01 3.029539883136749268e-01
-2.371002584695816040e-01 -1.392194479703903198e-01 -3.264467120170593262e-01
-3.757887184619903564e-01 2.042540460824966431e-01 -3.490335866808891296e-02
-1.335792541503906250e-01 -2.146772444248199463e-01 -2.270183116197586060e-01
-3.325729072093963623e-01 2.083768397569656372e-01 2.417365312576293945e-01
-4.734435379505157471e-01 1.479254513978958130e-01 -3.037022054195404053e-01
-2.598477005958557129e-01 -2.146772444248199463e-01 1.907477229833602905e-01
8.795930147171020508e-01 1.062491014599800110e-01 6.408817321062088013e-02
-1.213494464755058289e-01 -1.392194479703903198e-01 -3.127191588282585144e-02
1.704280078411102295e-01 -1.392194479703903198e-01 1.679596258327364922e-03
-6.860879063606262207e-01 1.483094096183776855e-01 -2.001731097698211670e-01
3.935782611370086670e-01 6.612630188465118408e-02 -2.580072879791259766e-01
-7.365174293518066406e-01 -2.124380171298980713e-01 3.039987683296203613e-01
-3.598777651786804199e-01 -2.146772444248199463e-01 2.151300907135009766e-01
-5.977408960461616516e-02 2.584086656570434570e-01 2.620405554771423340e-01
-9.505797624588012695e-01 -1.819532960653305054e-01 -1.620174199342727661e-01
-6.897158026695251465e-01 1.210963726043701172e-01 -3.171668648719787598e-01
5.163583159446716309e-01 6.296827923506498337e-03 2.793577909469604492e-01
-3.730265051126480103e-02 -2.146772444248199463e-01 -1.534679830074310303e-01
-6.781347393989562988e-01 -2.454579621553421021e-01 2.682142555713653564e-01
-5.386586189270019531e-01 1.708632260560989380e-01 -1.900372356176376343e-01
4.287192821502685547e-01 -2.219705730676651001e-01 3.651589155197143555e-01
3.290416896343231201e-01 6.081976369023323059e-02 -3.343214690685272217e-01
-4.067004919052124023e-01 -1.392194479703903198e-01 -1.168434768915176392e-01
7.089594602584838867e-01 -1.264731138944625854e-01 -3.527536392211914062e-01
-9.153205752372741699e-01 1.057477388530969620e-02 2.700674235820770264e-01
-6.641705036163330078e-01 8.452314138412475586e-02 -3.582826852798461914e-01
-4.783922061324119568e-02 -2.146772444248199463e-01 -2.959783673286437988e-01
-9.985465556383132935e-02 9.265211969614028931e-02 3.221279084682464600e-01
5.628452897071838379e-01 1.241516396403312683e-01 3.122127950191497803e-01
9.584670066833496094e-01 -1.007324382662773132e-01 4.501723125576972961e-02
-2.149563878774642944e-01 -1.392194479703903198e-01 3.039543032646179199e-01
-1.050247848033905029e-01 -5.340102687478065491e-02 3.178307712078094482e-01
-8.730078935623168945e-01 -8.702794462442398071e-02 1.896526813507080078e-01
4.015465974807739258e-01 -2.037103623151779175e-01 3.064907193183898926e-01
3.238746430724859238e-03 -2.146772444248199463e-01 2.447338849306106567e-01
5.684503912925720215e-01 -1.005861908197402954e-01 2.754023075103759766e-01
9.291498661041259766e-01 -1.844838261604309082e-01 1.305515915155410767e-01
-8.820525407791137695e-01 6.909440457820892334e-02 2.059929817914962769e-01
-9.352700710296630859e-01 -4.551293328404426575e-02 -1.578369438648223877e-01
2.111776322126388550e-01 3.407456278800964355e-01 9.919761121273040771e-02
8.986464887857437134e-02 -2.636220306158065796e-02 3.198196291923522949e-01
-2.142012119293212891e-01 -2.146772444248199463e-01 -2.300113067030906677e-02
4.221208989620208740e-01 1.101655438542366028e-01 -3.335785865783691406e-01
-6.616492867469787598e-01 -4.948728531599044800e-02 2.606355249881744385e-01
6.999078392982482910e-01 -3.202376421540975571e-03 3.788435161113739014e-01
-8.266742229461669922e-01 -1.298050582408905029e-01 -3.685768246650695801e-01
8.253084421157836914e-01 2.123931944370269775e-01 -6.960881408303976059e-03
-5.465357303619384766e-01 -1.493638604879379272e-01 3.980759084224700928e-01
-5.943879485130310059e-01 -2.150235474109649658e-01 3.849821090698242188e-01
6.439304351806640625e-01 6.438791006803512573e-02 -3.725335597991943359e-01
7.167815566062927246e-01 -1.772969961166381836e-01 3.137149810791015625e-01
3.090921342372894287e-01 3.105264604091644287e-01 2.173143476247787476e-01
8.791928887367248535e-01 7.489332929253578186e-03 2.341881841421127319e-01
9.209557175636291504e-01 -6.513935327529907227e-02 -1.185569465160369873e-01
-3.069761097431182861e-01 -1.999209970235824585e-01 -3.512338995933532715e-01
4.736431837081909180e-01 4.841897264122962952e-02 -3.284039795398712158e-01
7.512475848197937012e-01 2.038831710815429688e-01 -3.260149955749511719e-01
5.973404645919799805e-01 2.423572987318038940e-01 6.495742499828338623e-02
-1.540717482566833496e-01 3.090500533580780029e-01 -1.282849907875061035e-01
-5.928332209587097168e-01 5.693713203072547913e-02 3.596356809139251709e-01
-6.694620251655578613e-01 -1.414387971162796021e-01 2.995144128799438477e-01
1.488545835018157959e-01 -1.658469289541244507e-01 -3.512338995933532715e-01
2.574340999126434326e-01 -1.392194479703903198e-01 -1.224110368639230728e-02
9.042303562164306641e-01 7.109055295586585999e-04 1.111881732940673828e-01
5.071229338645935059e-01 1.499703526496887207e-01 -3.497656583786010742e-01
-6.088038086891174316e-01 -2.015722217038273811e-03 -3.154178261756896973e-01
6.815319508314132690e-02 -1.392194479703903198e-01 1.716779321432113647e-01
-9.867467880249023438e-01 -8.295427262783050537e-02 -4.388838261365890503e-02
3.745330274105072021e-01 1.053686998784542084e-02 3.104742765426635742e-01
-2.943315804004669189e-01 -1.392194479703903198e-01 -3.614558652043342590e-02
-4.198504686355590820e-01 -1.392194479703903198e-01 1.847424954175949097e-01
-2.761285901069641113e-01 -1.559037417173385620e-01 3.665043115615844727e-01
-2.771726548671722412e-01 -2.146772444248199463e-01 -2.224158346652984619e-01
-8.698888421058654785e-01 3.146256133913993835e-02 -2.565975189208984375e-01
1.607258170843124390e-01 3.330767750740051270e-01 -1.999580860137939453e-01
-4.890035390853881836e-01 -1.519435495138168335e-01 1.102861613035202026e-01
9.702341258525848389e-02 -2.103801071643829346e-01 -3.512338995933532715e-01
-5.002195835113525391e-01 1.739249229431152344e-01 2.306047081947326660e-01
1.064869388937950134e-01 -2.146772444248199463e-01 3.259758055210113525e-01
-6.668566465377807617e-01 -8.752515912055969238e-02 -2.918508648872375488e-01
-3.152346014976501465e-01 1.406247615814208984e-01 -3.224209845066070557e-01
-9.954661130905151367e-02 -1.276372075080871582e-01 3.659977316856384277e-01
-1.894892454147338867e-01 2.627151608467102051e-01 -2.674263417720794678e-01
3.001468777656555176e-01 1.045454517006874084e-01 3.225046396255493164e-01
7.081183195114135742e-01 1.192530542612075806e-01 -3.100490272045135498e-01
-4.312630593776702881e-01 -2.146772444248199463e-01 -1.253545731306076050e-01
-4.540074616670608521e-02 3.352563381195068359e-01 6.959500163793563843e-02
5.670663341879844666e-02 3.409772813320159912e-01 -1.093869954347610474e-01
9.218330979347229004e-01 -1.711104214191436768e-01 -1.346305459737777710e-01
8.597019910812377930e-01 -9.381233155727386475e-02 -3.508817553520202637e-01
1.249693930149078369e-01 -2.146772444248199463e-01 9.728442877531051636e-03
3.260899782180786133e-01 2.187681198120117188e-01 2.790103256702423096e-01
4.147702753543853760e-01 1.406178623437881470e-01 3.161437213420867920e-01
5.118412375450134277e-01 -9.813637286424636841e-02 -3.284121751785278320e-01
-4.637483656406402588e-01 -2.144372090697288513e-02 -3.862403631210327148e-01
4.908668696880340576e-01 1.780629456043243408e-01 2.933009564876556396e-01
-9.417105913162231445e-01 -1.306661218404769897e-01 -5.996127054095268250e-02
-2.545104920864105225e-01 2.654059827327728271e-01 6.699542701244354248e-02
5.739631056785583496e-01 -3.852988407015800476e-02 -3.136196434497833252e-01
7.402244806289672852e-01 2.021622061729431152e-01 -1.130684763193130493e-01
5.071557164192199707e-01 2.692398428916931152e-01 -1.383242309093475342e-01
-1.363664716482162476e-01 2.965318262577056885e-01 2.384981960058212280e-01
2.063750922679901123e-01 -6.431643269024789333e-04 3.216833174228668213e-01
-7.251375913619995117e-01 -2.113277465105056763e-01 -3.234177529811859131e-01
4.500458240509033203e-01 -2.173212766647338867e-01 -3.657409846782684326e-01
-4.848712682723999023e-02 3.320916891098022461e-01 -1.413529217243194580e-01
4.162607491016387939e-01 -1.785710304975509644e-01 -2.900667190551757812e-01
2.042586952447891235e-01 -2.146772444248199463e-01 -8.527540415525436401e-02
6.408073473721742630e-03 -1.392194479703903198e-01 -1.867930963635444641e-02
8.021779060363769531e-01 1.705403327941894531e-01 -2.378214001655578613e-01
-3.398089110851287842e-01 -9.641891717910766602e-02 3.204748034477233887e-01
2.246493101119995117e-01 -2.146772444248199463e-01 1.728139519691467285e-01
6.663566827774047852e-01 -8.674131333827972412e-02 3.651589155197143555e-01
-5.842190384864807129e-01 1.453876346349716187e-01 2.855256497859954834e-01
-6.316266655921936035e-01 6.208093836903572083e-02 -2.428485602140426636e-01
-5.487328171730041504e-01 -2.655032463371753693e-02 3.535719811916351318e-01
6.475418806076049805e-01 1.790105700492858887e-01 -2.787418365478515625e-01
1.327973604202270508e-01 -2.146772444248199463e-01 -1.293388605117797852e-01
8.282952308654785156e-01 2.516172528266906738e-01 -2.468883246183395386e-01
-1.399135738611221313e-01 -2.146772444248199463e-01 -1.590052247047424316e-01
-9.250625371932983398e-01 -4.551293328404426575e-02 1.676861792802810669e-01
-8.351678848266601562e-01 -1.323859244585037231e-01 3.519103303551673889e-02
8.090640306472778320e-01 2.100194245576858521e-01 -1.541341245174407959e-01
-3.323506116867065430e-01 2.287265211343765259e-01 -1.911815814673900604e-02
-7.654251456260681152e-01 3.830137848854064941e-02 -2.882089018821716309e-01
2.480162233114242554e-01 1.352728158235549927e-01 -3.682890534400939941e-01
3.745377063751220703e-01 1.498035900294780731e-02 -3.671904802322387695e-01
1.195666939020156860e-01 1.977972239255905151e-01 -3.007715344429016113e-01
4.931341707706451416e-01 -4.356009885668754578e-02 -2.750039398670196533e-01
-8.560241460800170898e-01 -8.702794462442398071e-02 -2.559014260768890381e-01
7.313355058431625366e-02 -1.264450550079345703e-01 3.675654232501983643e-01
-3.761163353919982910e-01 -3.692977502942085266e-02 3.201764523983001709e-01
-3.339042663574218750e-01 -1.392194479703903198e-01 3.620819747447967529e-01
-7.620347142219543457e-01 -1.635854691267013550e-01 2.061755210161209106e-01
-8.234112858772277832e-01 -2.827104181051254272e-04 -3.447817564010620117e-01
-6.878883838653564453e-01 -1.758790463209152222e-01 -3.455492556095123291e-01
-1.860793828964233398e-01 1.482621431350708008e-01 -3.232083320617675781e-01
4.637187123298645020e-01 -3.350061550736427307e-02 3.203320801258087158e-01
9.363974928855895996e-01 -1.223245635628700256e-01 2.003340572118759155e-01
2.637271583080291748e-01 -2.146772444248199463e-01 2.965334653854370117e-01
8.788032531738281250e-01 1.116023212671279907e-01 -4.882312566041946411e-02
-9.473285675048828125e-01 1.576935686171054840e-02 -1.646834313869476318e-01
8.982253074645996094e-02 -3.818458179011940956e-03 -3.284847140312194824e-01
6.620630621910095215e-01 -1.133676320314407349e-01 -2.626296579837799072e-01
-1.265363097190856934e-01 -1.392194479703903198e-01 -3.168696761131286621e-01
-2.978273034095764160e-01 4.953589662909507751e-02 3.217675685882568359e-01
3.067148625850677490e-01 -1.679048389196395874e-01 3.665043115615844727e-01
-5.167786031961441040e-02 -1.392194479703903198e-01 2.297935821115970612e-02
-8.760637044906616211e-01 5.931693129241466522e-03 3.287941217422485352e-01
3.519991412758827209e-02 -1.392194479703903198e-01 -3.459949791431427002e-01
3.431006669998168945e-01 3.245597183704376221e-01 -8.150087296962738037e-02
-8.006807565689086914e-01 4.697537794709205627e-02 2.636808156967163086e-01
8.789506554603576660e-01 1.106003969907760620e-01 -9.833446890115737915e-02
8.477674722671508789e-01 -9.082201123237609863e-02 -2.568057775497436523e-01
2.118983268737792969e-01 -2.146772444248199463e-01 -2.973647117614746094e-01
-9.544790983200073242e-01 -8.323738723993301392e-02 6.558450311422348022e-02
-7.693151235580444336e-01 2.984186401590704918e-03 2.929979264736175537e-01
4.896383881568908691e-01 2.813111245632171631e-01 -7.481440901756286621e-02
3.652765750885009766e-01 -1.130809932947158813e-01 -3.568530678749084473e-01
3.250019550323486328e-01 -1.400711685419082642e-01 2.012629956007003784e-01
4.450783431529998779e-01 2.245803028345108032e-01 -2.767026722431182861e-01
5.010206103324890137e-01 1.056289300322532654e-01 3.764124214649200439e-01
-2.715878784656524658e-01 -2.146772444248199463e-01 3.131265044212341309e-01
8.771514296531677246e-01 -1.734549552202224731e-01 4.398152232170104980e-03
-2.060700058937072754e-01 -7.291092723608016968e-02 3.222928643226623535e-01
3.897362053394317627e-01 2.973695099353790283e-01 -1.852001994848251343e-01
6.217169761657714844e-01 2.005126029253005981e-01 2.562822103500366211e-01
7.725027799606323242e-01 1.885161995887756348e-01 -3.803568184375762939e-01
-2.276342958211898804e-01 -2.146772444248199463e-01 5.141788721084594727e-02
-6.333581637591123581e-03 -7.484785467386245728e-02 -3.281559646129608154e-01
4.870891571044921875e-01 2.814889252185821533e-01 9.641085565090179443e-02
5.523416996002197266e-01 8.289576321840286255e-02 -3.158132731914520264e-01
-1.973505876958370209e-02 1.217418238520622253e-01 -3.290416002273559570e-01
7.575289011001586914e-01 -1.106040738523006439e-02 -3.610542118549346924e-01
8.540195822715759277e-01 2.644526958465576172e-02 -2.708273231983184814e-01
-4.611826315522193909e-02 3.356646299362182617e-01 -1.269058417528867722e-02
-8.725270032882690430e-01 9.865885972976684570e-02 -7.129959762096405029e-02
1.717022061347961426e-02 3.268937170505523682e-01 2.193523496389389038e-01
-8.930569291114807129e-01 1.880308799445629120e-02 -1.399494856595993042e-01
2.147342264652252197e-01 -1.392194479703903198e-01 3.577439188957214355e-01
-6.181233525276184082e-01 -7.608445733785629272e-02 3.442605435848236084e-01
-3.960155546665191650e-01 -9.514604508876800537e-02 -3.273007571697235107e-01
9.347630739212036133e-01 -6.703849136829376221e-02 -2.199016809463500977e-01
-9.253994822502136230e-01 -1.770279109477996826e-01 -2.955162525177001953e-01
1.739997565746307373e-01 2.391037344932556152e-01 2.707144021987915039e-01
9.564676284790039062e-01 -6.638005375862121582e-02 -7.952544838190078735e-02
2.597178220748901367e-01 -5.734660476446151733e-02 -3.818438053131103516e-01
-8.408185839653015137e-01 1.018685549497604370e-01 -2.499582171440124512e-01
-6.547970771789550781e-01 1.627930849790573120e-01 -8.402603864669799805e-02
-9.696143865585327148e-01 -4.138263314962387085e-02 2.054875940084457397e-01
2.411956153810024261e-02 -4.541302472352981567e-02 3.185210227966308594e-01
-2.824053764343261719e-01 4.667893797159194946e-02 -3.284917175769805908e-01
-5.758200883865356445e-01 -1.644219756126403809e-01 -3.005457222461700439e-01
-7.496768236160278320e-01 -3.556424006819725037e-02 -3.868440389633178711e-01
8.322344422340393066e-01 2.644794285297393799e-01 1.845248937606811523e-01
-2.439391762018203735e-01 2.739569842815399170e-01 -4.529660101979970932e-03
-7.153781056404113770e-01 -8.186505734920501709e-02 -3.558480739593505859e-01
7.832379937171936035e-01 1.173133105039596558e-01 -3.393322229385375977e-01
5.915107727050781250e-01 1.985728740692138672e-01 -2.721118927001953125e-01
-7.546126246452331543e-01 -1.814548969268798828e-01 -3.826487064361572266e-01
5.492472052574157715e-01 2.600009441375732422e-01 4.330446198582649231e-02
-9.215340614318847656e-01 5.460993945598602295e-02 1.425292789936065674e-01
-4.941699206829071045e-01 -2.455829456448554993e-02 -3.333317041397094727e-01
-8.097453117370605469e-01 -1.326327621936798096e-01 -2.063390798866748810e-02
-5.570228770375251770e-02 -2.090347111225128174e-01 3.665043115615844727e-01
-8.522008061408996582e-01 -8.942745625972747803e-02 3.409590125083923340e-01
-7.612566351890563965e-01 -6.009022705256938934e-03 2.282122075557708740e-01
-2.741543650627136230e-01 1.703905761241912842e-01 -3.536427617073059082e-01
-5.368943810462951660e-01 -7.704531308263540268e-04 -2.719024717807769775e-01
-7.912383079528808594e-01 1.372917592525482178e-01 4.937286674976348877e-02
-1.448133289813995361e-01 -2.146772444248199463e-01 6.322944909334182739e-02
-3.557280302047729492e-01 -1.392194479703903198e-01 -2.980225533246994019e-02
-3.936651945114135742e-01 -1.004189029335975647e-01 3.201577365398406982e-01
-6.966148018836975098e-01 -1.902784854173660278e-01 3.103187084197998047e-01
-3.229421079158782959e-01 2.153741568326950073e-01 -2.256483286619186401e-01
4.427127242088317871e-01 -1.542096883058547974e-01 -3.372685015201568604e-01
-4.069777429103851318e-01 -9.751749038696289062e-02 -3.812997937202453613e-01
-3.466903567314147949e-01 -1.392194479703903198e-01 -2.708647549152374268e-01
-5.935034751892089844e-01 6.726639717817306519e-02 -3.066000938415527344e-01
8.354212641716003418e-01 2.140416204929351807e-01 -7.868263870477676392e-02
2.896116971969604492e-01 3.097404725849628448e-02 -3.868592679500579834e-01
7.975438833236694336e-01 -6.395293027162551880e-02 3.692044913768768311e-01
5.746125057339668274e-02 3.390702903270721436e-01 1.311611086130142212e-01
-8.614969253540039062e-01 -1.338167488574981689e-01 2.759802043437957764e-01
6.554752588272094727e-01 -8.335300721228122711e-03 2.856800556182861328e-01
-9.334402680397033691e-01 1.703030057251453400e-02 9.481975436210632324e-02
-2.497499585151672363e-01 2.420273870229721069e-01 -2.738609313964843750e-01
-4.212075173854827881e-01 -2.146772444248199463e-01 6.308285985141992569e-03
-6.036315560340881348e-01 -6.764732301235198975e-02 -2.937110364437103271e-01
-4.890035390853881836e-01 -1.683189868927001953e-01 2.252791970968246460e-01
6.331261396408081055e-01 9.543372690677642822e-02 3.109516203403472900e-01
8.254454135894775391e-01 -1.334786266088485718e-01 -3.575690388679504395e-01
8.743563890457153320e-01 6.301933526992797852e-02 2.160262614488601685e-01
5.888856202363967896e-02 -1.392194479703903198e-01 9.108885377645492554e-02
-9.909549951553344727e-01 -1.952364109456539154e-02 8.819329738616943359e-02
1.064787507057189941e-01 -2.146772444248199463e-01 2.023486793041229248e-01
-6.910038590431213379e-01 1.473167240619659424e-01 2.086498886346817017e-01
-5.717651844024658203e-01 3.938194364309310913e-02 3.115037977695465088e-01
-5.251998305320739746e-01 1.725537627935409546e-01 1.819767951965332031e-01
-7.585833668708801270e-01 1.431558877229690552e-01 -7.462359219789505005e-02
-6.540564894676208496e-01 -3.919264674186706543e-02 3.175745606422424316e-01
-7.278576493263244629e-01 2.316157799214124680e-03 -3.706850707530975342e-01
9.083918929100036621e-01 -1.415382325649261475e-01 -2.643739879131317139e-01
-7.974880933761596680e-01 -8.702794462442398071e-02 2.718129754066467285e-01
2.903651297092437744e-01 3.337342739105224609e-01 -1.585499569773674011e-02
6.696009635925292969e-01 1.755171865224838257e-01 2.702546119689941406e-01
9.450011253356933594e-01 -7.157031446695327759e-02 1.743781268596649170e-01
-2.212531715631484985e-01 -2.146772444248199463e-01 -1.375773400068283081e-01
-7.464839518070220947e-02 2.108652740716934204e-01 -2.933460175991058350e-01
-4.415642619132995605e-01 -1.392194479703903198e-01 5.083058029413223267e-02
-8.403025865554809570e-01 4.599654302000999451e-02 -1.993458569049835205e-01
3.250019550323486328e-01 -1.995723396539688110e-01 3.303252160549163818e-02
7.925319075584411621e-01 -1.812045276165008545e-01 -3.517732322216033936e-01
2.515213191509246826e-01 -2.499994263052940369e-02 -3.263109922409057617e-01
-5.484403967857360840e-01 -9.496939927339553833e-02 3.826153278350830078e-01
-6.800381094217300415e-02 -2.146772444248199463e-01 5.601452663540840149e-02
7.890595793724060059e-01 1.754142194986343384e-01 2.187662571668624878e-01
5.606341361999511719e-01 8.127367496490478516e-02 -3.783995211124420166e-01
-9.761496186256408691e-01 -1.707032918930053711e-01 -1.479258853942155838e-02
7.675832509994506836e-01 -3.919124230742454529e-02 -3.023088276386260986e-01
8.226633667945861816e-01 -1.923445612192153931e-01 -2.804124951362609863e-01
4.598322212696075439e-01 -8.150004595518112183e-02 -3.282437026500701904e-01
-1.862847208976745605e-01 -2.146772444248199463e-01 2.586641609668731689e-01
-9.257679581642150879e-01 8.604964613914489746e-02 4.742961749434471130e-02
6.875334680080413818e-02 -1.392194479703903198e-01 -2.712426185607910156e-01
-7.191826701164245605e-01 1.499494016170501709e-01 9.201661497354507446e-02
-1.518848687410354614e-01 -1.815613508224487305e-01 3.665043115615844727e-01
-7.890598773956298828e-01 -2.750369533896446228e-02 -3.777923583984375000e-01
2.587081491947174072e-01 -1.476370692253112793e-01 -3.512338995933532715e-01
8.563372492790222168e-01 2.588193118572235107e-01 7.101530581712722778e-02
-4.810492098331451416e-01 -2.146772444248199463e-01 2.022784948348999023e-01
-7.785247564315795898e-01 -1.909312903881072998e-01 2.910383343696594238e-01
9.198770523071289062e-01 -1.481764018535614014e-01 -1.714943945407867432e-01
-9.858846068382263184e-01 -3.179942816495895386e-02 -1.409020423889160156e-01
5.405511856079101562e-01 1.484035849571228027e-01 -3.136418759822845459e-01
4.750787019729614258e-01 1.641691103577613831e-02 3.079847097396850586e-01
-9.792581200599670410e-01 -1.171064935624599457e-02 1.230512112379074097e-01
5.300160050392150879e-01 2.479811310768127441e-01 -1.920458823442459106e-01
1.377859413623809814e-01 -1.392194479703903198e-01 -1.858781576156616211e-01
3.063019365072250366e-02 3.405069708824157715e-01 -3.467958653345704079e-03
-4.890035390853881836e-01 -2.114459127187728882e-01 -3.866396471858024597e-02
4.455100595951080322e-01 2.383912652730941772e-01 2.591473460197448730e-01
-6.925997138023376465e-01 -2.764432132244110107e-02 -3.581025302410125732e-01
-3.930416405200958252e-01 1.880646198987960815e-01 -1.415352076292037964e-01
2.721833586692810059e-01 -1.392194479703903198e-01 -1.248586252331733704e-01
8.877040743827819824e-01 -9.400186687707901001e-02 3.315797150135040283e-01
-2.886457443237304688e-01 -1.122971400618553162e-01 3.796542584896087646e-01
8.124615550041198730e-01 2.608701884746551514e-01 -3.899899721145629883e-01
-1.546006947755813599e-01 -1.494233496487140656e-02 -3.275089859962463379e-01
2.431680709123611450e-01 -2.146772444248199463e-01 -1.779901683330535889e-01
2.372435629367828369e-01 2.673036158084869385e-01 2.545039355754852295e-01
7.267470955848693848e-01 6.437165290117263794e-02 3.641048073768615723e-01
-1.615556180477142334e-01 3.145007193088531494e-01 9.406947530806064606e-03
-1.110363304615020752e-01 3.251715898513793945e-01 -5.794923752546310425e-02
9.076782464981079102e-01 3.005811385810375214e-02 5.503997579216957092e-02
7.871490716934204102e-01 5.855852738022804260e-02 2.930482625961303711e-01
3.024574816226959229e-01 2.294085770845413208e-01 -2.809050381183624268e-01
7.846629619598388672e-01 1.957603693008422852e-01 1.349501498043537140e-02
1.798575669527053833e-01 -1.392194479703903198e-01 -9.705273061990737915e-02
2.804290056228637695e-01 -1.392194479703903198e-01 6.110485643148422241e-02
7.323848605155944824e-01 2.047418951988220215e-01 -4.187985509634017944e-02
5.014195442199707031e-01 -1.364525854587554932e-01 3.288900852203369141e-01
-1.012178882956504822e-02 2.742227353155612946e-02 -3.287046551704406738e-01
1.024717539548873901e-01 2.928664684295654297e-01 -2.477797865867614746e-01
7.972981333732604980e-01 1.929665952920913696e-01 -1.143799722194671631e-01
-6.805318593978881836e-01 -1.000456959009170532e-01 2.497353106737136841e-01
8.629567027091979980e-01 1.765478849411010742e-01 -4.362945910543203354e-03
-7.541985511779785156e-01 -1.034256145358085632e-01 1.785395443439483643e-01
4.961525499820709229e-01 -1.745581924915313721e-01 3.122806251049041748e-01
5.285758525133132935e-02 -8.393349498510360718e-02 -3.279009163379669189e-01
3.937771916389465332e-02 -2.146772444248199463e-01 2.971722185611724854e-01
8.750454783439636230e-01 -4.531836882233619690e-02 1.486491560935974121e-01
4.397036731243133545e-01 -5.328193306922912598e-02 -3.016700446605682373e-01
4.138588905334472656e-01 3.074063062667846680e-01 -1.241249777376651764e-02
8.489350676536560059e-01 -5.273850262165069580e-02 2.369550466537475586e-01
-7.382091283798217773e-01 1.365202069282531738e-01 2.394575178623199463e-01
5.847766995429992676e-01 7.251011580228805542e-02 3.491438031196594238e-01
-5.569574236869812012e-01 9.978175163269042969e-02 3.242676854133605957e-01
2.864365577697753906e-01 -2.146772444248199463e-01 -2.916145324707031250e-01
