-2.513067722320556641e-01 7.296057790517807007e-02 -5.255265831947326660e-01
-9.637520462274551392e-02 -1.820803135633468628e-01 -3.481428027153015137e-01
2.746449112892150879e-01 2.090297937393188477e-01 -2.955568730831146240e-01
-2.745324075222015381e-01 -1.137926205992698669e-01 9.462957382202148438e-01
-6.563852075487375259e-03 -1.820803135633468628e-01 -7.467176020145416260e-02
6.697894632816314697e-02 1.298262178897857666e-01 4.056559205055236816e-01
-7.532737404108047485e-02 1.458748877048492432e-01 5.931451916694641113e-01
1.863662749528884888e-01 -2.196179144084453583e-02 7.000479102134704590e-01
1.851084232330322266e-01 5.743056070059537888e-03 4.056559205055236816e-01
-2.387322187423706055e-01 -1.205257978290319443e-02 6.462012529373168945e-01
-1.013421267271041870e-01 1.300707608461380005e-01 4.056559205055236816e-01
2.045315504074096680e-01 3.036726824939250946e-02 6.706975698471069336e-01
2.746449112892150879e-01 8.729074150323867798e-02 2.679715156555175781e-01
7.339612394571304321e-02 -1.820803135633468628e-01 1.504951566457748413e-01
-2.938964068889617920e-01 -1.091659888625144958e-01 -7.475994825363159180e-01
2.193818986415863037e-02 2.429887950420379639e-01 -5.216222405433654785e-01
-2.301904261112213135e-01 -1.650970131158828735e-01 -4.941012859344482422e-01
-4.386603832244873047e-02 2.429887950420379639e-01 -4.808773100376129150e-01
-5.319515243172645569e-02 -1.820803135633468628e-01 -3.809852004051208496e-01
1.442933529615402222e-01 -1.820803135633468628e-01 -6.842502951622009277e-01
1.987400054931640625e-01 1.107680052518844604e-01 -6.822369694709777832e-01
7.141410559415817261e-02 3.722238168120384216e-02 8.270761966705322266e-01
-2.856738567352294922e-01 -1.608599722385406494e-01 5.673531889915466309e-01
-1.490104198455810547e-01 -1.820803135633468628e-01 3.887494206428527832e-01
-1.898265480995178223e-01 9.885021299123764038e-02 -4.174248278141021729e-01
-1.004160419106483459e-01 -1.820803135633468628e-01 -2.013852000236511230e-01
-1.924657449126243591e-02 -1.992098800837993622e-02 -4.058406949043273926e-01
1.568215787410736084e-01 -1.820803135633468628e-01 6.700988858938217163e-02
1.277138441801071167e-01 -1.820803135633468628e-01 5.584307312965393066e-01
-1.051327362656593323e-01 -1.205257978290319443e-02 -7.823613882064819336e-01
-1.890671849250793457e-01 2.081965804100036621e-01 -1.611849106848239899e-02
2.235149294137954712e-01 2.429887950420379639e-01 2.257464081048965454e-02
2.746449112892150879e-01 -2.672871574759483337e-02 -2.029340565204620361e-01
-1.178903430700302124e-01 2.429887950420379639e-01 -4.859769642353057861e-01
2.129668295383453369e-01 2.429887950420379639e-01 -1.996183395385742188e-01
-1.470767408609390259e-01 -1.011603791266679764e-02 -6.230964064598083496e-01
-1.105413734912872314e-01 2.429887950420379639e-01 3.538728356361389160e-01
-1.492379158735275269e-01 -1.820803135633468628e-01 7.689830064773559570e-01
-2.893625991418957710e-03 -1.820803135633468628e-01 -6.044353246688842773e-01
7.504828274250030518e-02 2.429887950420379639e-01 4.245249554514884949e-02
8.978794515132904053e-02 -1.424512416124343872e-01 -4.058406949043273926e-01
-2.135647684335708618e-01 1.152742654085159302e-01 4.768451154232025146e-01
6.297978758811950684e-02 1.579746901988983154e-01 5.768766403198242188e-01
-6.530439853668212891e-02 -1.453278064727783203e-01 -9.077942967414855957e-01
-1.561281234025955200e-01 -4.918937385082244873e-02 -7.957711219787597656e-01
2.641138732433319092e-01 -3.271746262907981873e-02 5.058514475822448730e-01
-1.657548546791076660e-01 2.429887950420379639e-01 -7.339694350957870483e-02
1.419644057750701904e-01 -1.820803135633468628e-01 1.636679321527481079e-01
1.899454742670059204e-01 7.296057790517807007e-02 6.902979612350463867e-01
3.399341180920600891e-02 -1.820803135633468628e-01 4.360120296478271484e-01
1.803983747959136963e-01 2.214812338352203369e-01 -5.024474263191223145e-01
1.677175313234329224e-01 -1.820803135633468628e-01 -5.601747035980224609e-01
-2.530523240566253662e-01 -1.820803135633468628e-01 7.266958355903625488e-01
-1.980909854173660278e-01 6.086079403758049011e-02 -5.971555709838867188e-01
-2.379943877458572388e-01 -1.209018677473068237e-01 9.451345801353454590e-01
-1.221324782818555832e-02 1.076921150088310242e-01 -4.058406949043273926e-01
-8.470386266708374023e-02 -1.820803135633468628e-01 6.469814181327819824e-01
5.753513798117637634e-02 3.208863362669944763e-02 -4.058406949043273926e-01
-1.893047243356704712e-01 1.390776187181472778e-01 4.092797040939331055e-01
-1.395704150199890137e-01 -1.205257978290319443e-02 7.827444076538085938e-01
2.746449112892150879e-01 1.507015526294708252e-01 1.275841705501079559e-02
2.746449112892150879e-01 2.075197845697402954e-01 3.789311945438385010e-01
-1.919945478439331055e-01 -1.820803135633468628e-01 5.710650682449340820e-01
-3.049953877925872803e-01 -1.047466546297073364e-01 7.926583886146545410e-01
2.746449112892150879e-01 -1.105326488614082336e-01 2.581097185611724854e-01
-7.994358241558074951e-02 8.507362753152847290e-02 5.747419595718383789e-01
7.689951360225677490e-02 2.429887950420379639e-01 4.771863520145416260e-01
-3.806876018643379211e-02 -1.820803135633468628e-01 1.374740153551101685e-01
1.472630798816680908e-01 -1.508117020130157471e-01 7.532016634941101074e-01
-2.856738567352294922e-01 -1.353542953729629517e-01 -8.031921386718750000e-01
-1.417316049337387085e-01 -1.820803135633468628e-01 -2.506440877914428711e-01
-1.521450877189636230e-01 2.429887950420379639e-01 6.068842485547065735e-02
-2.144874334335327148e-01 3.558348864316940308e-02 -4.780819714069366455e-01
2.206466048955917358e-01 1.579746901988983154e-01 -5.154542922973632812e-01
1.811159253120422363e-01 -1.820803135633468628e-01 -4.671822786331176758e-01
6.785763800144195557e-02 2.429887950420379639e-01 -5.051337480545043945e-01
-2.086882591247558594e-01 6.086079403758049011e-02 5.841345787048339844e-01
1.961465477943420410e-01 -1.301070451736450195e-01 -6.860095262527465820e-01
-1.126257777214050293e-01 -1.820803135633468628e-01 -1.007812172174453735e-01
-1.879323869943618774e-01 -3.018186800181865692e-02 4.056559205055236816e-01
1.047219038009643555e-01 -1.820803135633468628e-01 -2.533745393157005310e-02
2.746449112892150879e-01 4.521591588854789734e-02 1.395508497953414917e-01
-1.532114744186401367e-01 1.926199495792388916e-01 5.022627115249633789e-01
-1.094257161021232605e-01 1.453507244586944580e-01 -4.058406949043273926e-01
2.746449112892150879e-01 1.152619495987892151e-01 -3.912574350833892822e-01
4.989515990018844604e-02 -1.162108704447746277e-01 8.443883657455444336e-01
-2.856738567352294922e-01 -1.194445863366127014e-01 6.756786704063415527e-01
9.716127999126911163e-03 -1.760501265525817871e-01 -8.701640963554382324e-01
-1.638420224189758301e-01 1.554713249206542969e-01 -5.610904097557067871e-01
1.297233849763870239e-01 6.462719757109880447e-04 4.056559205055236816e-01
2.746449112892150879e-01 1.263787597417831421e-01 -3.112870752811431885e-01
2.201954126358032227e-01 1.407060623168945312e-01 -6.399232745170593262e-01
1.922251582145690918e-01 2.429887950420379639e-01 1.957501173019409180e-01
-2.855801880359649658e-01 -9.706696867942810059e-02 8.710135817527770996e-01
2.746449112892150879e-01 -7.758457213640213013e-02 2.715094573795795441e-02
2.746449112892150879e-01 9.204343706369400024e-02 3.326904177665710449e-01
4.331399127840995789e-02 -4.867581278085708618e-02 8.485808372497558594e-01
-6.498970091342926025e-02 -1.547252386808395386e-01 9.074674248695373535e-01
1.878610849380493164e-01 -1.820803135633468628e-01 -4.153470695018768311e-01
2.746449112892150879e-01 -7.626614719629287720e-02 -3.179781734943389893e-01
-1.404026597738265991e-01 -1.040793433785438538e-01 -4.058406949043273926e-01
-3.408383578062057495e-02 2.429887950420379639e-01 3.709973990917205811e-01
2.506623864173889160e-01 3.157297521829605103e-02 -5.625491738319396973e-01
-1.972132474184036255e-01 -1.820803135633468628e-01 7.161003947257995605e-01
-1.890671849250793457e-01 1.936190426349639893e-01 6.896367669105529785e-02
-1.675397306680679321e-01 2.429887950420379639e-01 4.562001228332519531e-01
-1.174211353063583374e-01 -1.205257978290319443e-02 8.150569796562194824e-01
-1.890671849250793457e-01 3.560908511281013489e-02 3.612654209136962891e-01
-2.499610781669616699e-01 -1.820803135633468628e-01 -5.957280993461608887e-01
-2.213288284838199615e-02 -1.820803135633468628e-01 -7.313081622123718262e-01
-1.274241954088211060e-01 -1.820803135633468628e-01 -6.106345057487487793e-01
2.746449112892150879e-01 2.158906012773513794e-01 -6.310658901929855347e-02
-1.925464123487472534e-01 -1.820803135633468628e-01 4.767939150333404541e-01
7.071457058191299438e-02 -1.820803135633468628e-01 8.155261278152465820e-01
2.324174493551254272e-01 -1.693146377801895142e-01 4.056559205055236816e-01
2.840845100581645966e-02 -1.820803135633468628e-01 -7.703706026077270508e-01
1.898507028818130493e-01 2.429887950420379639e-01 -3.040698468685150146e-01
-1.893835067749023438e-01 -1.816884577274322510e-01 -4.106663763523101807e-01
2.685765326023101807e-01 2.426067739725112915e-01 -4.841001331806182861e-01
2.210949808359146118e-01 -1.820803135633468628e-01 2.293242812156677246e-01
2.223367094993591309e-01 5.296205356717109680e-02 4.056559205055236816e-01
-2.856738567352294922e-01 -1.576961129903793335e-01 7.937626242637634277e-01
-1.467355042695999146e-01 -1.820803135633468628e-01 -3.272902369499206543e-01
2.746449112892150879e-01 1.742102392017841339e-02 3.607753813266754150e-01
2.746449112892150879e-01 -1.218554526567459106e-01 3.135175108909606934e-01
-1.236838251352310181e-01 -1.820803135633468628e-01 -2.935975790023803711e-01
1.189127117395401001e-01 2.429887950420379639e-01 -2.972962260246276855e-01
1.171335503458976746e-01 -1.813249439001083374e-01 -7.866476774215698242e-01
2.600654363632202148e-01 1.238962486386299133e-01 -5.259360671043395996e-01
-1.890671849250793457e-01 6.829129159450531006e-02 -3.266513347625732422e-01
1.515399366617202759e-01 2.429887950420379639e-01 -3.342795372009277344e-02
-1.890671849250793457e-01 2.423043996095657349e-01 3.234371542930603027e-01
-1.566494405269622803e-01 -1.820803135633468628e-01 3.493685126304626465e-01
2.746449112892150879e-01 -1.677726209163665771e-01 9.435880184173583984e-02
-1.307228505611419678e-01 2.429887950420379639e-01 -2.347091287374496460e-01
-8.412376046180725098e-02 -1.205257978290319443e-02 -7.366390824317932129e-01
-1.890671849250793457e-01 5.770433694124221802e-02 1.834200024604797363e-01
-1.890671849250793457e-01 4.724534228444099426e-02 4.402115568518638611e-02
1.184008643031120300e-01 -1.820803135633468628e-01 -2.110185921192169189e-01
-2.856738567352294922e-01 -1.445398479700088501e-01 -6.784937977790832520e-01
7.546063512563705444e-02 -1.820803135633468628e-01 -1.774254590272903442e-01
-1.669738292694091797e-01 -1.820803135633468628e-01 -5.600779652595520020e-01
2.485561817884445190e-01 5.816879868507385254e-02 5.684224367141723633e-01
-2.255117446184158325e-01 -1.543942391872406006e-01 -9.449221491813659668e-01
-2.789808511734008789e-01 -9.706696867942810059e-02 -6.374208331108093262e-01
-1.774290353059768677e-01 -1.820803135633468628e-01 -9.090104699134826660e-01
7.758484035730361938e-02 -1.622212231159210205e-01 4.056559205055236816e-01
-6.539446115493774414e-02 3.908119723200798035e-02 7.045911550521850586e-01
-9.283958375453948975e-02 -1.095484569668769836e-01 4.056559205055236816e-01
-1.043630391359329224e-01 -1.820803135633468628e-01 -6.793241500854492188e-01
-5.687051918357610703e-03 2.429887950420379639e-01 2.462923973798751831e-01
-2.525452077388763428e-01 -9.706696867942810059e-02 -8.284144401550292969e-01
1.855927854776382446e-01 -6.374086439609527588e-02 -4.058406949043273926e-01
2.746449112892150879e-01 4.390404745936393738e-02 -3.622321784496307373e-01
-3.049953877925872803e-01 -1.089534685015678406e-01 7.297632098197937012e-01
-1.854600161314010620e-01 -8.892557024955749512e-02 7.247735261917114258e-01
-1.890671849250793457e-01 1.529556214809417725e-01 5.190454423427581787e-02
2.728088200092315674e-01 -1.820803135633468628e-01 2.274588495492935181e-01
2.746449112892150879e-01 1.397202759981155396e-01 -1.123075261712074280e-01
-1.890671849250793457e-01 -6.324834376573562622e-02 -1.862313449382781982e-01
-2.484070211648941040e-01 -9.706696867942810059e-02 7.209724783897399902e-01
1.544632166624069214e-01 1.579746901988983154e-01 -6.886181235313415527e-01
-2.786951325833797455e-02 2.308880686759948730e-01 -5.179690718650817871e-01
-4.871353879570960999e-02 2.429887950420379639e-01 4.347001314163208008e-01
-9.900747984647750854e-02 2.429887950420379639e-01 8.101747184991836548e-02
1.313641518354415894e-01 1.132610812783241272e-02 -4.058406949043273926e-01
2.677878737449645996e-01 -1.820803135633468628e-01 -1.255580335855484009e-01
7.528986898250877857e-04 -1.820803135633468628e-01 -8.053750991821289062e-01
2.459703534841537476e-01 -2.490971982479095459e-02 -5.760461091995239258e-01
2.746449112892150879e-01 1.985433101654052734e-01 2.444591969251632690e-01
7.339612394571304321e-02 1.273114681243896484e-01 -6.384436488151550293e-01
2.746449112892150879e-01 7.187051326036453247e-02 1.078809723258018494e-01
-9.997718036174774170e-02 9.882367402315139771e-02 -5.666307210922241211e-01
1.298456490039825439e-01 3.045825846493244171e-02 -7.726151347160339355e-01
-1.890671849250793457e-01 -9.409297257661819458e-02 3.909864425659179688e-01
2.799423225224018097e-02 2.250549010932445526e-02 -7.981663942337036133e-01
6.080439686775207520e-02 -1.820803135633468628e-01 1.982260048389434814e-01
-1.717151701450347900e-01 7.296057790517807007e-02 -5.394785404205322266e-01
2.392792403697967529e-01 2.429887950420379639e-01 2.726654708385467529e-01
-1.890671849250793457e-01 -9.582182019948959351e-02 9.217865765094757080e-02
-3.011119067668914795e-01 -9.706696867942810059e-02 -5.404890179634094238e-01
2.746449112892150879e-01 -1.251401603221893311e-01 -5.772703886032104492e-02
-2.019953280687332153e-01 1.171359196305274963e-01 5.241873264312744141e-01
2.746449112892150879e-01 1.169927790760993958e-01 1.970259845256805420e-01
1.113286688923835754e-01 -1.820803135633468628e-01 3.797625005245208740e-01
2.746449112892150879e-01 -1.963283307850360870e-02 -1.580269634723663330e-01
2.746449112892150879e-01 4.908140003681182861e-02 1.786862611770629883e-01
-1.368916928768157959e-01 7.032261043787002563e-02 6.604195833206176758e-01
1.005051424726843834e-03 -1.820803135633468628e-01 -2.049691677093505859e-01
-1.890671849250793457e-01 -1.426788866519927979e-01 4.643523693084716797e-02
1.918782293796539307e-01 -1.820803135633468628e-01 6.200604438781738281e-01
-6.620015949010848999e-02 -1.820803135633468628e-01 4.062635302543640137e-01
-3.233879804611206055e-02 -1.820803135633468628e-01 -1.407981663942337036e-01
-2.856738567352294922e-01 -1.465656310319900513e-01 8.334336280822753906e-01
2.138701826333999634e-01 8.165364712476730347e-02 -6.524249911308288574e-01
2.323918491601943970e-01 9.565299749374389648e-02 6.149210333824157715e-01
-1.821030676364898682e-01 2.429887950420379639e-01 -4.229206740856170654e-01
2.746449112892150879e-01 4.569081217050552368e-02 -2.345574647188186646e-01
6.056648120284080505e-02 2.429887950420379639e-01 3.141620755195617676e-01
2.713443338871002197e-01 -1.457622945308685303e-01 4.549005627632141113e-01
1.453066617250442505e-01 2.429887950420379639e-01 3.867048323154449463e-01
-2.241630852222442627e-02 9.834404289722442627e-02 4.056559205055236816e-01
2.387076467275619507e-01 2.429887950420379639e-01 5.022305250167846680e-01
2.746449112892150879e-01 -9.157348424196243286e-02 -1.906276494264602661e-01
-1.890671849250793457e-01 1.135889142751693726e-01 3.386194407939910889e-01
1.496157348155975342e-01 1.579746901988983154e-01 -5.378367900848388672e-01
-1.234781444072723389e-01 -1.820803135633468628e-01 8.552047610282897949e-01
-1.933248192071914673e-01 -9.352765232324600220e-02 -7.059711217880249023e-01
1.193354874849319458e-01 -1.820803135633468628e-01 2.411055564880371094e-01
8.069485425949096680e-02 -5.434891581535339355e-02 -4.058406949043273926e-01
-1.860009729862213135e-01 2.429887950420379639e-01 -3.038670122623443604e-01
-1.785314381122589111e-01 2.429887950420379639e-01 -8.437561802566051483e-03
-2.192341536283493042e-02 1.457412391901016235e-01 -4.058406949043273926e-01
1.357443481683731079e-01 -1.820803135633468628e-01 -4.584484100341796875e-01
-2.016329467296600342e-01 -5.591112747788429260e-02 -6.859128475189208984e-01
2.010291516780853271e-01 -1.755014061927795410e-01 6.776199936866760254e-01
-1.694004237651824951e-01 -1.820803135633468628e-01 -8.414459824562072754e-01
2.746449112892150879e-01 1.278527230024337769e-01 -3.705210611224174500e-02
-1.418330222368240356e-01 -1.820803135633468628e-01 -1.659427732229232788e-01
-4.722062125802040100e-02 -1.820803135633468628e-01 -6.085112690925598145e-01
4.446187242865562439e-02 -1.820803135633468628e-01 2.839159369468688965e-01
1.123069077730178833e-01 1.390226185321807861e-01 6.543720960617065430e-01
2.034572325646877289e-02 -8.283778093755245209e-03 -4.058406949043273926e-01
2.369369864463806152e-01 -4.856633022427558899e-02 4.056559205055236816e-01
2.746449112892150879e-01 1.968257278203964233e-01 6.466803699731826782e-02
1.524025201797485352e-01 -1.820803135633468628e-01 4.712326824665069580e-01
-6.246833130717277527e-02 2.429887950420379639e-01 3.451807200908660889e-01
-1.102484762668609619e-01 -1.205257978290319443e-02 -8.286257982254028320e-01
-5.502741411328315735e-02 2.309033460915088654e-02 -7.151448130607604980e-01
7.738672941923141479e-02 -1.820803135633468628e-01 4.875856339931488037e-01
4.329503700137138367e-02 7.296057790517807007e-02 -6.747600436210632324e-01
-2.282630801200866699e-01 -9.706696867942810059e-02 7.900507450103759766e-01
1.948934793472290039e-01 -1.007932052016258240e-01 6.876448392868041992e-01
-1.890671849250793457e-01 1.468388885259628296e-01 -5.708427727222442627e-02
-1.890671849250793457e-01 5.034493282437324524e-02 -1.885290145874023438e-01
2.746449112892150879e-01 -1.803611367940902710e-01 -2.094327807426452637e-01
-1.399220824241638184e-01 -5.937319248914718628e-02 -8.348970413208007812e-01
-1.913148164749145508e-01 5.480380728840827942e-02 -4.272866249084472656e-01
-4.267075657844543457e-02 1.451763063669204712e-01 -5.903677344322204590e-01
5.356349423527717590e-02 -1.820803135633468628e-01 -4.516501724720001221e-01
-1.732886582612991333e-01 -5.345742404460906982e-02 -7.543427348136901855e-01
2.152768224477767944e-01 -1.820803135633468628e-01 1.178442239761352539e-01
2.746449112892150879e-01 -8.617429994046688080e-03 -7.976358756422996521e-03
-2.270589768886566162e-01 -1.820803135633468628e-01 -6.832824945449829102e-01
-4.889174923300743103e-02 -1.820803135633468628e-01 -4.767198562622070312e-01
1.854572445154190063e-01 -1.820803135633468628e-01 4.116304814815521240e-01
-3.402696922421455383e-02 -1.205257978290319443e-02 8.453343510627746582e-01
1.428392827510833740e-01 -1.820803135633468628e-01 6.263800263404846191e-01
-1.890671849250793457e-01 -5.682943761348724365e-02 2.753830850124359131e-01
-1.890671849250793457e-01 2.040922492742538452e-01 1.174252554774284363e-01
-3.621563687920570374e-02 1.579746901988983154e-01 5.500457286834716797e-01
-1.490872055292129517e-01 -9.706696867942810059e-02 -8.848686814308166504e-01
2.746449112892150879e-01 -9.557745605707168579e-02 1.642006486654281616e-01
-2.157853841781616211e-01 -1.205257978290319443e-02 5.777117013931274414e-01
-1.890671849250793457e-01 8.412574231624603271e-02 3.054168820381164551e-01
1.550793647766113281e-01 2.429887950420379639e-01 4.640533626079559326e-01
-1.123679578304290771e-01 1.579746901988983154e-01 5.283988118171691895e-01
1.032981723546981812e-01 -1.820803135633468628e-01 -6.787521392107009888e-02
-1.433923095464706421e-01 -1.205257978290319443e-02 7.401843070983886719e-01
2.447058707475662231e-01 -1.128096655011177063e-01 -5.796850323677062988e-01
1.644966155290603638e-01 1.355164051055908203e-01 4.056559205055236816e-01
2.746449112892150879e-01 3.715413436293601990e-02 8.038248866796493530e-02
2.686836421489715576e-01 8.404233306646347046e-02 -4.835749864578247070e-01
-5.703599005937576294e-02 -7.125461008399724960e-03 -4.058406949043273926e-01
-1.788110435009002686e-01 -1.205257978290319443e-02 6.727061271667480469e-01
-1.260516494512557983e-01 5.567300692200660706e-02 4.056559205055236816e-01
-1.127224564552307129e-01 -1.820803135633468628e-01 3.482949733734130859e-02
-1.890671849250793457e-01 9.872226417064666748e-02 -1.037044972181320190e-01
1.492944061756134033e-01 1.117282286286354065e-01 -4.058406949043273926e-01
-2.140488624572753906e-01 7.296057790517807007e-02 -5.290603041648864746e-01
9.127043932676315308e-02 -2.682255394756793976e-02 8.103241324424743652e-01
1.277684792876243591e-02 -1.820803135633468628e-01 -6.803838610649108887e-01
-1.036777272820472717e-01 -1.820803135633468628e-01 -5.294441580772399902e-01
-1.319427788257598877e-01 2.429887950420379639e-01 -4.382205307483673096e-01
-7.953431457281112671e-03 2.322549074888229370e-01 5.215834975242614746e-01
2.746449112892150879e-01 7.644690573215484619e-02 -5.465560406446456909e-02
-9.945773333311080933e-02 2.308880686759948730e-01 -5.170809030532836914e-01
-1.734526455402374268e-01 -1.820803135633468628e-01 -3.138114698231220245e-03
-1.760593354701995850e-01 -1.024603471159934998e-01 -9.383049011230468750e-01
-1.368632465600967407e-01 1.579746901988983154e-01 -5.322821736335754395e-01
-3.693034127354621887e-02 2.429887950420379639e-01 -1.933414340019226074e-01
3.195070847868919373e-02 -1.820803135633468628e-01 -2.647182941436767578e-01
-1.598286628723144531e-01 -9.706696867942810059e-02 9.205368757247924805e-01
2.746449112892150879e-01 5.060087144374847412e-02 -3.485873457975685596e-04
-1.890671849250793457e-01 5.737363826483488083e-03 -1.285372376441955566e-01
1.278569847345352173e-01 -1.820803135633468628e-01 2.129613049328327179e-02
-2.078102380037307739e-01 -1.820803135633468628e-01 6.305583119392395020e-01
-1.890671849250793457e-01 -1.013958677649497986e-01 6.871071178466081619e-03
-1.317351907491683960e-01 2.429887950420379639e-01 -9.414239972829818726e-02
2.685481011867523193e-01 -7.093153893947601318e-02 -4.842404425144195557e-01
-1.956278979778289795e-01 2.429887950420379639e-01 4.957175850868225098e-01
1.267773360013961792e-01 -1.315663307905197144e-01 -7.760019302368164062e-01
1.263621747493743896e-01 7.386960089206695557e-02 -6.603834033012390137e-01
2.746449112892150879e-01 -6.518061459064483643e-02 -2.231998890638351440e-01
1.630204170942306519e-02 1.566220521926879883e-01 4.056559205055236816e-01
1.600263714790344238e-01 1.579746901988983154e-01 -5.904549956321716309e-01
-1.890671849250793457e-01 -1.649892479181289673e-01 -3.248712122440338135e-01
-1.446596235036849976e-01 -1.205257978290319443e-02 -6.982231140136718750e-01
-2.468955237418413162e-03 -1.590556651353836060e-01 -4.058406949043273926e-01
3.003029711544513702e-02 -1.820803135633468628e-01 -3.316012322902679443e-01
1.496915519237518311e-01 -4.489383846521377563e-02 -7.507066726684570312e-01
2.746449112892150879e-01 1.019242107868194580e-01 -2.802295386791229248e-01
-2.507654428482055664e-01 -5.492456257343292236e-02 -5.672971606254577637e-01
2.462110966444015503e-01 -1.820803135633468628e-01 -3.353671729564666748e-01
-2.693359851837158203e-01 -9.706696867942810059e-02 5.954599380493164062e-01
-1.890671849250793457e-01 -6.844807416200637817e-02 4.545436426997184753e-02
-2.856738567352294922e-01 -1.777741611003875732e-01 6.936629414558410645e-01
-1.540617197751998901e-01 -1.820803135633468628e-01 4.531754255294799805e-01
-4.281341563910245895e-03 -1.820803135633468628e-01 1.909244358539581299e-01
1.045759394764900208e-01 2.429887950420379639e-01 1.639105975627899170e-01
2.746449112892150879e-01 2.415214478969573975e-01 1.778909862041473389e-01
-1.890671849250793457e-01 -1.316940486431121826e-01 -3.661479353904724121e-01
-6.147684156894683838e-02 2.429887950420379639e-01 2.082347422838211060e-01
2.071392387151718140e-01 -6.181257590651512146e-02 6.655438542366027832e-01
-2.856738567352294922e-01 -1.270958632230758667e-01 -8.974215984344482422e-01
-1.992777287960052490e-01 -1.205257978290319443e-02 -6.891272068023681641e-01
-2.419404387474060059e-01 4.948521032929420471e-02 5.026503801345825195e-01
2.076605558395385742e-01 -1.771642863750457764e-01 -6.646991372108459473e-01
5.429337173700332642e-02 -1.820803135633468628e-01 6.593475341796875000e-01
1.553329546004533768e-02 7.296057790517807007e-02 6.649723052978515625e-01
2.746449112892150879e-01 1.095358561724424362e-02 -2.929103672504425049e-01
2.711386680603027344e-01 -1.820803135633468628e-01 -3.801159858703613281e-01
-1.890671849250793457e-01 -1.827356405556201935e-02 2.019568830728530884e-01
-1.890671849250793457e-01 1.757589429616928101e-01 -4.031174182891845703e-01
-1.249113380908966064e-01 2.429887950420379639e-01 -3.183213174343109131e-01
5.288669839501380920e-02 2.429887950420379639e-01 -3.010659813880920410e-01
-1.890671849250793457e-01 -1.762850284576416016e-01 3.851607143878936768e-01
-2.571141123771667480e-01 5.085215903818607330e-03 5.128733515739440918e-01
-6.389490514993667603e-02 -1.820803135633468628e-01 5.948030352592468262e-01
-1.824954897165298462e-01 -1.820803135633468628e-01 9.302660226821899414e-01
-1.890671849250793457e-01 -8.400460332632064819e-02 -4.034425616264343262e-01
-9.152959287166595459e-02 7.545936852693557739e-03 -4.058406949043273926e-01
1.102613583207130432e-01 -1.406446099281311035e-01 4.056559205055236816e-01
-1.890671849250793457e-01 2.176953554153442383e-01 2.863804399967193604e-01
-2.404509037733078003e-01 6.086079403758049011e-02 5.535197257995605469e-01
-2.078041732311248779e-01 -1.510965377092361450e-01 4.684174358844757080e-01
1.204710528254508972e-01 -1.820803135633468628e-01 -7.311441302299499512e-01
1.578832119703292847e-01 2.429887950420379639e-01 2.736721336841583252e-01
-1.803636848926544189e-01 1.579746901988983154e-01 5.537168979644775391e-01
-1.387678924947977066e-02 -5.961850658059120178e-02 -8.840033411979675293e-01
-1.899145096540451050e-01 -9.706696867942810059e-02 7.942574620246887207e-01
-1.584675014019012451e-01 -1.820803135633468628e-01 -7.765176296234130859e-01
-6.677268445491790771e-02 -1.820803135633468628e-01 -5.703237056732177734e-01
1.543769836425781250e-01 9.691946208477020264e-03 7.453474402427673340e-01
-4.209277685731649399e-03 -1.820803135633468628e-01 4.736090302467346191e-01
5.321085825562477112e-02 1.579746901988983154e-01 6.140404343605041504e-01
1.078992113471031189e-01 2.429887950420379639e-01 -3.627781867980957031e-01
2.746449112892150879e-01 -1.310751289129257202e-01 -1.422673910856246948e-01
2.746449112892150879e-01 2.428067773580551147e-01 3.279462456703186035e-01
1.619866192340850830e-01 -1.820803135633468628e-01 -1.008589416742324829e-01
1.102935895323753357e-01 -1.820803135633468628e-01 -6.091937422752380371e-01
-1.890671849250793457e-01 1.378292292356491089e-01 1.597474813461303711e-01
2.737510502338409424e-01 9.588332474231719971e-02 4.189926981925964355e-01
-1.890671849250793457e-01 -1.115449965000152588e-01 2.181638777256011963e-01
1.945067495107650757e-01 -1.820803135633468628e-01 5.469954609870910645e-01
-1.306669116020202637e-01 4.772118479013442993e-02 -6.395062208175659180e-01
-6.673572212457656860e-02 -1.820803135633468628e-01 -2.214307337999343872e-02
-2.224294990301132202e-01 -4.564029723405838013e-02 6.355204582214355469e-01
-1.890671849250793457e-01 -1.310876607894897461e-01 3.145601749420166016e-01
2.746449112892150879e-01 1.233616322278976440e-01 1.196357384324073792e-01
1.142325811088085175e-02 -4.295796900987625122e-02 8.688950538635253906e-01
-5.070505291223526001e-02 -1.048010587692260742e-01 9.008587598800659180e-01
-7.405150681734085083e-02 -1.820803135633468628e-01 5.530135631561279297e-01
-1.178220957517623901e-01 -1.820803135633468628e-01 -8.382383584976196289e-01
-9.241966903209686279e-02 -1.820803135633468628e-01 8.310184478759765625e-01
2.738590836524963379e-01 -8.055259287357330322e-02 -4.175688922405242920e-01
6.149825453758239746e-02 2.429887950420379639e-01 -3.783586025238037109e-01
1.651089489459991455e-01 -1.820803135633468628e-01 5.498864650726318359e-01
1.493616849184036255e-01 -1.570316404104232788e-01 4.056559205055236816e-01
-2.585579454898834229e-01 -9.706696867942810059e-02 -7.419330477714538574e-01
3.733091801404953003e-02 -4.743635654449462891e-02 -8.525760769844055176e-01
-3.041976690292358398e-01 -9.706696867942810059e-02 8.956728577613830566e-01
2.241687290370464325e-02 -1.820803135633468628e-01 -1.006276607513427734e-01
-1.624040752649307251e-01 -1.795507408678531647e-02 -4.058406949043273926e-01
-1.890671849250793457e-01 1.012644842267036438e-01 2.284617125988006592e-01
-2.588367648422718048e-02 2.429887950420379639e-01 -2.996555268764495850e-01
1.983210146427154541e-01 -1.820803135633468628e-01 2.661790847778320312e-01
2.746449112892150879e-01 5.302935838699340820e-02 3.738969862461090088e-01
-2.329687774181365967e-01 -1.820803135633468628e-01 -8.455399274826049805e-01
6.132005900144577026e-02 1.255901306867599487e-01 6.332531571388244629e-01
2.746449112892150879e-01 -7.984375953674316406e-02 3.088927567005157471e-01
2.746449112892150879e-01 -1.171480566263198853e-01 2.159310318529605865e-02
-2.225074172019958496e-01 -6.972885876893997192e-02 -4.872272312641143799e-01
6.403195858001708984e-02 -1.820803135633468628e-01 5.010299012064933777e-02
1.403776109218597412e-01 1.678886413574218750e-01 -5.024474263191223145e-01
-2.687058150768280029e-01 -5.330187827348709106e-02 5.237987637519836426e-01
3.907220065593719482e-02 2.731411904096603394e-02 8.090568184852600098e-01
1.385396569967269897e-01 2.429887950420379639e-01 -2.334475070238113403e-01
-5.155056715011596680e-02 -6.284055858850479126e-02 -9.014311432838439941e-01
2.746449112892150879e-01 -4.814717546105384827e-02 3.990349471569061279e-01
-1.890671849250793457e-01 -1.412872225046157837e-01 2.759252488613128662e-01
-6.588356941938400269e-02 -1.051639169454574585e-01 -4.058406949043273926e-01
9.115196019411087036e-02 1.102618351578712463e-01 6.456097960472106934e-01
2.293346635997295380e-02 2.429887950420379639e-01 1.791260838508605957e-01
-1.757645308971405029e-01 -1.820803135633468628e-01 8.450304716825485229e-02
2.249206155538558960e-01 -1.820803135633468628e-01 5.133956670761108398e-01
2.704353332519531250e-01 -9.564778953790664673e-02 4.684629440307617188e-01
-2.400523424148559570e-01 -1.820803135633468628e-01 -7.315129041671752930e-01
-1.890671849250793457e-01 2.044099383056163788e-02 2.840714156627655029e-01
2.679755687713623047e-01 2.429887950420379639e-01 4.690401852130889893e-01
-1.069545671343803406e-01 -3.103402070701122284e-02 9.143044948577880859e-01
-9.018170833587646484e-02 1.458748877048492432e-01 -5.879923701286315918e-01
-5.475915595889091492e-02 -1.205257978290319443e-02 7.566443085670471191e-01
2.746449112892150879e-01 -3.116292878985404968e-02 -3.864825144410133362e-02
-4.583954438567161560e-02 2.429887950420379639e-01 -3.504287078976631165e-02
1.774096786975860596e-01 -1.025973260402679443e-01 4.056559205055236816e-01
7.722370326519012451e-02 -1.820803135633468628e-01 1.122630611062049866e-01
-2.856738567352294922e-01 -1.439452022314071655e-01 -8.400914669036865234e-01
2.746449112892150879e-01 -9.314953535795211792e-02 3.837142288684844971e-01
-1.890671849250793457e-01 1.522740721702575684e-01 -1.382161080837249756e-01
8.919550478458404541e-02 -1.820803135633468628e-01 -3.878687322139739990e-01
-1.253113448619842529e-01 -1.820803135633468628e-01 -4.892803132534027100e-01
2.433494478464126587e-01 -1.098912209272384644e-01 5.834009051322937012e-01
-1.451188791543245316e-02 2.429887950420379639e-01 -2.573143541812896729e-01
5.504646804183721542e-03 2.429887950420379639e-01 4.470112919807434082e-01
-8.722524344921112061e-02 -1.820803135633468628e-01 -7.729895710945129395e-01
6.390684098005294800e-02 2.429887950420379639e-01 -4.361143112182617188e-01
-1.883857548236846924e-01 2.429887950420379639e-01 2.555238902568817139e-01
2.469182312488555908e-01 -1.540379226207733154e-01 -5.733199715614318848e-01
2.199575006961822510e-01 2.120639532804489136e-01 -5.024474263191223145e-01
-8.229433745145797729e-02 1.485508773475885391e-02 -6.878778338432312012e-01
-2.078249305486679077e-01 1.402141004800796509e-01 -4.686325192451477051e-01
2.693405151367187500e-01 2.621078863739967346e-02 -4.803474545478820801e-01
2.635271549224853516e-01 2.805157937109470367e-02 5.087358355522155762e-01
2.746449112892150879e-01 -6.708529591560363770e-02 1.937301754951477051e-01
2.746449112892150879e-01 1.643283665180206299e-01 2.822628319263458252e-01
3.142369166016578674e-02 -9.978987276554107666e-02 4.056559205055236816e-01
2.809090167284011841e-02 2.429887950420379639e-01 -2.479141652584075928e-01
2.746449112892150879e-01 1.480237543582916260e-01 -2.270890623331069946e-01
1.817898750305175781e-01 2.429887950420379639e-01 -3.674607276916503906e-01
-1.731477677822113037e-02 7.296057790517807007e-02 7.564386725425720215e-01
2.728496193885803223e-01 7.924316823482513428e-02 -4.058406949043273926e-01
-8.555506169795989990e-02 -1.820803135633468628e-01 4.845817983150482178e-01
-1.250554323196411133e-01 -1.205257978290319443e-02 -6.522154808044433594e-01
-9.781789034605026245e-02 -1.820803135633468628e-01 2.560414075851440430e-01
-1.890671849250793457e-01 2.213115394115447998e-01 -1.028002128005027771e-01
4.441119264811277390e-03 2.429887950420379639e-01 -4.708837568759918213e-01
2.200314551591873169e-01 2.429887950420379639e-01 -1.609436124563217163e-01
-9.022151678800582886e-02 -1.820803135633468628e-01 9.108921289443969727e-01
-2.451656162738800049e-01 -5.869513843208551407e-03 -5.250080823898315430e-01
9.812175482511520386e-02 2.429887950420379639e-01 -5.173340439796447754e-01
8.936423808336257935e-02 -1.820803135633468628e-01 -1.336169689893722534e-01
-1.890671849250793457e-01 4.570028930902481079e-02 -5.092329531908035278e-02
7.561416923999786377e-02 -4.037734493613243103e-02 -8.237186074256896973e-01
6.376728881150484085e-03 -1.739979684352874756e-01 8.721092939376831055e-01
-6.591200083494186401e-02 5.024825036525726318e-02 4.056559205055236816e-01
-2.204869091510772705e-01 -1.820803135633468628e-01 5.348586440086364746e-01
2.746449112892150879e-01 3.209906071424484253e-02 -7.875885814428329468e-02
-1.043317690491676331e-01 1.076816916465759277e-01 -4.058406949043273926e-01
-1.890671849250793457e-01 -1.816952824592590332e-01 2.176207154989242554e-01
8.251385390758514404e-02 1.579746901988983154e-01 -5.928597450256347656e-01
-1.890671849250793457e-01 2.293014712631702423e-02 -9.014999121427536011e-02
-1.890671849250793457e-01 2.073813974857330322e-01 -2.331195324659347534e-01
-1.343333423137664795e-01 -1.820803135633468628e-01 8.029467463493347168e-01
1.422142982482910156e-02 1.579746901988983154e-01 -5.868738889694213867e-01
-1.890671849250793457e-01 -3.100652620196342468e-02 6.329334806650876999e-03
2.746449112892150879e-01 2.023746669292449951e-01 3.173990845680236816e-01
2.097421288490295410e-01 -1.820803135633468628e-01 4.968098923563957214e-02
-9.775437414646148682e-02 2.429887950420379639e-01 1.938524544239044189e-01
1.309565752744674683e-01 -1.820803135633468628e-01 -3.553856313228607178e-01
2.660462446510791779e-02 2.429887950420379639e-01 1.317127645015716553e-01
-1.175121292471885681e-01 -1.820803135633468628e-01 -4.180883467197418213e-01
1.069409102201461792e-01 7.296057790517807007e-02 6.930885314941406250e-01
1.383908390998840332e-01 2.308880686759948730e-01 5.074789524078369141e-01
6.853251159191131592e-02 -1.820803135633468628e-01 7.787480950355529785e-01
2.520245015621185303e-01 -8.110075443983078003e-02 -5.586306452751159668e-01
-4.445846751332283020e-02 7.296057790517807007e-02 6.291715502738952637e-01
-1.151414662599563599e-01 -1.820803135633468628e-01 1.595977097749710083e-01
-1.890671849250793457e-01 1.146609783172607422e-01 -3.854563832283020020e-01
-2.052413672208786011e-01 2.222840785980224609e-01 4.645822942256927490e-01
-1.890671849250793457e-01 -1.438897997140884399e-01 1.482287496328353882e-01
1.530357003211975098e-01 -1.820803135633468628e-01 -2.232728749513626099e-01
2.365763485431671143e-02 2.429887950420379639e-01 4.255704954266548157e-02
1.205326616764068604e-01 -1.820803135633468628e-01 -6.562999486923217773e-01
-1.438861489295959473e-01 -1.782352924346923828e-01 -9.329256415367126465e-01
1.937889307737350464e-02 2.143085598945617676e-01 5.022627115249633789e-01
-2.242700159549713135e-01 8.320344239473342896e-02 5.149616003036499023e-01
2.285993993282318115e-01 -2.799793332815170288e-02 6.231287717819213867e-01
-1.890671849250793457e-01 1.819363087415695190e-01 -2.069891244173049927e-01
-1.296138018369674683e-01 -1.820803135633468628e-01 8.918121457099914551e-01
-1.890671849250793457e-01 1.276327967643737793e-01 1.247704327106475830e-01
-1.890671849250793457e-01 6.939651817083358765e-02 8.690234273672103882e-02
-2.694996893405914307e-01 -9.706696867942810059e-02 7.989675402641296387e-01
5.890293791890144348e-02 -1.617616862058639526e-01 -4.058406949043273926e-01
-2.298254817724227905e-01 -1.820803135633468628e-01 7.764371633529663086e-01
1.977636516094207764e-01 8.359397202730178833e-02 4.056559205055236816e-01
2.566053532063961029e-02 1.280396711081266403e-03 4.056559205055236816e-01
1.262408494949340820e-01 7.296057790517807007e-02 7.239185571670532227e-01
-1.890671849250793457e-01 3.643089532852172852e-02 -3.091135323047637939e-01
-9.316659718751907349e-02 7.237762957811355591e-02 4.056559205055236816e-01
-2.795908451080322266e-01 -1.055901721119880676e-01 -5.187330842018127441e-01
1.671734601259231567e-01 -6.726633757352828979e-02 -7.281602025032043457e-01
3.282276168465614319e-02 -1.505060046911239624e-01 4.056559205055236816e-01
6.524240970611572266e-02 2.429887950420379639e-01 -7.197151333093643188e-02
-1.894987188279628754e-02 2.429887950420379639e-01 -3.775405585765838623e-01
-3.049953877925872803e-01 -1.053768098354339600e-01 -6.647721529006958008e-01
-3.936548531055450439e-02 2.003016173839569092e-01 -5.024474263191223145e-01
-3.866309300065040588e-02 7.296057790517807007e-02 -7.138433456420898438e-01
2.746449112892150879e-01 -4.727075621485710144e-02 -4.032008051872253418e-01
2.234570682048797607e-01 1.306643150746822357e-02 4.056559205055236816e-01
-2.086212486028671265e-01 -9.706696867942810059e-02 -8.575183749198913574e-01
2.706125676631927490e-01 1.761579811573028564e-01 4.658164381980895996e-01
-1.827428787946701050e-01 1.037498489022254944e-01 4.056559205055236816e-01
1.652217507362365723e-01 -1.471936106681823730e-01 -4.058406949043273926e-01
-1.890671849250793457e-01 -2.004231885075569153e-02 -1.557188630104064941e-01
-1.012966260313987732e-01 2.429887950420379639e-01 4.293341636657714844e-01
-2.237924784421920776e-01 -6.748217344284057617e-02 -6.324151158332824707e-01
1.010422185063362122e-01 2.429887950420379639e-01 -4.699671566486358643e-01
2.300989180803298950e-01 2.429887950420379639e-01 -4.222230315208435059e-01
-2.185874432325363159e-01 -1.820803135633468628e-01 8.528179526329040527e-01
2.292875498533248901e-01 1.613757014274597168e-01 5.022627115249633789e-01
-2.856738567352294922e-01 -1.724139451980590820e-01 -9.147621989250183105e-01
2.746449112892150879e-01 2.402948886156082153e-01 1.053681299090385437e-01
-7.446099817752838135e-02 -1.345242839306592941e-03 6.955246329307556152e-01
-1.769427657127380371e-01 2.429887950420379639e-01 2.049512565135955811e-01
1.577163785696029663e-01 -1.820803135633468628e-01 7.129259109497070312e-01
-3.049953877925872803e-01 -1.036320328712463379e-01 -6.134762763977050781e-01
-9.561309218406677246e-02 1.579746901988983154e-01 -5.320888161659240723e-01
1.251744627952575684e-01 -1.476607322692871094e-01 -4.058406949043273926e-01
-1.523195058107376099e-01 -1.820803135633468628e-01 5.781287550926208496e-01
1.204293295741081238e-01 -1.820803135633468628e-01 6.535758376121520996e-01
1.250493526458740234e-01 -5.700555816292762756e-02 7.777272462844848633e-01
2.380962818861007690e-01 4.200068488717079163e-02 5.985130667686462402e-01
-1.664525121450424194e-01 1.858028769493103027e-02 6.035340428352355957e-01
-1.123148798942565918e-01 -1.205257978290319443e-02 6.712473034858703613e-01
-3.538434579968452454e-02 -1.205257978290319443e-02 -7.744891643524169922e-01
1.883075386285781860e-01 -1.820803135633468628e-01 3.497903048992156982e-01
5.736736580729484558e-02 -1.820803135633468628e-01 -6.891375780105590820e-01
-4.085272178053855896e-02 -1.820803135633468628e-01 8.901315331459045410e-01
7.713364064693450928e-02 -1.820803135633468628e-01 3.036092221736907959e-01
-2.482483237981796265e-01 -1.820803135633468628e-01 9.351181983947753906e-01
1.273394376039505005e-01 2.429887950420379639e-01 3.249883279204368591e-02
1.575400680303573608e-01 -1.820803135633468628e-01 -7.273146510124206543e-01
5.754841864109039307e-02 2.429887950420379639e-01 -2.247382998466491699e-01
-6.892723590135574341e-02 7.296057790517807007e-02 -6.780472993850708008e-01
2.583782076835632324e-01 -6.877107545733451843e-03 -5.342272520065307617e-01
-1.890671849250793457e-01 1.315703541040420532e-01 -2.508171275258064270e-02
-1.354470998048782349e-01 -1.820803135633468628e-01 4.171187281608581543e-01
2.746449112892150879e-01 2.194574922323226929e-01 -3.882668614387512207e-01
-1.573451906442642212e-01 2.016296237707138062e-01 -5.024474263191223145e-01
2.480803579092025757e-01 2.429887950420379639e-01 4.309976994991302490e-01
1.011992245912551880e-02 7.296057790517807007e-02 -6.493945717811584473e-01
2.075900882482528687e-02 -1.820803135633468628e-01 1.084279119968414307e-01
-1.883992552757263184e-02 -1.096624955534934998e-01 4.056559205055236816e-01
-1.890671849250793457e-01 1.842984557151794434e-01 2.385263741016387939e-01
-1.621879488229751587e-01 7.296057790517807007e-02 5.716632604598999023e-01
1.770542263984680176e-01 1.579746901988983154e-01 6.899870634078979492e-01
-1.890671849250793457e-01 1.171975284814834595e-01 -2.603172659873962402e-01
-2.328737080097198486e-01 5.941148102283477783e-02 -4.964548945426940918e-01
-1.890671849250793457e-01 -4.341484978795051575e-02 -4.056530296802520752e-01
8.628927916288375854e-02 -9.096608310937881470e-02 4.056559205055236816e-01
-1.689056307077407837e-01 2.429887950420379639e-01 -1.794757544994354248e-01
-2.056448757648468018e-01 1.579746901988983154e-01 -5.073129534721374512e-01
2.276420295238494873e-01 -1.259561926126480103e-01 4.056559205055236816e-01
2.746449112892150879e-01 1.162970289587974548e-01 2.481749057769775391e-01
-1.820641905069351196e-01 -1.205257978290319443e-02 -6.211048960685729980e-01
-2.176662683486938477e-01 -1.205257978290319443e-02 -5.815997719764709473e-01
2.746449112892150879e-01 2.662311308085918427e-02 2.314096391201019287e-01
-1.336304843425750732e-02 -7.645212858915328979e-02 8.835844397544860840e-01
4.218978434801101685e-02 2.429887950420379639e-01 4.726393222808837891e-01
-1.957122534513473511e-01 -1.205257978290319443e-02 7.355121374130249023e-01
-1.906807869672775269e-01 2.410702705383300781e-01 4.239131808280944824e-01
-2.693778872489929199e-01 -1.303401738405227661e-01 -9.463192820549011230e-01
-2.856738567352294922e-01 -1.782895177602767944e-01 8.926206827163696289e-01
-5.032065324485301971e-03 -1.820803135633468628e-01 6.329431533813476562e-01
2.746449112892150879e-01 9.446908533573150635e-02 3.028598800301551819e-02
7.530707120895385742e-02 7.296057790517807007e-02 8.213546872138977051e-01
4.647330194711685181e-02 -1.820803135633468628e-01 5.177720189094543457e-01
1.779443025588989258e-01 2.429887950420379639e-01 -7.541016489267349243e-02
-4.282052069902420044e-02 1.579746901988983154e-01 5.842909812927246094e-01
1.026810929179191589e-01 -3.878299891948699951e-02 -8.008764386177062988e-01
-1.633187979459762573e-01 7.296057790517807007e-02 -5.973830819129943848e-01
1.354050189256668091e-01 -1.820803135633468628e-01 3.154635131359100342e-01
1.048441678285598755e-01 -1.820803135633468628e-01 5.160791277885437012e-01
-2.784043848514556885e-01 -9.706696867942810059e-02 7.032802104949951172e-01
7.366723567247390747e-02 2.429887950420379639e-01 3.914648666977882385e-03
-1.948785036802291870e-01 -1.820803135633468628e-01 -7.686463594436645508e-01
2.746449112892150879e-01 2.027689963579177856e-01 -9.907312691211700439e-02
-1.395135372877120972e-01 -1.205257978290319443e-02 6.413708329200744629e-01
2.492159157991409302e-01 1.420397460460662842e-01 -4.058406949043273926e-01
2.746449112892150879e-01 -1.597081869840621948e-01 -4.027217626571655273e-02
1.706967651844024658e-01 1.010692194104194641e-01 6.785573959350585938e-01
2.746449112892150879e-01 -1.393129583448171616e-02 6.861256808042526245e-02
2.663117833435535431e-02 9.477052092552185059e-02 -4.058406949043273926e-01
8.421719819307327271e-02 6.372814625501632690e-02 -8.164587616920471191e-01
-1.929114311933517456e-01 1.245758682489395142e-01 -4.353152215480804443e-01
7.900571823120117188e-02 -1.488794237375259399e-01 8.206732273101806641e-01
2.746449112892150879e-01 -8.053211867809295654e-02 -1.157256066799163818e-01
1.391311436891555786e-01 2.429887950420379639e-01 1.654821932315826416e-01
2.329445183277130127e-01 7.427445147186517715e-03 6.133314371109008789e-01
-5.648241937160491943e-02 2.429887950420379639e-01 1.261382400989532471e-01
3.336684405803680420e-02 -1.820803135633468628e-01 -2.171277105808258057e-01
1.038744822144508362e-01 7.644026726484298706e-02 4.056559205055236816e-01
2.746449112892150879e-01 -4.068066924810409546e-02 3.091970384120941162e-01
1.931682974100112915e-01 -1.820803135633468628e-01 5.831155776977539062e-01
-1.064749434590339661e-01 -1.205257978290319443e-02 -8.911314010620117188e-01
1.162084117531776428e-01 7.296057790517807007e-02 -7.581409215927124023e-01
-1.890671849250793457e-01 6.590260565280914307e-02 2.185007557272911072e-02
-1.934127807617187500e-01 -1.287360787391662598e-01 -4.370110034942626953e-01
7.279422134160995483e-02 -1.062045022845268250e-01 -8.260977864265441895e-01
2.702893316745758057e-01 -2.716189809143543243e-02 4.706354737281799316e-01
-1.106067746877670288e-01 -6.367498636245727539e-02 4.056559205055236816e-01
1.340959668159484863e-01 2.429887950420379639e-01 -1.131871640682220459e-01
-1.930319219827651978e-01 -1.030499339103698730e-01 4.357049167156219482e-01
-2.204435914754867554e-01 -9.706696867942810059e-02 -7.428448796272277832e-01
5.067054554820060730e-02 1.579746901988983154e-01 -5.329504013061523438e-01
2.189717143774032593e-01 -1.597878038883209229e-01 6.421575546264648438e-01
-2.043386995792388916e-01 -1.820803135633468628e-01 -9.336346983909606934e-01
-1.890671849250793457e-01 -9.619387239217758179e-02 -1.744064539670944214e-01
-1.890671849250793457e-01 1.315485388040542603e-01 2.682075798511505127e-01
1.849425435066223145e-01 1.579746901988983154e-01 5.951537489891052246e-01
2.455987632274627686e-01 -1.649585366249084473e-01 5.769306421279907227e-01
-1.034255921840667725e-01 -1.425987035036087036e-01 9.205274581909179688e-01
2.545193731784820557e-01 2.429887950420379639e-01 -2.254530042409896851e-01
-3.432460501790046692e-02 -1.820803135633468628e-01 7.112348675727844238e-01
-1.890671849250793457e-01 5.395638570189476013e-02 2.783509194850921631e-01
-1.414642930030822754e-01 1.546428650617599487e-01 5.701750516891479492e-01
1.157676428556442261e-01 2.429887950420379639e-01 4.841865301132202148e-01
-1.957278996706008911e-01 -1.820803135633468628e-01 8.129119277000427246e-01
1.126955375075340271e-01 -1.820803135633468628e-01 4.749910533428192139e-01
-2.417561709880828857e-01 1.579746901988983154e-01 -5.275778174400329590e-01
6.749223452061414719e-03 -1.291283369064331055e-01 8.718723654747009277e-01
2.571611106395721436e-01 -1.041368674486875534e-02 5.400236845016479492e-01
-1.547138690948486328e-01 -1.820803135633468628e-01 -1.264499872922897339e-01
1.967844814062118530e-01 -1.820803135633468628e-01 -3.778562247753143311e-01
-1.972831934690475464e-01 -9.706696867942810059e-02 -7.852988243103027344e-01
1.889919340610504150e-01 1.388453692197799683e-01 -4.058406949043273926e-01
