1.287356615066528320e-01 5.337781906127929688e-01 2.515937983989715576e-01
5.595573782920837402e-01 -3.684941828250885010e-01 -4.532925486564636230e-01
1.207051798701286316e-02 -3.332272171974182129e-02 -2.131785303354263306e-01
-2.877469956874847412e-01 1.119962111115455627e-01 -1.820358447730541229e-02
1.225963816978037357e-03 2.049899995326995850e-01 5.987317562103271484e-01
-5.696125030517578125e-01 -3.332272171974182129e-02 -8.966375142335891724e-02
-5.353400111198425293e-01 -2.637622356414794922e-01 -6.685007810592651367e-01
-6.937880516052246094e-01 -3.115302920341491699e-01 -2.856331877410411835e-02
-2.770381569862365723e-01 1.119962111115455627e-01 -4.180226325988769531e-01
-6.937880516052246094e-01 -7.313700020313262939e-02 -4.962700307369232178e-01
5.837956070899963379e-01 3.503269553184509277e-01 2.456398010253906250e-01
7.368627935647964478e-02 4.163056910037994385e-01 5.595086812973022461e-01
2.723448537290096283e-02 -3.608939349651336670e-01 -4.279664754867553711e-01
-1.988116651773452759e-02 -2.787272632122039795e-02 -3.324442207813262939e-01
5.434270501136779785e-01 -4.032792448997497559e-01 6.011200547218322754e-01
-3.881900012493133545e-01 1.119962111115455627e-01 -2.001836448907852173e-01
2.115471810102462769e-01 -4.753278102725744247e-03 -6.376641243696212769e-02
-7.723852246999740601e-02 1.119962111115455627e-01 9.258961677551269531e-02
2.577614188194274902e-01 1.889182925224304199e-01 6.635888814926147461e-01
2.144382297992706299e-01 3.996349275112152100e-01 6.485390663146972656e-02
4.791808500885963440e-02 -3.332272171974182129e-02 2.430209517478942871e-01
2.766983024775981903e-02 2.821088135242462158e-01 -4.893523156642913818e-01
2.115471810102462769e-01 4.322125017642974854e-01 2.535489797592163086e-01
-6.967108845710754395e-01 4.078578948974609375e-02 5.704798102378845215e-01
2.323578298091888428e-01 -3.608939349651336670e-01 -3.131128549575805664e-01
6.354472041130065918e-02 3.867284655570983887e-01 6.501982361078262329e-02
5.573279857635498047e-01 -1.016402766108512878e-01 -6.685007810592651367e-01
-1.060948818922042847e-01 -2.787272632122039795e-02 -7.785432040691375732e-02
3.576619923114776611e-01 4.625775814056396484e-01 5.517604351043701172e-01
2.144382297992706299e-01 6.018452346324920654e-02 4.211540222167968750e-01
5.837956070899963379e-01 -8.522084355354309082e-02 -6.448819302022457123e-03
-6.951381564140319824e-01 1.000181734561920166e-01 2.335966825485229492e-01
-6.245992779731750488e-01 -3.332272171974182129e-02 4.939518123865127563e-02
-6.847055554389953613e-01 1.284553576260805130e-02 -6.457090973854064941e-01
-1.080820709466934204e-01 1.119962111115455627e-01 -1.502219438552856445e-01
5.837956070899963379e-01 -2.897072732448577881e-01 6.380352377891540527e-01
5.837956070899963379e-01 3.086499273777008057e-01 -3.605183064937591553e-01
-6.510370969772338867e-01 1.119962111115455627e-01 -4.217859506607055664e-01
5.371065139770507812e-01 4.625775814056396484e-01 8.433528989553451538e-02
-6.937880516052246094e-01 -2.738302648067474365e-01 -5.932149291038513184e-01
-6.937880516052246094e-01 -9.932146966457366943e-02 -5.158799700438976288e-03
-6.937880516052246094e-01 -2.612059712409973145e-01 3.352786004543304443e-01
6.136003136634826660e-02 -3.608939349651336670e-01 1.323092281818389893e-01
7.425753027200698853e-02 2.686718404293060303e-01 6.635888814926147461e-01
5.092122554779052734e-01 -4.028133451938629150e-01 3.266818821430206299e-01
-5.534424185752868652e-01 1.119962111115455627e-01 -2.566517293453216553e-01
-2.945166528224945068e-01 -3.608939349651336670e-01 -8.687950670719146729e-03
5.189046859741210938e-01 3.890661150217056274e-02 6.635888814926147461e-01
5.837956070899963379e-01 -7.903440855443477631e-03 4.031986296176910400e-01
2.964976429939270020e-01 -3.997305035591125488e-01 5.393884778022766113e-01
-1.584034040570259094e-02 1.446304172277450562e-01 1.969020813703536987e-01
5.837956070899963379e-01 1.138571128249168396e-01 -3.737198412418365479e-01
1.290068775415420532e-01 5.338874459266662598e-01 -3.145723044872283936e-01
-6.937880516052246094e-01 -3.170242905616760254e-01 6.341109275817871094e-01
-6.936390399932861328e-01 -3.390986919403076172e-01 4.758526980876922607e-01
5.058979392051696777e-01 -3.608939349651336670e-01 2.218655496835708618e-01
-3.061504364013671875e-01 -3.608939349651336670e-01 -2.886709868907928467e-01
-6.868305802345275879e-01 -1.015627905726432800e-01 -6.611578464508056641e-01
5.171869993209838867e-01 3.029612004756927490e-01 -6.685007810592651367e-01
2.115471810102462769e-01 7.943382114171981812e-02 -5.235621929168701172e-01
-2.875900268554687500e-01 -3.608939349651336670e-01 5.052362084388732910e-01
4.954314529895782471e-01 4.625775814056396484e-01 3.740654885768890381e-01
4.098133444786071777e-01 4.625775814056396484e-01 -3.391244411468505859e-01
2.911039888858795166e-01 -2.650696933269500732e-01 6.635888814926147461e-01
-1.027290988713502884e-02 1.119962111115455627e-01 4.921191334724426270e-01
1.573462337255477905e-01 -3.608939349651336670e-01 -5.964556932449340820e-01
5.837956070899963379e-01 3.735706508159637451e-01 4.761159718036651611e-01
4.560037255287170410e-01 -3.608939349651336670e-01 6.055917739868164062e-01
-3.779540657997131348e-01 -3.332272171974182129e-02 -3.584170937538146973e-01
5.837956070899963379e-01 3.999398946762084961e-01 3.715923801064491272e-02
1.196750104427337646e-01 -3.332272171974182129e-02 3.517576158046722412e-01
-4.498113393783569336e-01 1.119962111115455627e-01 -6.305841207504272461e-01
-2.208035439252853394e-01 -3.608939349651336670e-01 -1.220584362745285034e-01
-4.741916358470916748e-01 -2.787272632122039795e-02 -5.983721613883972168e-01
-6.183552145957946777e-01 1.119962111115455627e-01 3.833129107952117920e-01
-1.760974079370498657e-01 1.119962111115455627e-01 1.776968836784362793e-01
4.157185927033424377e-02 3.226502537727355957e-01 -3.384767174720764160e-01
1.595209836959838867e-01 -3.608939349651336670e-01 -4.357186853885650635e-01
-3.910443186759948730e-01 -3.332272171974182129e-02 2.743444405496120453e-02
5.837956070899963379e-01 -3.028243780136108398e-01 -3.833739086985588074e-02
-2.334735393524169922e-01 -3.306162655353546143e-01 -6.685007810592651367e-01
5.151234865188598633e-01 -4.032792448997497559e-01 4.429084956645965576e-01
2.115471810102462769e-01 2.735587954521179199e-01 5.912417769432067871e-01
2.110335379838943481e-01 5.052649378776550293e-01 -5.569058060646057129e-01
-3.796579241752624512e-01 1.119962111115455627e-01 -4.684085249900817871e-01
-4.099762737751007080e-01 1.099097728729248047e-01 6.490898132324218750e-01
5.837956070899963379e-01 -7.148581743240356445e-02 -3.397712111473083496e-01
4.536680281162261963e-01 -4.032792448997497559e-01 -5.428190827369689941e-01
-6.493044495582580566e-01 -3.608939349651336670e-01 -2.677162587642669678e-01
-5.812969803810119629e-01 1.119962111115455627e-01 -5.105037689208984375e-01
2.360933721065521240e-01 -4.032792448997497559e-01 6.234756112098693848e-01
3.320030868053436279e-01 4.625775814056396484e-01 -8.995375782251358032e-02
-3.472521901130676270e-01 -3.608939349651336670e-01 -3.747461140155792236e-01
-4.207249358296394348e-02 1.119962111115455627e-01 -1.719178259372711182e-01
-1.558907926082611084e-01 -2.787272632122039795e-02 -6.011479496955871582e-01
-1.432017982006072998e-01 -3.587112128734588623e-01 6.473919749259948730e-01
-9.489069133996963501e-02 -3.332272171974182129e-02 3.757590800523757935e-02
5.837956070899963379e-01 8.943182229995727539e-02 3.133214116096496582e-01
5.303100347518920898e-01 4.202160537242889404e-01 6.635888814926147461e-01
-5.547359585762023926e-02 -3.332272171974182129e-02 5.977670550346374512e-01
-6.967108845710754395e-01 4.533783998340368271e-03 4.616566896438598633e-01
1.973163932561874390e-01 2.907024696469306946e-02 6.525432467460632324e-01
1.573561578989028931e-01 1.119962111115455627e-01 6.193582713603973389e-02
-6.937880516052246094e-01 -1.634712219238281250e-01 2.632673382759094238e-01
-6.967108845710754395e-01 6.922857463359832764e-02 4.684382677078247070e-01
-2.974464595317840576e-01 -3.332272171974182129e-02 -2.610489130020141602e-01
-2.919345498085021973e-01 -2.787272632122039795e-02 -4.538797140121459961e-01
-1.696357429027557373e-01 -2.787272632122039795e-02 -2.849443852901458740e-01
9.914350509643554688e-02 4.905443787574768066e-01 3.363128006458282471e-01
-4.701481163501739502e-01 1.119962111115455627e-01 1.030002161860466003e-01
5.837956070899963379e-01 2.887483239173889160e-01 -1.630141437053680420e-01
2.428739517927169800e-01 4.625775814056396484e-01 -3.266594186425209045e-02
1.716982126235961914e-01 1.119962111115455627e-01 -1.120976954698562622e-01
2.048827894032001495e-02 1.119962111115455627e-01 -6.053305864334106445e-01
2.459387853741645813e-02 2.731375992298126221e-01 -6.755836308002471924e-02
1.616142690181732178e-01 -3.332272171974182129e-02 -2.560665607452392578e-01
5.742878094315528870e-02 -2.787272632122039795e-02 -1.043593883514404297e-01
-2.180674672126770020e-01 -2.787272632122039795e-02 1.930920332670211792e-01
-1.556901633739471436e-02 1.488265395164489746e-01 -8.709170669317245483e-02
-2.999292016029357910e-01 4.300995916128158569e-02 -6.595901250839233398e-01
3.981090188026428223e-01 -3.608939349651336670e-01 1.003585234284400940e-01
-3.268637359142303467e-01 -3.332272171974182129e-02 -1.137578189373016357e-01
5.837956070899963379e-01 -7.354830950498580933e-02 5.704936981201171875e-01
-5.714981555938720703e-01 1.119962111115455627e-01 4.965987801551818848e-01
-2.397206276655197144e-01 -3.608939349651336670e-01 -5.716164112091064453e-01
-5.899075865745544434e-01 -3.332272171974182129e-02 5.833812952041625977e-01
5.837956070899963379e-01 -1.616839468479156494e-01 -3.563188314437866211e-01
-2.642321027815341949e-02 -3.332272171974182129e-02 5.470400303602218628e-02
2.863223254680633545e-01 -3.608939349651336670e-01 -5.202380418777465820e-01
1.964212507009506226e-01 1.189830377697944641e-01 5.946434736251831055e-01
2.144382297992706299e-01 2.478601783514022827e-01 -3.238594830036163330e-01
-2.747670412063598633e-01 -3.608939349651336670e-01 7.974506169557571411e-02
2.144382297992706299e-01 1.320850998163223267e-01 4.955476820468902588e-01
2.664773166179656982e-01 -3.608939349651336670e-01 2.910214960575103760e-01
-2.159523218870162964e-01 -3.608939349651336670e-01 5.056660622358322144e-02
-1.421097517013549805e-01 -1.046356484293937683e-01 6.635888814926147461e-01
-5.246709585189819336e-01 -3.608939349651336670e-01 2.447314374148845673e-02
4.811798334121704102e-01 4.764495790004730225e-02 -6.685007810592651367e-01
-1.906381547451019287e-01 -2.787272632122039795e-02 -1.372588723897933960e-01
3.506498411297798157e-02 3.036745488643646240e-01 -1.585146188735961914e-01
-4.824385941028594971e-01 -3.608939349651336670e-01 -5.703159570693969727e-01
-2.861673533916473389e-01 -3.608939349651336670e-01 1.563477516174316406e-01
-5.955694317817687988e-01 -3.332272171974182129e-02 2.358986139297485352e-01
2.115471810102462769e-01 3.984387516975402832e-01 -2.317439019680023193e-01
2.950432002544403076e-01 4.625775814056396484e-01 9.735619276762008667e-02
-4.745532572269439697e-01 1.119962111115455627e-01 -2.441098839044570923e-01
-6.028845310211181641e-01 -1.989229917526245117e-01 6.635888814926147461e-01
-6.897445321083068848e-01 -1.950116157531738281e-01 -6.574689745903015137e-01
-1.232395768165588379e-01 1.100295931100845337e-01 -6.446788311004638672e-01
-4.892042875289916992e-01 -3.608939349651336670e-01 -4.187697172164916992e-01
5.837956070899963379e-01 -1.514847576618194580e-01 -2.432346194982528687e-01
-4.669451117515563965e-01 -3.332272171974182129e-02 6.063140034675598145e-01
1.533871591091156006e-01 -1.992011517286300659e-01 -6.685007810592651367e-01
-3.700985759496688843e-02 -1.097183525562286377e-01 6.635888814926147461e-01
-5.392016842961311340e-02 -2.787272632122039795e-02 3.473266363143920898e-01
4.363495111465454102e-01 -3.608939349651336670e-01 -4.263192713260650635e-01
-6.146802902221679688e-01 1.119962111115455627e-01 1.438198089599609375e-01
-5.072341561317443848e-01 -5.721629783511161804e-02 -6.685007810592651367e-01
1.394564360380172729e-01 -1.709075123071670532e-01 6.635888814926147461e-01
5.639595389366149902e-01 -3.600186705589294434e-01 -2.749558091163635254e-01
5.974759534001350403e-02 3.756540119647979736e-01 -4.740197956562042236e-01
-2.845668494701385498e-01 1.119962111115455627e-01 2.307652384042739868e-01
-2.798577398061752319e-02 -3.608939349651336670e-01 -2.016718983650207520e-01
2.144382297992706299e-01 1.679854393005371094e-01 2.752786278724670410e-01
-7.261987775564193726e-02 -3.608939349651336670e-01 1.720558404922485352e-01
-6.937880516052246094e-01 -2.640036642551422119e-01 5.703198313713073730e-01
2.144382297992706299e-01 8.669554442167282104e-02 -2.187818139791488647e-01
1.596451699733734131e-01 -3.608939349651336670e-01 5.597163438796997070e-01
3.251132071018218994e-01 -2.223365902900695801e-01 -6.685007810592651367e-01
5.837956070899963379e-01 -1.611981093883514404e-01 -5.047176480293273926e-01
-4.911892712116241455e-01 8.669753372669219971e-02 6.635888814926147461e-01
2.144382297992706299e-01 -1.068164221942424774e-02 -5.075878500938415527e-01
-3.548315465450286865e-01 -1.601878181099891663e-02 6.633474230766296387e-01
5.837956070899963379e-01 2.234311997890472412e-01 6.189522147178649902e-01
3.471716120839118958e-02 3.026601672172546387e-01 2.583415806293487549e-01
-6.937880516052246094e-01 -7.031051814556121826e-02 4.115409851074218750e-01
1.136425286531448364e-01 5.234825611114501953e-01 6.112149357795715332e-01
-8.520686998963356018e-03 -3.332272171974182129e-02 -4.642348885536193848e-01
-6.937880516052246094e-01 -1.210044249892234802e-01 5.758317708969116211e-01
-3.415744006633758545e-01 -3.608939349651336670e-01 6.155783534049987793e-01
5.837956070899963379e-01 2.669014334678649902e-01 5.221523642539978027e-01
-1.547442972660064697e-01 -3.608939349651336670e-01 -4.153501093387603760e-01
-2.784618437290191650e-01 -3.332272171974182129e-02 -5.159222483634948730e-01
3.362780511379241943e-01 -3.608939349651336670e-01 -4.490314722061157227e-01
3.733442425727844238e-01 4.625775814056396484e-01 4.061244726181030273e-01
3.187995553016662598e-01 -3.608939349651336670e-01 -6.280189156532287598e-01
-6.074456572532653809e-01 -3.332272171974182129e-02 -1.740551181137561798e-02
-4.509359598159790039e-01 -2.787272632122039795e-02 4.532000720500946045e-01
5.837956070899963379e-01 -1.368039250373840332e-01 6.329078674316406250e-01
2.144382297992706299e-01 1.469321399927139282e-01 -4.703994989395141602e-01
3.047515638172626495e-02 1.119962111115455627e-01 -3.984965384006500244e-01
5.837956070899963379e-01 -2.545009255409240723e-01 -1.220713555812835693e-01
2.115471810102462769e-01 4.000979065895080566e-01 4.166942536830902100e-01
3.709717094898223877e-02 1.119962111115455627e-01 6.763587705790996552e-03
-4.445319622755050659e-02 -3.332272171974182129e-02 -1.462599039077758789e-01
3.435553237795829773e-02 3.016051054000854492e-01 4.705822169780731201e-01
-8.512655645608901978e-02 -2.787272632122039795e-02 2.770371139049530029e-01
3.129488602280616760e-02 -3.608939349651336670e-01 -6.155406832695007324e-01
-4.316244721412658691e-01 -2.879537343978881836e-01 -6.685007810592651367e-01
-6.967108845710754395e-01 1.058846828527748585e-03 -2.097460180521011353e-01
-6.967108845710754395e-01 7.854434847831726074e-02 -5.639102682471275330e-02
5.837956070899963379e-01 1.227705255150794983e-01 5.140773057937622070e-01
5.368382334709167480e-01 -3.976084291934967041e-01 -6.442804336547851562e-01
1.037701964378356934e-01 5.040379762649536133e-01 -6.890346109867095947e-02
-5.296423435211181641e-01 -3.332272171974182129e-02 8.668371289968490601e-02
4.645586907863616943e-01 -2.578370571136474609e-01 -6.685007810592651367e-01
-6.119769811630249023e-01 -3.608939349651336670e-01 -3.237392306327819824e-01
1.714081168174743652e-01 1.442471295595169067e-01 -6.595901250839233398e-01
6.586848944425582886e-02 -2.787272632122039795e-02 -3.768344223499298096e-01
3.840640187263488770e-01 -4.032792448997497559e-01 -4.681074917316436768e-01
-5.196617245674133301e-01 -3.343895375728607178e-01 -6.685007810592651367e-01
-2.294836789369583130e-01 1.028117761015892029e-01 6.601017117500305176e-01
2.040780782699584961e-01 5.213167667388916016e-01 5.966195464134216309e-01
-5.457309484481811523e-01 -3.608939349651336670e-01 3.979937434196472168e-01
4.116572737693786621e-01 3.021068274974822998e-01 -6.685007810592651367e-01
-1.784003227949142456e-01 -2.787272632122039795e-02 -3.495223522186279297e-01
-6.937880516052246094e-01 -1.604162454605102539e-01 -1.056300625205039978e-01
-5.385013222694396973e-01 -7.800114154815673828e-02 6.635888814926147461e-01
2.115471810102462769e-01 2.573400735855102539e-01 1.492492407560348511e-01
-4.566078186035156250e-01 -3.608939349651336670e-01 2.159969955682754517e-01
1.532937735319137573e-01 1.119962111115455627e-01 3.979381024837493896e-01
4.016239941120147705e-01 4.625775814056396484e-01 -1.617802381515502930e-01
5.837956070899963379e-01 5.899755656719207764e-02 -6.308364868164062500e-01
-4.431619048118591309e-01 -3.608939349651336670e-01 -1.736236512660980225e-01
4.742412865161895752e-01 -3.608939349651336670e-01 3.848714008927345276e-02
2.144382297992706299e-01 2.805788218975067139e-01 -5.330580472946166992e-01
1.447587013244628906e-01 -2.787272632122039795e-02 -4.988401830196380615e-01
-4.060977697372436523e-02 1.119962111115455627e-01 -3.138251900672912598e-01
5.837956070899963379e-01 1.976789087057113647e-01 -2.158470302820205688e-01
5.837956070899963379e-01 -2.135928869247436523e-01 -4.329200088977813721e-01
2.115471810102462769e-01 4.825891554355621338e-02 -1.171217858791351318e-01
5.837956070899963379e-01 4.180512726306915283e-01 -4.652035534381866455e-01
3.911535739898681641e-01 -4.032792448997497559e-01 4.626054763793945312e-01
-4.602926671504974365e-01 -2.787272632122039795e-02 3.228867650032043457e-01
-3.434809148311614990e-01 -3.608939349651336670e-01 -6.249679327011108398e-01
-3.421436548233032227e-01 -2.787272632122039795e-02 5.817440152168273926e-01
-6.886159181594848633e-01 -3.513186573982238770e-01 3.867523670196533203e-01
-1.300193089991807938e-02 -3.332272171974182129e-02 1.547720581293106079e-01
1.672036498785018921e-01 5.358426570892333984e-01 1.025074496865272522e-01
5.171015262603759766e-01 -7.237300276756286621e-02 6.635888814926147461e-01
2.024507522583007812e-01 5.226758718490600586e-01 -1.403426676988601685e-01
-1.523032784461975098e-01 -2.953155040740966797e-01 -6.685007810592651367e-01
4.502365589141845703e-01 2.188273668289184570e-01 6.635888814926147461e-01
3.938210904598236084e-01 4.625775814056396484e-01 1.538110431283712387e-02
5.837956070899963379e-01 5.119448527693748474e-02 -3.273486196994781494e-01
-6.937880516052246094e-01 -1.528627276420593262e-01 -4.203165769577026367e-01
2.028332650661468506e-01 -3.608939349651336670e-01 4.657002091407775879e-01
7.646805047988891602e-02 -3.617036715149879456e-02 -6.623877882957458496e-01
-6.226311922073364258e-01 -3.332272171974182129e-02 -5.569882988929748535e-01
-3.081115782260894775e-01 1.119962111115455627e-01 3.374761939048767090e-01
5.837956070899963379e-01 2.870425283908843994e-01 -7.227785140275955200e-02
2.993380427360534668e-01 1.331696063280105591e-01 -6.685007810592651367e-01
-6.937880516052246094e-01 -2.245272547006607056e-01 4.745601713657379150e-01
-8.110916614532470703e-02 1.864583790302276611e-02 6.635888814926147461e-01
-2.970843808725476265e-03 -2.787272632122039795e-02 -5.918985605239868164e-01
2.153840363025665283e-01 4.130192101001739502e-01 6.458818912506103516e-01
-6.056484580039978027e-01 -3.332272171974182129e-02 3.538121879100799561e-01
2.739036679267883301e-01 -5.091855674982070923e-02 6.635888814926147461e-01
-3.237113952636718750e-01 6.642235815525054932e-02 6.635888814926147461e-01
3.691556751728057861e-01 3.392624258995056152e-01 6.635888814926147461e-01
6.495448201894760132e-02 -3.332272171974182129e-02 5.957472920417785645e-01
5.837956070899963379e-01 2.667354792356491089e-02 1.283243298530578613e-01
-1.287900209426879883e-01 -2.778906822204589844e-01 6.635888814926147461e-01
7.440258562564849854e-02 4.183930158615112305e-01 -3.036468923091888428e-01
8.161135762929916382e-02 4.394163191318511963e-01 1.357268244028091431e-01
5.820420980453491211e-01 -3.453626930713653564e-01 -4.953172504901885986e-01
2.776223123073577881e-01 -3.608939349651336670e-01 -1.534448266029357910e-01
5.837956070899963379e-01 -1.430023312568664551e-01 5.628385394811630249e-02
2.832822203636169434e-01 5.284414812922477722e-02 -6.685007810592651367e-01
1.228839904069900513e-01 5.307847857475280762e-01 1.604565232992172241e-02
5.812910795211791992e-01 -3.472453057765960693e-01 -5.793527960777282715e-01
-2.734009623527526855e-01 1.119962111115455627e-01 6.314262002706527710e-02
-3.979670256376266479e-02 -2.295424193143844604e-01 6.635888814926147461e-01
-5.212066173553466797e-01 -3.108050525188446045e-01 6.635888814926147461e-01
2.144382297992706299e-01 2.849988937377929688e-01 2.549031078815460205e-01
-6.937880516052246094e-01 -9.284887462854385376e-02 1.817125827074050903e-01
-2.988353371620178223e-01 -2.787272632122039795e-02 4.927639365196228027e-01
-4.780285060405731201e-01 -3.332272171974182129e-02 -1.566856056451797485e-01
5.182609558105468750e-01 4.625775814056396484e-01 1.429316401481628418e-01
1.137170419096946716e-01 -9.406539029441773891e-04 6.635888814926147461e-01
-5.548372864723205566e-01 -3.608939349651336670e-01 -5.345522761344909668e-01
-9.390291757881641388e-03 1.740288436412811279e-01 4.436225071549415588e-02
3.492689132690429688e-02 -2.787272632122039795e-02 4.206443428993225098e-01
-1.572151035070419312e-01 -3.608939349651336670e-01 5.120664834976196289e-01
2.409177087247371674e-02 1.119962111115455627e-01 6.056116819381713867e-01
7.200728356838226318e-02 -3.608939349651336670e-01 -5.007897317409515381e-02
-6.521468162536621094e-01 1.245876867324113846e-02 6.635888814926147461e-01
-6.937880516052246094e-01 -1.448820084333419800e-01 -1.755192279815673828e-01
1.932470500469207764e-01 -3.564749062061309814e-01 -6.576309204101562500e-01
-1.867506206035614014e-01 1.119962111115455627e-01 4.015921652317047119e-01
5.837956070899963379e-01 1.058024838566780090e-01 -1.182871460914611816e-01
5.837956070899963379e-01 2.388660907745361328e-01 -4.862993359565734863e-01
-3.765890002250671387e-01 -2.787272632122039795e-02 -4.652333259582519531e-01
-3.023642599582672119e-01 1.119962111115455627e-01 -1.820871978998184204e-01
-2.699323929846286774e-03 -3.608939349651336670e-01 -2.901214957237243652e-01
1.202085092663764954e-01 5.294654369354248047e-01 -6.272708177566528320e-01
5.089052319526672363e-01 -3.608939349651336670e-01 5.872758030891418457e-01
1.035844236612319946e-01 1.119962111115455627e-01 -3.718143105506896973e-01
-1.596680842339992523e-02 1.515173017978668213e-01 -5.287085175514221191e-01
-4.366624653339385986e-01 -3.240890204906463623e-01 6.635888814926147461e-01
5.053187012672424316e-01 4.625775814056396484e-01 3.166317641735076904e-01
4.200542569160461426e-01 -1.142228543758392334e-01 -6.685007810592651367e-01
3.654688596725463867e-01 -3.608939349651336670e-01 3.169357478618621826e-01
4.436377063393592834e-02 3.307929039001464844e-01 -1.766521297395229340e-02
-1.945028454065322876e-01 -2.787272632122039795e-02 5.792741775512695312e-01
9.831990301609039307e-02 -3.608939349651336670e-01 2.015973180532455444e-01
5.724002048373222351e-02 -2.787272632122039795e-02 3.153587505221366882e-02
-8.495676517486572266e-02 1.119962111115455627e-01 -3.717209100723266602e-01
5.779867172241210938e-01 -3.521015644073486328e-01 -3.955388963222503662e-01
4.955506622791290283e-01 -3.608939349651336670e-01 -3.642011880874633789e-01
-4.212236776947975159e-02 1.119962111115455627e-01 2.597315013408660889e-01
4.646670222282409668e-01 4.625775814056396484e-01 4.533547535538673401e-02
4.223541617393493652e-01 -3.608939349651336670e-01 3.863917291164398193e-01
2.041903138160705566e-02 -3.608939349651336670e-01 -5.244354605674743652e-01
-2.523320019245147705e-01 -3.332272171974182129e-02 -6.773480772972106934e-02
3.207179903984069824e-01 -3.608939349651336670e-01 1.075971052050590515e-01
5.431568622589111328e-01 -2.279398888349533081e-01 -6.685007810592651367e-01
-2.550591230392456055e-01 -2.512124180793762207e-01 -6.685007810592651367e-01
2.115471810102462769e-01 4.226183593273162842e-01 -4.586713314056396484e-01
1.590003967285156250e-01 1.119962111115455627e-01 -5.013467669486999512e-01
8.401163667440414429e-02 -3.608939349651336670e-01 3.957723081111907959e-01
-6.722093820571899414e-01 -3.332272171974182129e-02 1.336583793163299561e-01
2.053665928542613983e-02 1.119962111115455627e-01 -1.864734739065170288e-01
4.307968169450759888e-02 1.119962111115455627e-01 1.728655397891998291e-01
4.529865086078643799e-01 -1.978400945663452148e-01 6.635888814926147461e-01
5.837956070899963379e-01 3.024635016918182373e-01 -5.342413187026977539e-01
5.837956070899963379e-01 -2.078703641891479492e-01 6.019963622093200684e-01
-4.586564004421234131e-01 -3.332272171974182129e-02 -4.943446218967437744e-01
-6.937880516052246094e-01 -2.497331351041793823e-01 2.550252974033355713e-01
-4.413736164569854736e-01 -3.608939349651336670e-01 8.698245137929916382e-02
-6.285245418548583984e-01 -3.608939349651336670e-01 -5.702851414680480957e-01
-1.341315358877182007e-01 -3.332272171974182129e-02 3.781467676162719727e-01
-5.739451050758361816e-01 1.119962111115455627e-01 -2.823248691856861115e-02
-8.572945371270179749e-03 1.764132231473922729e-01 3.619776964187622070e-01
-6.937880516052246094e-01 -2.604042291641235352e-01 -2.199422121047973633e-01
4.238911271095275879e-01 -3.608939349651336670e-01 -5.912716984748840332e-01
2.395397871732711792e-01 4.625775814056396484e-01 -2.004091739654541016e-01
-6.025088950991630554e-02 1.119962111115455627e-01 1.217530574649572372e-02
2.144382297992706299e-01 1.048959195613861084e-01 -5.926963090896606445e-01
1.738560795783996582e-01 5.358426570892333984e-01 4.574353396892547607e-01
1.755281239748001099e-01 2.569784224033355713e-01 6.635888814926147461e-01
-5.410287976264953613e-01 -3.608939349651336670e-01 -8.445169776678085327e-02
2.414611876010894775e-01 3.294983506202697754e-01 -6.685007810592651367e-01
5.837956070899963379e-01 2.151981443166732788e-01 2.322435528039932251e-01
5.192276239395141602e-01 -3.608939349651336670e-01 4.899393916130065918e-01
3.265299201011657715e-01 -3.608939349651336670e-01 5.778684020042419434e-01
2.696743607521057129e-01 4.625775814056396484e-01 -5.104331970214843750e-01
1.160159781575202942e-01 -2.787272632122039795e-02 2.065876275300979614e-01
-5.259584784507751465e-01 -3.332272171974182129e-02 -2.957158386707305908e-01
5.837956070899963379e-01 5.624017119407653809e-02 -4.534667357802391052e-02
-6.692548096179962158e-02 -2.210510373115539551e-01 -6.685007810592651367e-01
-6.922063827514648438e-01 -3.450676202774047852e-01 -5.074170231819152832e-01
2.144382297992706299e-01 2.815276086330413818e-01 -3.839885592460632324e-01
5.837956070899963379e-01 1.242485418915748596e-01 -6.247225403785705566e-01
2.180505171418190002e-02 -2.804071605205535889e-01 6.635888814926147461e-01
-5.451169610023498535e-01 -2.294182032346725464e-01 6.635888814926147461e-01
2.776868939399719238e-01 -4.097489267587661743e-02 -6.685007810592651367e-01
4.135309755802154541e-01 -3.608939349651336670e-01 -5.633797124028205872e-02
5.331572890281677246e-02 3.506816029548645020e-01 6.489179730415344238e-01
-5.365182757377624512e-01 -2.787272632122039795e-02 -6.052908301353454590e-01
-3.525941967964172363e-01 -2.258277535438537598e-01 -6.685007810592651367e-01
-5.087562203407287598e-01 -3.608939349651336670e-01 -2.421984225511550903e-01
2.115471810102462769e-01 8.440683782100677490e-02 -4.338051974773406982e-01
-6.738814115524291992e-01 -3.604597747325897217e-01 5.515458583831787109e-01
2.144382297992706299e-01 2.506421878933906555e-04 -6.178296804428100586e-01
5.837956070899963379e-01 1.494101136922836304e-01 3.879435658454895020e-01
1.959225237369537354e-01 -3.608939349651336670e-01 -2.596391439437866211e-01
9.363658726215362549e-02 4.744835793972015381e-01 -2.794672846794128418e-01
2.144382297992706299e-01 3.321062624454498291e-01 5.383681654930114746e-01
-1.153782289475202560e-02 4.798736050724983215e-02 6.635888814926147461e-01
3.283221721649169922e-01 4.119601845741271973e-01 6.635888814926147461e-01
2.144382297992706299e-01 1.224248856306076050e-01 2.132887244224548340e-01
-6.297843456268310547e-01 1.119962111115455627e-01 2.222182452678680420e-01
-1.001330465078353882e-01 -3.608939349651336670e-01 -6.290780305862426758e-01
1.334934830665588379e-01 1.124463602900505066e-01 6.427335143089294434e-01
2.115471810102462769e-01 2.420075237751007080e-01 4.376440048217773438e-01
-4.051141440868377686e-01 -3.608939349651336670e-01 -5.880616903305053711e-01
2.904145121574401855e-01 4.309418201446533203e-01 -6.685007810592651367e-01
2.740228176116943359e-02 1.119962111115455627e-01 4.231062233448028564e-01
5.837956070899963379e-01 -2.766537666320800781e-01 5.646390914916992188e-01
-4.773936569690704346e-01 -2.005761712789535522e-01 -6.685007810592651367e-01
3.356144130229949951e-01 -3.608939349651336670e-01 4.872370958328247070e-01
-6.962022185325622559e-01 -1.775480806827545166e-02 2.041873484849929810e-01
-6.937880516052246094e-01 -6.607525795698165894e-02 -2.875523269176483154e-01
4.013696610927581787e-01 4.625775814056396484e-01 -4.178388118743896484e-01
-2.505109310150146484e-01 -3.332272171974182129e-02 5.647897720336914062e-02
1.956711709499359131e-01 -2.787272632122039795e-02 -3.238177299499511719e-01
3.399013280868530273e-01 -1.462997198104858398e-01 -6.685007810592651367e-01
1.149569153785705566e-01 -3.608939349651336670e-01 3.269789516925811768e-01
2.115471810102462769e-01 1.952984929084777832e-01 6.145362257957458496e-01
-3.179273009300231934e-01 -3.332272171974182129e-02 -5.831598043441772461e-01
-5.667462944984436035e-01 -3.608939349651336670e-01 -3.989336788654327393e-01
4.592286050319671631e-01 9.009487926959991455e-02 6.635888814926147461e-01
2.144382297992706299e-01 2.195555344223976135e-02 1.365951299667358398e-01
1.967173218727111816e-01 5.284152626991271973e-01 -3.061236441135406494e-01
-3.949000537395477295e-01 -2.787272632122039795e-02 -6.343951821327209473e-01
9.765823185443878174e-02 -3.608939349651336670e-01 -4.170320928096771240e-01
5.837956070899963379e-01 6.085046008229255676e-02 -4.340575635433197021e-01
-4.894496798515319824e-01 -2.787272632122039795e-02 5.283199548721313477e-01
-6.937880516052246094e-01 -7.172127813100814819e-02 -4.201735258102416992e-01
5.837956070899963379e-01 3.748273849487304688e-01 -3.208137303590774536e-02
-4.024485945701599121e-01 -3.608939349651336670e-01 2.827169001102447510e-01
7.087171077728271484e-02 4.080964624881744385e-01 -5.909339189529418945e-01
4.134435653686523438e-01 4.625775814056396484e-01 -5.880597233772277832e-01
-1.279268711805343628e-01 1.119962111115455627e-01 -5.353490114212036133e-01
-3.404288887977600098e-01 -3.608939349651336670e-01 -1.918591856956481934e-01
9.845799952745437622e-02 1.119962111115455627e-01 4.015127122402191162e-01
1.582522839307785034e-01 -3.332272171974182129e-02 -1.509929001331329346e-01
2.144382297992706299e-01 2.511506080627441406e-01 -1.339117884635925293e-01
-3.019072413444519043e-01 -3.330285474658012390e-02 6.372762322425842285e-01
-4.769604802131652832e-01 1.119962111115455627e-01 -3.688209354877471924e-01
1.112094596028327942e-01 1.119962111115455627e-01 2.211323529481887817e-01
4.845129549503326416e-01 -3.608939349651336670e-01 -6.070940494537353516e-01
1.442847996950149536e-01 5.358426570892333984e-01 -5.263817310333251953e-01
-2.013360857963562012e-01 -3.608939349651336670e-01 -2.805670797824859619e-01
5.791242718696594238e-01 4.518925845623016357e-01 -2.813757658004760742e-01
-2.453666329383850098e-01 1.119962111115455627e-01 -5.695320963859558105e-01
-6.937880516052246094e-01 -2.585205435752868652e-01 -3.956879079341888428e-01
-6.904549002647399902e-01 -2.177238166332244873e-01 6.514364480972290039e-01
4.750787913799285889e-01 4.625775814056396484e-01 4.271278977394104004e-01
-3.376685548573732376e-03 1.915669590234756470e-01 -3.269690871238708496e-01
2.406475245952606201e-01 -3.608939349651336670e-01 2.600291045382618904e-03
-2.885984182357788086e-01 -3.123618662357330322e-01 6.635888814926147461e-01
-7.745798677206039429e-02 -3.608939349651336670e-01 -2.643552720546722412e-01
2.326454734429717064e-03 -6.072828918695449829e-02 -6.685007810592651367e-01
4.956281781196594238e-01 -3.608939349651336670e-01 -5.056197643280029297e-01
5.837956070899963379e-01 -2.630985975265502930e-01 2.420215159654617310e-01
9.434892237186431885e-02 -3.332272171974182129e-02 -5.367398858070373535e-01
-5.282842516899108887e-01 1.119962111115455627e-01 3.403096199035644531e-01
-3.210816085338592529e-01 1.119962111115455627e-01 1.744104176759719849e-01
-4.464932158589363098e-02 -3.332272171974182129e-02 -2.647884190082550049e-01
-3.035375773906707764e-01 -3.608939349651336670e-01 2.353859841823577881e-01
4.074279665946960449e-01 1.490792781114578247e-01 -6.685007810592651367e-01
4.134485125541687012e-01 2.069789543747901917e-02 -6.685007810592651367e-01
4.845328629016876221e-01 -3.608939349651336670e-01 -2.054958492517471313e-01
-4.368303716182708740e-01 -3.332272171974182129e-02 -3.118739724159240723e-01
5.837956070899963379e-01 -2.804876267910003662e-01 -1.874729096889495850e-01
3.375477492809295654e-01 -3.608939349651336670e-01 -2.861296236515045166e-01
-5.453763008117675781e-01 1.119962111115455627e-01 8.679090440273284912e-02
5.837956070899963379e-01 -2.985324561595916748e-01 -4.516622424125671387e-01
-1.662866771221160889e-01 -3.608939349651336670e-01 2.412654608488082886e-01
-3.197731971740722656e-01 -3.332272171974182129e-02 2.300946414470672607e-01
9.805563837289810181e-02 4.873721599578857422e-01 5.551631450653076172e-01
2.182114310562610626e-02 2.274319976568222046e-01 -6.580591201782226562e-01
-2.467804402112960815e-02 -2.787272632122039795e-02 2.615833580493927002e-01
-7.031636685132980347e-02 1.119962111115455627e-01 -5.040563270449638367e-02
5.837956070899963379e-01 4.331811666488647461e-01 -9.250653535127639771e-02
-4.799419641494750977e-01 -2.787272632122039795e-02 -5.502894520759582520e-02
1.088141575455665588e-01 5.169523954391479492e-01 -3.907532691955566406e-01
-1.338299959897994995e-01 1.119962111115455627e-01 2.457646839320659637e-02
1.523856818675994873e-02 -3.524720668792724609e-01 6.566960215568542480e-01
3.156511783599853516e-01 7.675973325967788696e-02 6.635888814926147461e-01
2.115471810102462769e-01 2.995018959045410156e-01 3.760018050670623779e-01
-2.281434684991836548e-01 -2.787272632122039795e-02 4.857687354087829590e-01
-3.232086896896362305e-01 1.119962111115455627e-01 5.390486717224121094e-01
1.534060388803482056e-01 7.878696173429489136e-02 -6.595901250839233398e-01
-5.598176717758178711e-01 8.050033450126647949e-02 6.635888814926147461e-01
-4.541797339916229248e-01 -1.316238641738891602e-01 -6.685007810592651367e-01
4.888942837715148926e-01 -7.180374115705490112e-02 -6.685007810592651367e-01
-6.937880516052246094e-01 -2.725635468959808350e-01 1.211860850453376770e-01
2.144382297992706299e-01 1.742434203624725342e-01 -8.282585442066192627e-02
5.837956070899963379e-01 3.730858266353607178e-01 -3.229941427707672119e-01
-4.617968499660491943e-01 1.119962111115455627e-01 1.679368317127227783e-01
2.630279064178466797e-01 2.702336013317108154e-01 6.635888814926147461e-01
5.206701159477233887e-01 4.625775814056396484e-01 -7.353253662586212158e-02
-3.817442357540130615e-01 -3.332272171974182129e-02 -1.691489517688751221e-01
1.013788655400276184e-01 -3.332272171974182129e-02 2.910523116588592529e-01
-5.867472290992736816e-01 -3.608939349651336670e-01 1.052584275603294373e-01
2.084613591432571411e-01 -2.492423728108406067e-02 3.802569508552551270e-01
4.139492511749267578e-01 4.625775814056396484e-01 2.272909879684448242e-01
-1.526904553174972534e-01 -2.787272632122039795e-02 1.015010401606559753e-01
5.501261949539184570e-01 3.366365730762481689e-01 6.635888814926147461e-01
-1.657462120056152344e-01 -3.608939349651336670e-01 3.398556113243103027e-01
3.201715648174285889e-01 4.625775814056396484e-01 -2.667903006076812744e-01
-4.585421383380889893e-01 1.119962111115455627e-01 4.833048880100250244e-01
-2.296456247568130493e-01 -3.332272171974182129e-02 3.437649905681610107e-01
-4.506935477256774902e-01 -3.608939349651336670e-01 -3.518749475479125977e-01
4.984706044197082520e-01 -3.293197751045227051e-01 -6.685007810592651367e-01
5.837956070899963379e-01 2.183335460722446442e-02 3.209931850433349609e-01
5.837956070899963379e-01 -2.710484862327575684e-01 -6.223669648170471191e-01
2.115471810102462769e-01 3.789434432983398438e-01 -4.078363478183746338e-01
-6.457716226577758789e-01 -2.787272632122039795e-02 -3.579938709735870361e-01
-6.766314804553985596e-02 -3.608939349651336670e-01 -1.400684714317321777e-01
1.671727560460567474e-02 2.252035886049270630e-01 6.590853929519653320e-01
-2.593847811222076416e-01 1.119962111115455627e-01 -3.267485499382019043e-01
3.759918808937072754e-01 -2.817881703376770020e-01 6.635888814926147461e-01
5.837956070899963379e-01 -1.063106879591941833e-01 3.527908623218536377e-01
-2.918272614479064941e-01 -3.608939349651336670e-01 -4.516562819480895996e-01
5.837956070899963379e-01 -2.015180513262748718e-02 2.830325439572334290e-02
-1.667695194482803345e-01 1.119962111115455627e-01 4.719731211662292480e-01
-4.212872087955474854e-01 -3.332272171974182129e-02 1.762543320655822754e-01
-3.985372558236122131e-02 -3.608939349651336670e-01 2.990737557411193848e-01
8.177330344915390015e-02 -2.787272632122039795e-02 -2.303927540779113770e-01
-6.350219845771789551e-01 -4.032792448997497559e-01 -5.412205457687377930e-01
-2.159950435161590576e-01 -3.332272171974182129e-02 -2.327204942703247070e-01
-6.177322864532470703e-01 -3.332272171974182129e-02 -2.276934385299682617e-01
1.182374209165573120e-01 -3.332272171974182129e-02 8.554804325103759766e-02
-6.184704303741455078e-01 -2.787272632122039795e-02 5.008946657180786133e-01
-4.186117649078369141e-02 1.055532172322273254e-01 -6.527588963508605957e-01
2.144382297992706299e-01 3.728046715259552002e-01 4.907361865043640137e-01
2.144382297992706299e-01 1.304057985544204712e-01 -2.703082859516143799e-01
-4.414362013339996338e-01 1.119962111115455627e-01 3.596237674355506897e-02
-6.937880516052246094e-01 -2.619213163852691650e-01 2.685821987688541412e-02
2.144382297992706299e-01 9.235368669033050537e-02 -3.383445739746093750e-01
2.144382297992706299e-01 -1.592479832470417023e-02 6.069101691246032715e-01
1.519565284252166748e-01 1.119962111115455627e-01 -1.878534257411956787e-01
5.837956070899963379e-01 3.769038319587707520e-01 -6.013546586036682129e-01
-5.963185429573059082e-01 -2.110177725553512573e-01 -6.685007810592651367e-01
-1.587371230125427246e-01 -3.332272171974182129e-02 -4.267514348030090332e-01
-1.984748244285583496e-01 1.119962111115455627e-01 -1.731547117233276367e-01
-2.114229947328567505e-01 -1.776463910937309265e-02 -6.588588953018188477e-01
4.283618330955505371e-01 -3.411591947078704834e-01 6.631090044975280762e-01
-5.386264920234680176e-01 -3.608939349651336670e-01 -4.658820927143096924e-01
4.937752708792686462e-02 3.454141020774841309e-01 -2.706232070922851562e-01
4.803661406040191650e-01 4.625775814056396484e-01 -3.531972765922546387e-01
-4.054231047630310059e-01 -3.332272171974182129e-02 4.306647181510925293e-01
2.144382297992706299e-01 3.592763245105743408e-01 -1.472831964492797852e-01
2.144382297992706299e-01 1.220036204904317856e-02 5.218659341335296631e-02
3.643928095698356628e-02 1.119962111115455627e-01 -1.076269820332527161e-01
-1.592130772769451141e-02 1.501373499631881714e-01 -2.598666548728942871e-01
-6.658818721771240234e-01 1.119962111115455627e-01 -1.751079112291336060e-01
2.456576377153396606e-02 1.171206124126911163e-02 -6.595901250839233398e-01
2.144382297992706299e-01 1.638454943895339966e-02 4.723844230175018311e-01
-1.719813793897628784e-01 1.119962111115455627e-01 -2.784131765365600586e-01
3.370033204555511475e-01 -3.608939349651336670e-01 -1.949777603149414062e-01
-6.707440018653869629e-01 1.119962111115455627e-01 -3.439766764640808105e-01
1.010679006576538086e-01 4.961576163768768311e-01 8.078574389219284058e-02
1.380555927753448486e-01 1.119962111115455627e-01 5.762937068939208984e-01
7.903224974870681763e-02 4.318946003913879395e-01 -5.010735392570495605e-01
-6.266329288482666016e-01 -3.566795587539672852e-01 6.529336571693420410e-01
4.735061228275299072e-01 -3.992665410041809082e-01 6.393685340881347656e-01
1.547383069992065430e-01 4.379489421844482422e-01 -6.595901250839233398e-01
1.937408149242401123e-01 3.850017786026000977e-01 -6.595295071601867676e-01
-3.799738287925720215e-01 -3.332272171974182129e-02 -3.170235827565193176e-02
-5.327291488647460938e-01 -3.608939349651336670e-01 2.867077589035034180e-01
-6.967108845710754395e-01 -4.602168221026659012e-03 -5.026959180831909180e-01
-4.678571224212646484e-01 -2.787272632122039795e-02 2.328704595565795898e-01
-2.085170298814773560e-01 1.119962111115455627e-01 -3.752898424863815308e-02
2.628123462200164795e-01 4.625775814056396484e-01 3.297388553619384766e-01
8.693052083253860474e-02 1.119962111115455627e-01 6.810540705919265747e-02
-2.337775528430938721e-01 -3.608939349651336670e-01 5.510510802268981934e-01
5.837956070899963379e-01 1.682387590408325195e-01 4.488843679428100586e-01
-3.728743493556976318e-01 -3.608939349651336670e-01 -1.184752304106950760e-02
-6.944745182991027832e-01 9.977833926677703857e-02 -6.128035783767700195e-01
-4.004020094871520996e-01 -3.608939349651336670e-01 -1.191047877073287964e-01
1.251551061868667603e-01 -3.608939349651336670e-01 -1.278336048126220703e-01
2.112332135438919067e-01 5.019019842147827148e-01 4.151215255260467529e-01
-6.207127571105957031e-01 -3.911397755146026611e-01 -6.442804336547851562e-01
-5.668277144432067871e-01 -3.332272171974182129e-02 -4.568472504615783691e-01
2.115471810102462769e-01 1.661882102489471436e-01 1.053081005811691284e-01
5.837956070899963379e-01 -3.216828107833862305e-01 4.121887683868408203e-01
-6.894772648811340332e-01 -3.501652181148529053e-01 3.181418478488922119e-01
2.144382297992706299e-01 1.449800748378038406e-02 -3.654986917972564697e-01
6.004862487316131592e-02 3.765352070331573486e-01 -7.708267122507095337e-02
-4.351136386394500732e-01 -3.608939349651336670e-01 5.375157594680786133e-01
-2.637393400073051453e-02 -3.332272171974182129e-02 4.794471561908721924e-01
5.181128978729248047e-01 -4.032792448997497559e-01 -4.165671467781066895e-01
5.837956070899963379e-01 4.194937944412231445e-01 2.150084674358367920e-01
-3.946248590946197510e-01 -7.101689279079437256e-02 6.635888814926147461e-01
5.837956070899963379e-01 2.903199940919876099e-02 4.525791704654693604e-01
-1.410771161317825317e-01 -3.608939349651336670e-01 -5.386483669281005859e-01
-6.199040412902832031e-01 -3.608939349651336670e-01 -3.330108150839805603e-02
-6.471207737922668457e-01 1.119962111115455627e-01 2.893564105033874512e-01
-2.391145825386047363e-01 -3.608939349651336670e-01 3.654151558876037598e-01
-5.323118567466735840e-01 -3.332272171974182129e-02 4.561249315738677979e-01
-6.075450181961059570e-01 1.119962111115455627e-01 -2.127622514963150024e-01
-5.858958363533020020e-01 1.119962111115455627e-01 -4.301064312458038330e-01
2.065727412700653076e-01 1.054617092013359070e-01 1.581400036811828613e-01
-6.967108845710754395e-01 -1.030461303889751434e-02 5.168441534042358398e-01
2.094439417123794556e-01 -3.608939349651336670e-01 3.439130187034606934e-01
-6.623441725969314575e-02 1.119962111115455627e-01 5.144886374473571777e-01
-1.325030773878097534e-01 1.119962111115455627e-01 -4.224625229835510254e-01
2.144382297992706299e-01 3.200095295906066895e-01 1.098890900611877441e-01
-6.967108845710754395e-01 -7.848698645830154419e-03 2.533142268657684326e-02
3.152547776699066162e-01 2.121679931879043579e-01 -6.685007810592651367e-01
3.262864947319030762e-01 1.602570563554763794e-01 6.635888814926147461e-01
-1.126433983445167542e-01 -3.332272171974182129e-02 -3.427765369415283203e-01
5.837956070899963379e-01 -5.154544860124588013e-02 -5.904868245124816895e-01
-6.450762599706649780e-02 -2.787272632122039795e-02 -5.321370363235473633e-01
-6.937880516052246094e-01 -2.064496725797653198e-01 -5.808608531951904297e-01
2.115471810102462769e-01 4.319770336151123047e-01 1.348326802253723145e-01
1.176890134811401367e-01 -3.332272171974182129e-02 -9.570984542369842529e-02
2.144382297992706299e-01 -2.720966935157775879e-02 1.842449903488159180e-01
-6.937880516052246094e-01 -7.536540180444717407e-02 -5.619894862174987793e-01
-6.161059141159057617e-01 -3.608939349651336670e-01 4.159809052944183350e-01
3.795813620090484619e-01 -3.608939349651336670e-01 5.740206241607666016e-01
-4.823879301548004150e-01 1.119962111115455627e-01 -5.199975967407226562e-01
-6.122450903058052063e-02 -3.768087178468704224e-02 -6.631855964660644531e-01
-6.967108845710754395e-01 4.669439420104026794e-02 1.890462450683116913e-02
-3.599013090133666992e-01 -1.024400442838668823e-01 -6.685007810592651367e-01
-1.802611351013183594e-01 -1.951755434274673462e-01 6.635888814926147461e-01
4.655233919620513916e-01 4.380402863025665283e-01 6.635888814926147461e-01
2.071310877799987793e-01 -2.371535450220108032e-01 -6.685007810592651367e-01
2.827964127063751221e-01 -3.486113846302032471e-01 -6.653225421905517578e-01
5.837956070899963379e-01 3.645060360431671143e-01 -1.820186376571655273e-01
3.996916413307189941e-01 -3.608939349651336670e-01 1.676646173000335693e-01
-2.353492677211761475e-01 -3.608939349651336670e-01 -5.223703384399414062e-02
2.115471810102462769e-01 4.128950536251068115e-01 1.059595122933387756e-02
1.003555729985237122e-01 4.940792024135589600e-01 -1.558421254158020020e-01
5.837956070899963379e-01 -1.191813647747039795e-01 1.323141902685165405e-01
1.242847554385662079e-02 1.332212686538696289e-01 -6.595901250839233398e-01
-2.394583374261856079e-01 1.119962111115455627e-01 5.936887860298156738e-01
5.837956070899963379e-01 1.592089235782623291e-01 -5.521443113684654236e-02
4.868169128894805908e-01 4.625775814056396484e-01 -1.715999096632003784e-01
-5.633366107940673828e-01 1.119962111115455627e-01 -5.745730400085449219e-01
-9.462233632802963257e-02 -7.009492814540863037e-02 6.635888814926147461e-01
5.467602610588073730e-01 4.625775814056396484e-01 -2.200673967599868774e-01
-3.631202578544616699e-01 -3.332272171974182129e-02 2.983246743679046631e-01
3.151057660579681396e-01 -1.693526953458786011e-01 6.635888814926147461e-01
1.235774531960487366e-01 1.119962111115455627e-01 6.585265975445508957e-03
1.832862943410873413e-01 1.130731552839279175e-01 3.262288570404052734e-01
-4.268120229244232178e-01 -4.221427440643310547e-02 -6.662385463714599609e-01
-1.859399229288101196e-01 -2.787272632122039795e-02 -5.478282570838928223e-01
3.657817840576171875e-01 -3.608939349651336670e-01 -1.123172566294670105e-01
1.194395497441291809e-01 -2.787272632122039795e-02 -4.158140718936920166e-01
6.461768597364425659e-02 -3.608939349651336670e-01 -2.101463973522186279e-01
2.144382297992706299e-01 4.141154699027538300e-03 -2.507543563842773438e-01
5.531959980726242065e-02 1.119962111115455627e-01 -5.199776887893676758e-01
-3.488627076148986816e-02 -3.332272171974182129e-02 -3.916195631027221680e-01
2.144382297992706299e-01 1.999619454145431519e-01 -4.131674170494079590e-01
-1.462798099964857101e-02 1.584270447492599487e-01 -6.032164096832275391e-01
-5.849848389625549316e-01 -3.294042050838470459e-01 -6.685007810592651367e-01
-6.344845294952392578e-01 -3.608939349651336670e-01 1.489442437887191772e-01
5.837956070899963379e-01 2.976440191268920898e-01 9.116594493389129639e-02
5.690035223960876465e-01 -3.589228391647338867e-01 6.056216359138488770e-01
-6.967108845710754395e-01 -8.773838169872760773e-03 -3.491686880588531494e-01
5.837956070899963379e-01 -9.624165296554565430e-02 -5.089668035507202148e-01
