-2.004874795675277710e-01 7.497918605804443359e-02 2.670581936836242676e-01
-4.480111226439476013e-02 -2.756128311157226562e-01 -3.219372928142547607e-01
-6.296099424362182617e-01 -2.342568039894104004e-01 2.858452789951115847e-04
-5.314250588417053223e-01 -2.756128311157226562e-01 -2.719198763370513916e-01
6.380726695060729980e-01 -2.433252036571502686e-01 -5.803729295730590820e-01
4.264588057994842529e-01 -2.342568039894104004e-01 -5.913874506950378418e-02
9.049774706363677979e-02 4.938231408596038818e-01 2.670581936836242676e-01
-4.729875028133392334e-01 -2.342568039894104004e-01 -3.410840034484863281e-01
1.344590038061141968e-01 1.812964379787445068e-01 2.025418281555175781e-01
2.456975281238555908e-01 -2.342568039894104004e-01 -6.637512445449829102e-01
-1.768431067466735840e-01 -2.756128311157226562e-01 -6.070566177368164062e-02
2.981150746345520020e-01 -2.342568039894104004e-01 -2.797797918319702148e-01
1.092989668250083923e-01 1.206389535218477249e-02 2.025418281555175781e-01
5.507817491888999939e-02 -2.756128311157226562e-01 1.221625655889511108e-01
3.858401775360107422e-01 2.473469590768218040e-03 2.025418281555175781e-01
-1.216690707951784134e-02 4.198071733117103577e-02 2.025418281555175781e-01
5.813995003700256348e-01 2.511622905731201172e-01 2.670581936836242676e-01
-5.856183171272277832e-01 2.761042416095733643e-01 2.670581936836242676e-01
5.099291801452636719e-01 -2.342568039894104004e-01 1.183624565601348877e-01
-6.522625088691711426e-01 -2.404191195964813232e-01 -6.755673289299011230e-01
1.353824585676193237e-01 -5.387703701853752136e-02 2.670581936836242676e-01
8.498778194189071655e-02 5.126509666442871094e-01 2.025418281555175781e-01
-1.363393366336822510e-01 6.813902258872985840e-01 2.670581936836242676e-01
2.144339382648468018e-01 -5.909316241741180420e-02 2.025418281555175781e-01
-6.248394027352333069e-02 -2.756128311157226562e-01 -5.627105832099914551e-01
2.242089621722698212e-02 -2.342568039894104004e-01 -3.316767215728759766e-01
-5.010432004928588867e-01 6.869404911994934082e-01 2.025418281555175781e-01
-2.900424003601074219e-01 -2.342568039894104004e-01 -6.571732759475708008e-01
4.150679707527160645e-01 4.710471928119659424e-01 2.025418281555175781e-01
-6.871349364519119263e-02 5.671820640563964844e-01 2.670581936836242676e-01
4.303614199161529541e-01 4.743452668190002441e-01 2.670581936836242676e-01
1.001982614398002625e-01 -2.342568039894104004e-01 -6.815569400787353516e-01
-8.915101736783981323e-02 4.123818874359130859e-01 2.670581936836242676e-01
-5.958313345909118652e-01 1.238272488117218018e-01 2.025418281555175781e-01
-5.438133478164672852e-01 -2.756128311157226562e-01 -3.776633143424987793e-01
-1.457161270081996918e-02 -2.756128311157226562e-01 -2.428362816572189331e-01
-1.204698234796524048e-01 -4.529834166169166565e-02 2.025418281555175781e-01
-5.898094177246093750e-01 6.759975552558898926e-01 2.670581936836242676e-01
-6.345878839492797852e-01 -1.330832391977310181e-01 2.670581936836242676e-01
-4.409001469612121582e-01 7.181394696235656738e-01 2.670581936836242676e-01
-3.672963380813598633e-01 4.923710525035858154e-01 2.025418281555175781e-01
2.557140886783599854e-01 -2.342568039894104004e-01 -2.416421473026275635e-01
-1.411350220441818237e-01 -2.342568039894104004e-01 -3.474551439285278320e-01
-2.050364017486572266e-01 4.346396327018737793e-01 2.670581936836242676e-01
1.474717855453491211e-01 -2.281978726387023926e-01 2.025418281555175781e-01
5.418182015419006348e-01 -2.756128311157226562e-01 -6.082132458686828613e-01
2.962482273578643799e-01 5.415437221527099609e-01 2.025418281555175781e-01
5.530467033386230469e-01 -2.342568039894104004e-01 1.778885871171951294e-01
-2.184563577175140381e-01 -2.342568039894104004e-01 -7.362166047096252441e-02
-6.036412715911865234e-01 -2.756128311157226562e-01 9.308851510286331177e-02
-5.977342724800109863e-01 -1.589418053627014160e-01 2.025418281555175781e-01
5.968855619430541992e-01 -2.342568039894104004e-01 -1.054028235375881195e-02
-4.163219034671783447e-01 -2.756128311157226562e-01 -3.272635340690612793e-01
-2.707305848598480225e-01 -2.756128311157226562e-01 -1.053123027086257935e-01
9.545857459306716919e-02 4.233104884624481201e-01 2.670581936836242676e-01
-1.483053117990493774e-01 -2.756128311157226562e-01 -4.433318972587585449e-01
-1.414738446474075317e-01 -2.342568039894104004e-01 6.325142830610275269e-02
1.446957439184188843e-01 6.507948637008666992e-01 2.025418281555175781e-01
-5.624655485153198242e-01 -2.756128311157226562e-01 -4.983147978782653809e-01
-5.643513798713684082e-01 -2.342568039894104004e-01 -3.416391909122467041e-01
-1.523825377225875854e-01 -2.756128311157226562e-01 7.452647387981414795e-02
5.476450175046920776e-02 -7.601236552000045776e-02 2.025418281555175781e-01
-3.634468913078308105e-01 -8.391155302524566650e-02 2.670581936836242676e-01
4.156241118907928467e-01 -2.342568039894104004e-01 -4.431116878986358643e-01
-3.569675385951995850e-01 3.259911835193634033e-01 2.025418281555175781e-01
4.609947502613067627e-01 -4.788930714130401611e-02 2.025418281555175781e-01
2.979442179203033447e-01 3.656331598758697510e-01 2.025418281555175781e-01
-6.355701088905334473e-01 -2.342568039894104004e-01 1.560370326042175293e-01
-5.325848460197448730e-01 -2.342568039894104004e-01 -6.094309091567993164e-01
-6.328130364418029785e-01 -2.342568039894104004e-01 -5.289016366004943848e-01
-5.408190488815307617e-01 6.465677022933959961e-01 2.025418281555175781e-01
-4.863661900162696838e-02 6.227382421493530273e-01 2.670581936836242676e-01
-4.031306803226470947e-01 -2.342568039894104004e-01 1.946654021739959717e-01
5.808214545249938965e-01 -6.448108702898025513e-02 2.025418281555175781e-01
-2.668934762477874756e-01 -1.038652658462524414e-02 2.670581936836242676e-01
-4.386157095432281494e-01 4.029802978038787842e-01 2.025418281555175781e-01
1.910676658153533936e-01 -2.756128311157226562e-01 -2.332428991794586182e-01
-4.467037320137023926e-01 -2.342568039894104004e-01 3.752668201923370361e-02
-6.413718461990356445e-01 3.994962573051452637e-01 2.025418281555175781e-01
-1.077844426035881042e-01 -2.342568039894104004e-01 -3.861386179924011230e-01
3.133178502321243286e-02 5.275334119796752930e-01 2.670581936836242676e-01
1.404125690460205078e-01 -2.342568039894104004e-01 -3.357758224010467529e-01
6.020555738359689713e-03 3.964240849018096924e-01 2.025418281555175781e-01
-3.873076438903808594e-01 -2.342568039894104004e-01 -2.762557566165924072e-02
5.260444879531860352e-01 -2.342568039894104004e-01 -4.753290712833404541e-01
-1.380761414766311646e-01 2.399612814188003540e-01 2.670581936836242676e-01
6.204577684402465820e-01 -2.342568039894104004e-01 -4.856731295585632324e-01
4.878341779112815857e-02 -2.756128311157226562e-01 -2.501249015331268311e-01
1.352699846029281616e-02 -2.756128311157226562e-01 -6.752560138702392578e-01
7.948806136846542358e-02 6.656241416931152344e-01 2.670581936836242676e-01
-1.930343657732009888e-01 -2.342568039894104004e-01 -3.292452096939086914e-01
5.294213294982910156e-01 5.382722616195678711e-01 2.670581936836242676e-01
3.755815923213958740e-01 -2.756128311157226562e-01 1.858617961406707764e-01
4.497444033622741699e-01 2.544089853763580322e-01 2.025418281555175781e-01
3.020034432411193848e-01 -1.845725923776626587e-01 2.670581936836242676e-01
4.777369275689125061e-02 3.200584948062896729e-01 2.670581936836242676e-01
-4.525396227836608887e-01 5.122599601745605469e-01 2.670581936836242676e-01
-4.031107425689697266e-01 1.399622112512588501e-02 2.670581936836242676e-01
2.282411307096481323e-01 6.142041087150573730e-01 2.025418281555175781e-01
3.150333166122436523e-01 5.634595453739166260e-02 2.025418281555175781e-01
-4.579085707664489746e-01 3.927435576915740967e-01 2.670581936836242676e-01
-1.822044551372528076e-01 3.453162610530853271e-01 2.670581936836242676e-01
1.212943494319915771e-01 7.158123254776000977e-01 2.025418281555175781e-01
-4.862799833063036203e-04 -2.333953790366649628e-02 2.025418281555175781e-01
-6.522625088691711426e-01 9.220461361110210419e-03 2.046800851821899414e-01
-1.518225818872451782e-01 -2.756128311157226562e-01 -6.503939628601074219e-01
-4.708682298660278320e-01 -2.756128311157226562e-01 -5.824049115180969238e-01
-2.967808544635772705e-01 -9.292967617511749268e-02 2.670581936836242676e-01
3.658663481473922729e-02 -2.756128311157226562e-01 -4.951468110084533691e-01
6.380726695060729980e-01 -2.415979206562042236e-01 -6.412116289138793945e-01
-1.024269014596939087e-01 -5.757085233926773071e-02 2.670581936836242676e-01
-1.465096622705459595e-01 -2.756128311157226562e-01 -5.057413578033447266e-01
3.702458739280700684e-01 6.880821585655212402e-01 2.025418281555175781e-01
-5.116111636161804199e-01 -2.342568039894104004e-01 -6.804108619689941406e-02
-3.784271180629730225e-01 -2.756128311157226562e-01 -5.681174993515014648e-01
-6.463806331157684326e-02 -2.336769104003906250e-01 2.025418281555175781e-01
-6.133271008729934692e-02 -2.756128311157226562e-01 6.985415518283843994e-02
6.380726695060729980e-01 3.899238705635070801e-01 2.326114326715469360e-01
3.203766345977783203e-01 -2.342568039894104004e-01 -1.071680709719657898e-02
-5.013877153396606445e-01 3.224330544471740723e-01 2.025418281555175781e-01
6.315112113952636719e-02 -1.950352191925048828e-01 2.670581936836242676e-01
-3.592415452003479004e-01 4.701142609119415283e-01 2.670581936836242676e-01
2.713662683963775635e-01 -2.756128311157226562e-01 8.873320370912551880e-02
-5.222768783569335938e-01 -1.052990108728408813e-01 2.670581936836242676e-01
2.685389518737792969e-01 -2.342568039894104004e-01 -6.011985540390014648e-01
3.495635986328125000e-01 -2.342568039894104004e-01 -6.803165078163146973e-01
-4.326929897069931030e-02 -2.342568039894104004e-01 -5.911060571670532227e-01
-4.164946377277374268e-01 -2.756128311157226562e-01 4.319363459944725037e-02
-3.520399332046508789e-01 -2.756128311157226562e-01 -4.490320384502410889e-01
-3.141399472951889038e-02 -2.342568039894104004e-01 -2.863243222236633301e-01
6.131460666656494141e-01 4.333071410655975342e-01 2.025418281555175781e-01
5.100055783987045288e-02 -2.342568039894104004e-01 -4.722199141979217529e-01
6.084529161453247070e-01 -2.756128311157226562e-01 -1.824478060007095337e-01
-5.062403678894042969e-01 -2.102622091770172119e-01 2.025418281555175781e-01
-3.948926627635955811e-01 -2.342568039894104004e-01 -1.118618845939636230e-01
-4.988934993743896484e-01 2.631910741329193115e-01 2.670581936836242676e-01
1.638471782207489014e-01 -1.116378903388977051e-01 2.670581936836242676e-01
-3.232012689113616943e-01 -2.271358668804168701e-01 2.025418281555175781e-01
-8.974333852529525757e-02 3.932987749576568604e-01 2.025418281555175781e-01
-1.628973633050918579e-01 -2.342568039894104004e-01 -4.690870046615600586e-01
-2.161349207162857056e-01 -2.342568039894104004e-01 1.057710349559783936e-01
1.014814153313636780e-01 2.243220210075378418e-01 2.670581936836242676e-01
3.595478832721710205e-01 4.466075301170349121e-01 2.025418281555175781e-01
4.109129011631011963e-01 -2.467637211084365845e-01 2.670581936836242676e-01
2.246052175760269165e-01 -2.756128311157226562e-01 -4.718829989433288574e-01
1.800555139780044556e-01 -2.756128311157226562e-01 -2.916612625122070312e-01
-2.590901255607604980e-01 -1.215244457125663757e-01 2.670581936836242676e-01
-3.526131510734558105e-01 -1.386884897947311401e-01 2.670581936836242676e-01
-4.157078266143798828e-01 -2.176042646169662476e-01 2.670581936836242676e-01
2.002120316028594971e-01 -2.756128311157226562e-01 -3.342155218124389648e-01
-5.328672006726264954e-02 3.867007791996002197e-01 2.670581936836242676e-01
-4.651452600955963135e-01 -2.342568039894104004e-01 -2.122077494859695435e-01
-9.791925549507141113e-02 -2.756128311157226562e-01 -1.500135511159896851e-01
-3.898312151432037354e-01 -2.756128311157226562e-01 -5.133946537971496582e-01
-2.246709167957305908e-01 -2.756128311157226562e-01 -5.209454894065856934e-01
-4.805089533329010010e-01 -1.276782304048538208e-01 2.025418281555175781e-01
-3.750313520431518555e-01 -2.342568039894104004e-01 -4.289211034774780273e-01
1.129652485251426697e-01 3.481587469577789307e-01 2.025418281555175781e-01
-5.475612282752990723e-01 4.838360249996185303e-01 2.670581936836242676e-01
-3.168908357620239258e-01 -2.756128311157226562e-01 -8.279733359813690186e-02
5.146698355674743652e-01 -2.756128311157226562e-01 -2.127039879560470581e-01
-2.882695198059082031e-01 6.050246357917785645e-01 2.670581936836242676e-01
4.417113959789276123e-01 -2.756128311157226562e-01 -5.356979966163635254e-01
-1.906298846006393433e-02 -2.756128311157226562e-01 -3.884714245796203613e-01
-5.846711397171020508e-01 -1.065432503819465637e-01 2.025418281555175781e-01
5.754696726799011230e-01 -2.756128311157226562e-01 -1.148059219121932983e-01
6.366215348243713379e-01 -2.342568039894104004e-01 -2.798537015914916992e-01
1.873501390218734741e-01 -6.859628856182098389e-02 2.670581936836242676e-01
-4.909250736236572266e-01 6.306374073028564453e-01 2.670581936836242676e-01
4.373057782649993896e-01 1.482010632753372192e-01 2.670581936836242676e-01
5.274254083633422852e-01 -2.342568039894104004e-01 -5.646077990531921387e-01
2.790689766407012939e-01 -2.231263369321823120e-02 2.670581936836242676e-01
4.715276360511779785e-01 -2.756128311157226562e-01 -7.025325298309326172e-01
-6.094833463430404663e-02 -2.342568039894104004e-01 -1.001901328563690186e-01
-1.957838535308837891e-01 -2.756128311157226562e-01 1.844837367534637451e-01
-6.411597877740859985e-02 7.103911638259887695e-01 2.670581936836242676e-01
-5.829352140426635742e-01 -2.756128311157226562e-01 -1.398295909166336060e-01
6.163112521171569824e-01 -2.756128311157226562e-01 -8.843391388654708862e-02
-1.120932549238204956e-01 -2.756128311157226562e-01 -5.514027550816535950e-02
6.287147998809814453e-01 -5.199596285820007324e-02 2.670581936836242676e-01
4.506536126136779785e-01 -2.342568039894104004e-01 -6.439364552497863770e-01
-3.392183780670166016e-02 2.303674519062042236e-01 2.025418281555175781e-01
1.044045761227607727e-01 1.274517774581909180e-01 2.670581936836242676e-01
-2.620721459388732910e-01 -2.756128311157226562e-01 3.029281087219715118e-02
5.948298573493957520e-01 -2.359129339456558228e-01 2.025418281555175781e-01
-2.054739296436309814e-01 4.329255819320678711e-01 2.025418281555175781e-01
-3.671720027923583984e-01 8.214187622070312500e-02 2.025418281555175781e-01
1.356121301651000977e-01 -2.756128311157226562e-01 -6.428535580635070801e-01
-4.371285140514373779e-01 3.053785264492034912e-01 2.025418281555175781e-01
2.039789110422134399e-01 4.822339713573455811e-01 2.670581936836242676e-01
-4.771083891391754150e-01 -2.756128311157226562e-01 1.595561951398849487e-01
5.320341587066650391e-01 -2.342568039894104004e-01 -1.724431961774826050e-01
2.031086087226867676e-01 3.556185066699981689e-01 2.025418281555175781e-01
-3.885903581976890564e-02 1.011632755398750305e-01 2.025418281555175781e-01
-3.857094049453735352e-01 -2.342568039894104004e-01 -2.884515821933746338e-01
-4.936745166778564453e-01 4.899518489837646484e-01 2.025418281555175781e-01
-2.057776302099227905e-01 -2.342568039894104004e-01 -3.739885091781616211e-01
4.507475793361663818e-01 3.533302545547485352e-01 2.025418281555175781e-01
-2.178337723016738892e-01 -2.342568039894104004e-01 -2.762847840785980225e-01
2.104677557945251465e-01 -2.756128311157226562e-01 -1.214798241853713989e-01
-3.014882802963256836e-01 -2.756128311157226562e-01 1.275305449962615967e-01
-2.202002704143524170e-02 -2.756128311157226562e-01 -5.968717336654663086e-01
4.207605421543121338e-01 -2.756128311157226562e-01 -3.651222288608551025e-01
5.044065117835998535e-01 5.682298541069030762e-01 2.025418281555175781e-01
5.851321816444396973e-01 -2.756128311157226562e-01 8.349999785423278809e-02
-5.042216777801513672e-01 7.219148874282836914e-01 2.594589293003082275e-01
2.083399146795272827e-01 -2.756128311157226562e-01 2.611668605823069811e-04
-5.171604156494140625e-01 -2.756128311157226562e-01 -3.270101249217987061e-01
-3.051906228065490723e-01 5.099622011184692383e-01 2.025418281555175781e-01
3.314400315284729004e-01 -2.342568039894104004e-01 -4.028680026531219482e-01
-5.695542693138122559e-01 -2.756128311157226562e-01 -1.284889527596533298e-03
-1.582649201154708862e-01 -2.342568039894104004e-01 -5.948577523231506348e-01
3.296500444412231445e-01 -2.342568039894104004e-01 -5.326239466667175293e-01
-3.117696046829223633e-01 2.297663837671279907e-01 2.670581936836242676e-01
-6.144598126411437988e-01 1.886783912777900696e-02 2.670581936836242676e-01
2.447370588779449463e-01 1.514913290739059448e-01 2.025418281555175781e-01
2.453947663307189941e-01 -2.756128311157226562e-01 -2.335207909345626831e-01
-5.489687323570251465e-01 -2.342568039894104004e-01 1.794450730085372925e-01
-2.112708985805511475e-01 -2.342568039894104004e-01 1.904145032167434692e-01
-4.819050133228302002e-01 -1.501030623912811279e-01 2.670581936836242676e-01
-5.262060761451721191e-01 9.055915288627147675e-04 2.670581936836242676e-01
-1.240326464176177979e-01 -2.756128311157226562e-01 1.905824840068817139e-01
-1.639840602874755859e-01 6.327917575836181641e-01 2.025418281555175781e-01
1.272184848785400391e-01 -2.756128311157226562e-01 -3.874920308589935303e-03
-6.522625088691711426e-01 4.937567114830017090e-01 2.252475470304489136e-01
1.574589312076568604e-01 3.536055386066436768e-01 2.670581936836242676e-01
-3.384975492954254150e-01 1.353988796472549438e-01 2.025418281555175781e-01
-6.426635384559631348e-01 6.732168197631835938e-01 2.670581936836242676e-01
1.324763745069503784e-01 -2.756128311157226562e-01 -1.817751824855804443e-01
-3.230617642402648926e-01 2.090291529893875122e-01 2.025418281555175781e-01
-2.627070844173431396e-01 -2.342568039894104004e-01 9.909428656101226807e-02
-4.756553471088409424e-01 -2.756128311157226562e-01 -4.137966036796569824e-01
2.451755404472351074e-01 -2.689968049526214600e-01 2.277863174676895142e-01
5.498369336128234863e-01 -2.342568039894104004e-01 -6.467134356498718262e-01
3.405188620090484619e-01 6.327955722808837891e-01 2.670581936836242676e-01
3.630746603012084961e-01 3.812559247016906738e-01 2.025418281555175781e-01
-6.522625088691711426e-01 -2.471167743206024170e-01 -1.201122030615806580e-01
-9.779018908739089966e-02 3.583736717700958252e-01 2.670581936836242676e-01
-1.021383851766586304e-01 4.694318771362304688e-01 2.025418281555175781e-01
3.936653435230255127e-01 -2.342568039894104004e-01 1.676262170076370239e-01
-5.672128200531005859e-01 -2.756128311157226562e-01 -2.372222840785980225e-01
3.250830769538879395e-01 1.895524710416793823e-01 2.670581936836242676e-01
3.699526190757751465e-01 3.291810154914855957e-01 2.670581936836242676e-01
3.155329823493957520e-02 -2.756128311157226562e-01 -5.986986756324768066e-01
-4.760681986808776855e-01 1.971660554409027100e-01 2.670581936836242676e-01
-4.823672473430633545e-01 -2.689968049526214600e-01 2.302520126104354858e-01
3.297202885150909424e-01 4.197163283824920654e-01 2.670581936836242676e-01
9.957186877727508545e-02 -2.522911727428436279e-01 2.025418281555175781e-01
1.444698572158813477e-01 7.071178555488586426e-01 2.670581936836242676e-01
-8.609043806791305542e-02 -2.252092361450195312e-01 2.670581936836242676e-01
-4.650456011295318604e-01 -2.342568039894104004e-01 -3.916745483875274658e-01
1.171459406614303589e-01 4.149813950061798096e-01 2.025418281555175781e-01
-3.003768920898437500e-01 -2.342568039894104004e-01 -4.755027294158935547e-01
-3.008040189743041992e-01 -2.342568039894104004e-01 -6.088898777961730957e-01
-2.338750660419464111e-01 -2.756128311157226562e-01 1.345148086547851562e-01
2.922597154974937439e-02 -2.756128311157226562e-01 -1.392557770013809204e-01
6.943458318710327148e-02 -2.627651691436767578e-01 -7.040035724639892578e-01
5.894405022263526917e-02 6.361828446388244629e-01 2.025418281555175781e-01
-4.844343066215515137e-01 5.621851682662963867e-01 2.670581936836242676e-01
6.128011643886566162e-02 3.851386308670043945e-01 2.670581936836242676e-01
-1.921697556972503662e-01 -2.756128311157226562e-01 -7.030298113822937012e-01
3.083679676055908203e-01 -2.342568039894104004e-01 -6.995315551757812500e-01
-1.290817558765411377e-01 5.854021012783050537e-02 2.025418281555175781e-01
-1.478696912527084351e-01 -2.226647734642028809e-01 2.670581936836242676e-01
2.612756788730621338e-01 7.219148874282836914e-01 2.145656794309616089e-01
-6.415863633155822754e-01 1.071272790431976318e-01 2.670581936836242676e-01
1.911606788635253906e-01 -2.756128311157226562e-01 -3.962643146514892578e-01
4.804726839065551758e-01 -2.756128311157226562e-01 -4.307281374931335449e-01
5.702610611915588379e-01 6.350657939910888672e-01 2.670581936836242676e-01
2.722052633762359619e-01 -2.756128311157226562e-01 -4.745697975158691406e-01
4.704134166240692139e-01 -2.342568039894104004e-01 -2.257973998785018921e-01
4.929867014288902283e-02 2.188772708177566528e-01 2.670581936836242676e-01
5.510119199752807617e-01 -2.342568039894104004e-01 -1.051319763064384460e-01
4.951501488685607910e-01 -2.412325292825698853e-01 2.670581936836242676e-01
-4.717698097229003906e-01 7.219148874282836914e-01 2.135055363178253174e-01
-1.436529308557510376e-01 -2.634241245687007904e-02 2.670581936836242676e-01
-1.364636719226837158e-01 -2.756128311157226562e-01 -2.339873462915420532e-01
-4.286988079547882080e-01 -1.964683234691619873e-01 2.025418281555175781e-01
5.547636151313781738e-01 -3.814610093832015991e-02 2.670581936836242676e-01
-5.001055002212524414e-01 -2.756128311157226562e-01 -1.256377398967742920e-01
5.265498906373977661e-02 -2.756128311157226562e-01 -3.252363204956054688e-01
-2.867215871810913086e-01 -2.342568039894104004e-01 -5.429464951157569885e-02
-7.260452210903167725e-02 6.546756029129028320e-01 2.025418281555175781e-01
-3.925038576126098633e-01 -2.342568039894104004e-01 -2.043926566839218140e-01
2.728259563446044922e-01 -2.756128311157226562e-01 -5.514498353004455566e-01
1.257815957069396973e-01 -2.342568039894104004e-01 -6.391626000404357910e-01
-6.488059759140014648e-01 2.256839871406555176e-01 2.670581936836242676e-01
2.740910649299621582e-01 7.145102024078369141e-01 2.670581936836242676e-01
-9.711586683988571167e-02 1.698533296585083008e-01 2.025418281555175781e-01
5.733963474631309509e-02 -1.137989312410354614e-01 2.670581936836242676e-01
6.328461170196533203e-01 2.289566099643707275e-01 2.025418281555175781e-01
-4.050269126892089844e-01 -2.756128311157226562e-01 -2.602705061435699463e-01
9.848469868302345276e-03 -2.342568039894104004e-01 -7.413606345653533936e-02
-1.992840468883514404e-01 -2.342568039894104004e-01 -1.792784482240676880e-01
-1.853439956903457642e-01 -2.342568039894104004e-01 -4.945175051689147949e-01
-3.134399950504302979e-01 -2.082283347845077515e-01 2.670581936836242676e-01
-4.721361696720123291e-01 4.486831426620483398e-01 2.025418281555175781e-01
-6.200907230377197266e-01 -2.756128311157226562e-01 -3.811578452587127686e-01
-5.422027707099914551e-01 5.327116250991821289e-01 2.025418281555175781e-01
-4.969497621059417725e-01 -2.342568039894104004e-01 -6.647212505340576172e-01
8.368118852376937866e-02 -2.756128311157226562e-01 7.919265888631343842e-03
-6.390978693962097168e-01 4.198254942893981934e-01 2.670581936836242676e-01
-6.522625088691711426e-01 5.592360720038414001e-02 2.501513361930847168e-01
-4.271366298198699951e-01 -2.342568039894104004e-01 -6.201250553131103516e-01
1.090512573719024658e-01 3.082343041896820068e-01 2.670581936836242676e-01
5.299063324928283691e-01 -1.163140088319778442e-01 2.025418281555175781e-01
2.692972719669342041e-01 -2.756128311157226562e-01 1.834852844476699829e-01
-8.647091686725616455e-02 -2.342568039894104004e-01 -2.508472502231597900e-01
3.769131600856781006e-01 -2.756128311157226562e-01 -6.749778985977172852e-01
4.756105542182922363e-01 -2.342568039894104004e-01 1.639409512281417847e-01
-6.464759707450866699e-01 1.974416673183441162e-01 2.025418281555175781e-01
5.691573023796081543e-01 6.478793025016784668e-01 2.025418281555175781e-01
-6.014679074287414551e-01 5.775014162063598633e-01 2.025418281555175781e-01
1.373783648014068604e-01 5.536150336265563965e-01 2.025418281555175781e-01
-5.535983443260192871e-01 1.593363136053085327e-01 2.025418281555175781e-01
-2.001847177743911743e-01 -4.815410822629928589e-02 2.670581936836242676e-01
4.432574510574340820e-01 3.696211874485015869e-01 2.670581936836242676e-01
4.885066151618957520e-01 1.471871733665466309e-01 2.025418281555175781e-01
5.673189759254455566e-01 -2.756128311157226562e-01 1.921617537736892700e-01
-6.283628344535827637e-01 -2.342568039894104004e-01 -3.328336775302886963e-01
7.879799231886863708e-03 -2.342568039894104004e-01 -2.105990797281265259e-01
-5.213885307312011719e-01 -2.342568039894104004e-01 -3.520818948745727539e-01
3.734224438667297363e-01 6.799998879432678223e-01 2.670581936836242676e-01
2.024964541196823120e-01 -2.342568039894104004e-01 -5.397591590881347656e-01
3.048146069049835205e-01 -2.756128311157226562e-01 -6.359053850173950195e-01
-1.221971437335014343e-01 -2.756128311157226562e-01 -3.784225881099700928e-01
2.794993482530117035e-02 3.287643790245056152e-01 2.025418281555175781e-01
1.335004270076751709e-01 -2.756128311157226562e-01 -4.186976552009582520e-01
2.868751287460327148e-01 -2.756128311157226562e-01 -1.550476551055908203e-01
-1.594977676868438721e-01 5.262815952301025391e-01 2.025418281555175781e-01
5.476598143577575684e-01 6.852546334266662598e-02 2.670581936836242676e-01
-4.901885986328125000e-01 -2.756128311157226562e-01 -8.710841648280620575e-04
5.991832613945007324e-01 6.727365851402282715e-01 2.670581936836242676e-01
2.024262249469757080e-01 1.247098818421363831e-01 2.025418281555175781e-01
-3.560801744461059570e-01 -2.756128311157226562e-01 -6.761376857757568359e-01
-4.976037144660949707e-01 1.786275580525398254e-02 2.025418281555175781e-01
3.533314168453216553e-01 2.855498492717742920e-01 2.025418281555175781e-01
-4.562229812145233154e-01 5.166209340095520020e-01 2.025418281555175781e-01
5.093303322792053223e-01 4.448052048683166504e-01 2.670581936836242676e-01
-3.174437209963798523e-02 6.726264953613281250e-01 2.670581936836242676e-01
3.797262310981750488e-01 -2.756128311157226562e-01 8.112730830907821655e-02
3.056080341339111328e-01 -2.342568039894104004e-01 -4.824917614459991455e-01
9.854876995086669922e-02 -2.756128311157226562e-01 -3.391412496566772461e-01
-5.034680366516113281e-01 -2.756128311157226562e-01 -2.127435207366943359e-01
-2.737011909484863281e-01 3.898650109767913818e-01 2.670581936836242676e-01
-2.992380261421203613e-01 2.699855268001556396e-01 2.670581936836242676e-01
-2.785073220729827881e-01 6.912150979042053223e-01 2.025418281555175781e-01
5.980756878852844238e-01 -2.756128311157226562e-01 -2.595805190503597260e-02
-6.169895455241203308e-02 1.605927944183349609e-01 2.670581936836242676e-01
4.887657165527343750e-01 -2.756128311157226562e-01 1.674468368291854858e-01
6.380726695060729980e-01 -2.529346644878387451e-01 3.737640334293246269e-03
2.400865703821182251e-01 -6.433587521314620972e-02 2.670581936836242676e-01
4.203780591487884521e-01 5.219158530235290527e-01 2.025418281555175781e-01
5.970563888549804688e-01 1.395966410636901855e-01 2.025418281555175781e-01
-4.348849058151245117e-01 -2.342568039894104004e-01 -3.141396641731262207e-01
3.835073411464691162e-01 -2.756128311157226562e-01 -5.714544653892517090e-01
9.892365336418151855e-02 -2.342568039894104004e-01 -2.290240526199340820e-01
-1.930353194475173950e-01 5.590209960937500000e-01 2.670581936836242676e-01
-3.155156373977661133e-01 -1.257743984460830688e-01 2.025418281555175781e-01
5.353815555572509766e-01 -1.471761018037796021e-01 2.670581936836242676e-01
3.525370359420776367e-01 -2.756128311157226562e-01 1.280079036951065063e-01
-5.009615421295166016e-01 -2.342568039894104004e-01 -2.685070037841796875e-01
-1.530601829290390015e-01 7.219148874282836914e-01 2.434460967779159546e-01
-2.789182662963867188e-01 -2.756128311157226562e-01 -2.128337472677230835e-01
-5.219836235046386719e-01 -2.689968049526214600e-01 2.485777586698532104e-01
-2.542337179183959961e-01 -2.342568039894104004e-01 -5.701087117195129395e-01
5.069922655820846558e-02 7.219148874282836914e-01 2.548359632492065430e-01
2.891757190227508545e-01 2.268432080745697021e-01 2.670581936836242676e-01
3.299034535884857178e-01 -2.342568039894104004e-01 1.641658693552017212e-01
4.303101599216461182e-01 -9.876079857349395752e-02 2.025418281555175781e-01
-8.618610352277755737e-02 -2.756128311157226562e-01 -6.656238436698913574e-01
-3.485103249549865723e-01 -2.756128311157226562e-01 -1.190663203597068787e-01
3.037298023700714111e-01 -2.342568039894104004e-01 -3.406332135200500488e-01
-5.735166072845458984e-01 -1.112870313227176666e-02 2.670581936836242676e-01
3.395679295063018799e-01 -2.689968049526214600e-01 2.150943279266357422e-01
2.040728777647018433e-01 -2.342568039894104004e-01 -6.309806108474731445e-01
2.038621753454208374e-01 -2.756128311157226562e-01 7.270140200853347778e-02
4.630030095577239990e-01 -2.756128311157226562e-01 6.439885497093200684e-02
-5.929812192916870117e-01 5.349865555763244629e-01 2.670581936836242676e-01
-4.957805573940277100e-01 -2.342568039894104004e-01 -5.282961130142211914e-01
-4.212010800838470459e-01 2.310052514076232910e-01 2.025418281555175781e-01
-6.153249368071556091e-02 -2.342568039894104004e-01 -4.491990804672241211e-01
5.517920851707458496e-01 2.741810083389282227e-01 2.025418281555175781e-01
-1.355383098125457764e-01 3.223229944705963135e-01 2.025418281555175781e-01
7.127466052770614624e-02 1.193884164094924927e-01 2.025418281555175781e-01
3.075735569000244141e-01 2.700947821140289307e-01 2.025418281555175781e-01
-4.127656817436218262e-01 -4.737778007984161377e-02 2.025418281555175781e-01
5.531549453735351562e-01 -1.965091377496719360e-01 2.670581936836242676e-01
-1.129851117730140686e-02 -2.756128311157226562e-01 1.493080705404281616e-01
5.994414091110229492e-01 4.730829596519470215e-01 2.670581936836242676e-01
5.568126440048217773e-01 -2.043845802545547485e-01 2.025418281555175781e-01
5.971010327339172363e-01 -1.999498344957828522e-02 2.025418281555175781e-01
4.577622115612030029e-01 6.963381767272949219e-01 2.025418281555175781e-01
5.978830456733703613e-01 -2.756128311157226562e-01 -4.872267246246337891e-01
-6.133028864860534668e-01 4.568328261375427246e-01 2.025418281555175781e-01
6.380726695060729980e-01 2.372913360595703125e-01 2.438788712024688721e-01
5.091575980186462402e-01 4.738061428070068359e-01 2.025418281555175781e-01
2.048534108325839043e-03 -2.756128311157226562e-01 -3.287374377250671387e-01
-3.640761375427246094e-01 -2.756128311157226562e-01 5.312572792172431946e-02
-8.903342485427856445e-02 2.417082488536834717e-01 2.670581936836242676e-01
2.469322681427001953e-01 -2.756128311157226562e-01 -5.451104044914245605e-02
4.314490258693695068e-01 -2.342568039894104004e-01 -1.491082459688186646e-01
6.342070698738098145e-01 -2.177134156227111816e-01 2.025418281555175781e-01
-6.374478340148925781e-03 -2.342568039894104004e-01 -4.647174477577209473e-01
-3.294319510459899902e-01 -2.342568039894104004e-01 -2.340503036975860596e-02
-5.464242696762084961e-01 5.768588781356811523e-01 2.670581936836242676e-01
2.535663247108459473e-01 -2.188475728034973145e-01 2.670581936836242676e-01
-6.522625088691711426e-01 1.368767768144607544e-01 2.278878688812255859e-01
-4.301717877388000488e-01 -2.702942192554473877e-01 2.025418281555175781e-01
-5.582972168922424316e-01 -2.756128311157226562e-01 -5.046417936682701111e-02
1.938731372356414795e-01 -2.756128311157226562e-01 1.949491947889328003e-01
-2.646745145320892334e-01 2.614491283893585205e-01 2.025418281555175781e-01
2.633455991744995117e-01 -2.342568039894104004e-01 -7.181556522846221924e-02
5.012650489807128906e-01 1.536403298377990723e-01 2.670581936836242676e-01
-3.178237974643707275e-01 -2.342568039894104004e-01 -1.763394474983215332e-01
6.105750799179077148e-01 -2.342568039894104004e-01 -3.969286680221557617e-01
6.380726695060729980e-01 4.713072478771209717e-01 2.575787901878356934e-01
4.632231891155242920e-01 -2.756128311157226562e-01 -3.870326280593872070e-01
4.476682841777801514e-02 3.673421591520309448e-02 2.670581936836242676e-01
5.772296339273452759e-02 -2.342568039894104004e-01 -1.894517093896865845e-01
2.238307595252990723e-01 2.514236867427825928e-01 2.025418281555175781e-01
5.200814604759216309e-01 7.219148874282836914e-01 2.566221654415130615e-01
-2.675179243087768555e-01 -2.756128311157226562e-01 -5.134715437889099121e-01
5.176547169685363770e-01 3.409789800643920898e-01 2.670581936836242676e-01
1.181082949042320251e-01 -1.536725312471389771e-01 2.025418281555175781e-01
1.846832185983657837e-01 2.102187126874923706e-01 2.670581936836242676e-01
5.293748378753662109e-01 -2.342568039894104004e-01 1.832590252161026001e-02
-6.472599506378173828e-01 -2.342568039894104004e-01 4.338153079152107239e-02
3.332584500312805176e-01 -4.798043891787528992e-02 2.025418281555175781e-01
4.563661217689514160e-01 2.700018584728240967e-01 2.670581936836242676e-01
-3.796021044254302979e-01 6.786417365074157715e-01 2.670581936836242676e-01
-5.358733534812927246e-01 1.163646504282951355e-01 2.025418281555175781e-01
1.574959456920623779e-01 -2.342568039894104004e-01 2.240219712257385254e-02
-1.991065740585327148e-01 2.427384704351425171e-01 2.670581936836242676e-01
-2.507951855659484863e-01 -2.342568039894104004e-01 -1.067824214696884155e-01
5.377751588821411133e-01 -2.689968049526214600e-01 2.271513789892196655e-01
9.953533299267292023e-03 2.103282511234283447e-01 2.670581936836242676e-01
-5.532613992691040039e-01 -1.823270618915557861e-01 2.670581936836242676e-01
-1.018987372517585754e-01 -1.430295705795288086e-01 2.025418281555175781e-01
2.872063517570495605e-01 -2.689968049526214600e-01 2.245357334613800049e-01
-1.957411468029022217e-01 6.764749884605407715e-01 2.670581936836242676e-01
-6.262122392654418945e-01 -2.756128311157226562e-01 1.322977691888809204e-01
-4.363512098789215088e-01 -2.756128311157226562e-01 -1.158688887953758240e-01
-3.611862063407897949e-01 -3.541179001331329346e-02 2.025418281555175781e-01
-2.191956937313079834e-01 -1.341775208711624146e-01 2.025418281555175781e-01
-2.609228193759918213e-01 4.245262742042541504e-01 2.025418281555175781e-01
-1.941969990730285645e-01 -2.342568039894104004e-01 6.158011034131050110e-02
4.969353377819061279e-01 -2.197520285844802856e-01 2.025418281555175781e-01
-5.677794218063354492e-01 -2.342568039894104004e-01 -5.670763850212097168e-01
5.934072136878967285e-01 3.589763343334197998e-01 2.025418281555175781e-01
2.560680806636810303e-01 -1.589022204279899597e-02 2.025418281555175781e-01
5.517502427101135254e-01 7.934873551130294800e-02 2.025418281555175781e-01
-1.860804855823516846e-01 -2.756128311157226562e-01 -2.658100128173828125e-01
5.443645715713500977e-01 -2.342568039894104004e-01 -5.199034214019775391e-01
-1.600719690322875977e-01 -1.953132897615432739e-01 2.025418281555175781e-01
4.282278716564178467e-01 -1.949716359376907349e-01 2.670581936836242676e-01
1.178909540176391602e-01 6.143018603324890137e-01 2.025418281555175781e-01
-4.552701413631439209e-01 -1.159185171127319336e-02 2.025418281555175781e-01
-2.793306671082973480e-02 -2.756128311157226562e-01 -5.339772701263427734e-01
-1.009946465492248535e-01 -1.228427141904830933e-01 2.670581936836242676e-01
2.364544421434402466e-01 -2.342568039894104004e-01 -3.569962084293365479e-01
-6.069089770317077637e-01 -9.738466143608093262e-02 2.670581936836242676e-01
-6.136654615402221680e-01 -2.756128311157226562e-01 -6.106817722320556641e-01
3.558939397335052490e-01 -2.342568039894104004e-01 -8.179701864719390869e-02
6.103216409683227539e-01 -2.756128311157226562e-01 -5.633275508880615234e-01
-4.379309713840484619e-02 6.278755664825439453e-01 2.025418281555175781e-01
4.759341776371002197e-01 -2.342568039894104004e-01 -2.813670039176940918e-01
2.881197957322001457e-03 -2.342568039894104004e-01 5.740132927894592285e-02
-3.935288488864898682e-01 6.855177879333496094e-01 2.025418281555175781e-01
8.808424323797225952e-02 -2.756128311157226562e-01 -2.725170552730560303e-01
3.228394985198974609e-01 -2.756128311157226562e-01 8.902645856142044067e-02
-1.584405004978179932e-01 -2.342568039894104004e-01 -1.574997752904891968e-01
2.383231967687606812e-01 4.998213052749633789e-01 2.025418281555175781e-01
7.702701538801193237e-02 9.353458881378173828e-02 2.670581936836242676e-01
-7.490546256303787231e-02 5.225915908813476562e-01 2.670581936836242676e-01
3.617601692676544189e-01 -2.756128311157226562e-01 -1.904746294021606445e-01
-5.234670042991638184e-01 -2.342568039894104004e-01 1.258430778980255127e-01
-1.414463222026824951e-01 -2.756128311157226562e-01 -1.489465683698654175e-02
-3.457950055599212646e-01 6.020103693008422852e-01 2.025418281555175781e-01
-1.583427488803863525e-01 -9.003878384828567505e-02 2.025418281555175781e-01
4.959321916103363037e-01 -2.689968049526214600e-01 2.271419167518615723e-01
1.002504602074623108e-01 -2.756128311157226562e-01 -3.988670185208320618e-02
5.223146677017211914e-01 -2.342568039894104004e-01 -4.274851381778717041e-01
6.272247433662414551e-01 -2.342568039894104004e-01 -3.310237824916839600e-01
4.712713956832885742e-01 5.964592099189758301e-01 2.025418281555175781e-01
-2.724578976631164551e-01 6.621268391609191895e-01 2.670581936836242676e-01
-5.474350452423095703e-01 7.219148874282836914e-01 2.481649219989776611e-01
2.236276566982269287e-01 -2.756128311157226562e-01 -1.835263371467590332e-01
-1.987155526876449585e-01 1.405194252729415894e-01 2.670581936836242676e-01
-3.813417553901672363e-01 1.220372915267944336e-01 2.670581936836242676e-01
6.380726695060729980e-01 7.102677822113037109e-01 2.054877579212188721e-01
-3.638625741004943848e-01 3.724741041660308838e-01 2.670581936836242676e-01
4.543877393007278442e-02 -2.342568039894104004e-01 -3.401096165180206299e-02
-8.095441013574600220e-02 -2.471663616597652435e-02 2.025418281555175781e-01
-5.248849391937255859e-01 3.774188160896301270e-01 2.025418281555175781e-01
4.340694546699523926e-01 -1.570151597261428833e-01 2.025418281555175781e-01
-1.811149120330810547e-01 -2.756128311157226562e-01 -3.420425653457641602e-01
1.023289412260055542e-01 6.216828823089599609e-01 2.670581936836242676e-01
-7.329878397285938263e-03 -2.335800826549530029e-01 2.025418281555175781e-01
-4.690478742122650146e-01 4.372695088386535645e-01 2.670581936836242676e-01
-5.813811719417572021e-02 -6.102073937654495239e-02 2.670581936836242676e-01
1.560799330472946167e-01 -2.285177260637283325e-01 2.670581936836242676e-01
-5.640581250190734863e-01 -2.629977166652679443e-01 -7.040035724639892578e-01
5.482244491577148438e-01 -2.342568039894104004e-01 -3.618659377098083496e-01
3.553235530853271484e-01 -6.067340075969696045e-02 2.670581936836242676e-01
3.886209726333618164e-01 -2.342568039894104004e-01 -2.091131508350372314e-01
3.837085366249084473e-01 -2.756128311157226562e-01 -2.627225185278803110e-04
5.553416013717651367e-01 -2.342568039894104004e-01 -6.906215548515319824e-01
4.453283548355102539e-01 -2.342568039894104004e-01 -5.971393585205078125e-01
3.661420643329620361e-01 -2.756128311157226562e-01 -4.828230440616607666e-01
3.094209358096122742e-02 -2.342568039894104004e-01 -5.442938208580017090e-01
-2.087131291627883911e-01 1.161568015813827515e-01 2.025418281555175781e-01
-3.047227263450622559e-01 4.531741440296173096e-01 2.025418281555175781e-01
-5.778576731681823730e-01 6.887531876564025879e-01 2.025418281555175781e-01
6.084804534912109375e-01 -2.756128311157226562e-01 -3.023543059825897217e-01
3.141611218452453613e-01 -2.342568039894104004e-01 -6.558843851089477539e-01
2.865344285964965820e-01 -2.756128311157226562e-01 -4.020926058292388916e-01
-2.933808369562029839e-03 7.188854813575744629e-01 2.025418281555175781e-01
5.390065163373947144e-02 -2.342568039894104004e-01 -1.333436816930770874e-01
-5.267195105552673340e-01 7.186810672283172607e-02 2.670581936836242676e-01
-9.358966350555419922e-02 -2.342568039894104004e-01 -3.309782147407531738e-01
-3.317163884639739990e-01 5.887593626976013184e-01 2.670581936836242676e-01
4.523913860321044922e-01 5.912545323371887207e-01 2.670581936836242676e-01
3.469175696372985840e-01 -1.289205849170684814e-01 2.025418281555175781e-01
-4.725680053234100342e-01 -1.924807019531726837e-02 2.670581936836242676e-01
-5.346747040748596191e-01 -2.756128311157226562e-01 7.049859315156936646e-02
-4.511720240116119385e-01 5.891447067260742188e-01 2.025418281555175781e-01
-5.668578743934631348e-01 -2.342568039894104004e-01 -2.030100375413894653e-01
-1.401773989200592041e-01 -2.756128311157226562e-01 -1.386540532112121582e-01
1.487112939357757568e-01 -1.548474878072738647e-01 2.670581936836242676e-01
-1.376261003315448761e-02 -2.756128311157226562e-01 -1.881054788827896118e-02
5.498046875000000000e-01 3.563094437122344971e-01 2.025418281555175781e-01
-3.967889249324798584e-01 4.876019656658172607e-01 2.670581936836242676e-01
-2.485212236642837524e-01 3.055648207664489746e-01 2.025418281555175781e-01
4.386696219444274902e-01 8.550634235143661499e-02 2.670581936836242676e-01
-8.973270654678344727e-02 6.054156422615051270e-01 2.670581936836242676e-01
-2.294172644615173340e-01 1.282790768891572952e-02 2.025418281555175781e-01
-3.043402433395385742e-01 -2.342568039894104004e-01 -3.601889014244079590e-01
4.358128905296325684e-01 7.058874517679214478e-02 2.025418281555175781e-01
4.910102784633636475e-01 -2.756128311157226562e-01 -3.147404491901397705e-01
2.521360516548156738e-01 3.499952256679534912e-01 2.025418281555175781e-01
-3.661147654056549072e-01 -4.048366472125053406e-02 2.670581936836242676e-01
-4.668754339218139648e-01 -2.342568039894104004e-01 -5.485840514302253723e-02
1.160763204097747803e-01 -2.342568039894104004e-01 1.691105663776397705e-01
-5.887531042098999023e-01 -2.342568039894104004e-01 -2.990335784852504730e-02
5.874488949775695801e-01 -2.756128311157226562e-01 -2.589611113071441650e-01
6.380726695060729980e-01 -2.367889285087585449e-01 -1.701287776231765747e-01
2.213365882635116577e-01 -2.342568039894104004e-01 1.181071549654006958e-01
-2.073170393705368042e-01 -9.095939248800277710e-02 2.670581936836242676e-01
2.709923088550567627e-01 6.452854275703430176e-01 2.025418281555175781e-01
-1.768592447042465210e-01 -2.756128311157226562e-01 1.047773659229278564e-01
-8.877888321876525879e-02 6.528909504413604736e-02 2.670581936836242676e-01
1.315567195415496826e-01 -2.342568039894104004e-01 -5.078957080841064453e-01
1.880154311656951904e-01 7.219148874282836914e-01 2.586379647254943848e-01
6.327179670333862305e-01 3.238993883132934570e-01 2.670581936836242676e-01
-1.180056389421224594e-02 4.956928193569183350e-01 2.025418281555175781e-01
-6.272429227828979492e-01 -2.342568039894104004e-01 -6.408206224441528320e-01
4.791254177689552307e-02 5.902816653251647949e-01 2.670581936836242676e-01
2.258304804563522339e-01 9.650995582342147827e-02 2.670581936836242676e-01
-2.203972190618515015e-01 7.219148874282836914e-01 2.107352018356323242e-01
3.829806149005889893e-01 -2.342568039894104004e-01 -4.148273169994354248e-01
6.380726695060729980e-01 6.381673812866210938e-01 2.599249184131622314e-01
5.212563872337341309e-01 -2.756128311157226562e-01 -6.187817547470331192e-03
3.403262197971343994e-01 -2.342568039894104004e-01 -3.178078532218933105e-01
2.929653823375701904e-01 -2.756128311157226562e-01 3.308405727148056030e-02
1.503337547183036804e-02 -2.756128311157226562e-01 -6.305178999900817871e-02
1.739168912172317505e-01 -2.689968049526214600e-01 2.576452791690826416e-01
4.378980100154876709e-01 -2.342568039894104004e-01 -1.009123846888542175e-01
2.992757856845855713e-01 6.202715635299682617e-01 2.670581936836242676e-01
1.062790006399154663e-01 -2.211141586303710938e-02 2.670581936836242676e-01
1.013960018754005432e-01 2.221767455339431763e-01 2.025418281555175781e-01
3.090702593326568604e-01 4.723303616046905518e-01 2.025418281555175781e-01
-3.739731013774871826e-01 4.048329293727874756e-01 2.025418281555175781e-01
6.011365056037902832e-01 -8.492895215749740601e-02 2.670581936836242676e-01
1.430111378431320190e-01 1.434369981288909912e-01 2.670581936836242676e-01
-5.243743658065795898e-01 1.459968388080596924e-01 2.670581936836242676e-01
-4.800553321838378906e-01 -2.756128311157226562e-01 -8.317791670560836792e-02
3.484569787979125977e-01 5.598409771919250488e-01 2.670581936836242676e-01
2.772809267044067383e-01 -1.985316276550292969e-01 2.025418281555175781e-01
4.879485666751861572e-01 -2.756128311157226562e-01 -6.180846095085144043e-01
4.887168295681476593e-03 1.279462426900863647e-01 2.670581936836242676e-01
3.753941133618354797e-02 -2.342568039894104004e-01 1.872018724679946899e-01
5.003444552421569824e-01 -2.756128311157226562e-01 -9.841535985469818115e-02
-4.305371642112731934e-01 -2.756128311157226562e-01 -3.778152167797088623e-01
5.611290931701660156e-01 -2.756128311157226562e-01 -4.262646436691284180e-01
-4.048228561878204346e-01 -2.756128311157226562e-01 -2.882046438753604889e-02
-4.677718877792358398e-02 -2.756128311157226562e-01 -4.359452128410339355e-01
-4.552957713603973389e-01 1.216861382126808167e-01 2.025418281555175781e-01
-8.828716725111007690e-02 3.003554344177246094e-01 2.025418281555175781e-01
-2.695442140102386475e-01 -2.756128311157226562e-01 -6.973044574260711670e-02
-4.839246571063995361e-01 -2.342568039894104004e-01 1.520025134086608887e-01
-4.568569958209991455e-01 -2.756128311157226562e-01 -5.081377625465393066e-01
4.042589068412780762e-01 -7.719492167234420776e-02 2.670581936836242676e-01
-5.045675858855247498e-02 -2.756128311157226562e-01 -6.887443065643310547e-01
1.930806636810302734e-01 -2.342568039894104004e-01 -6.112135946750640869e-02
-1.297356635332107544e-01 4.376102685928344727e-01 2.670581936836242676e-01
-2.793610282242298126e-02 3.708198964595794678e-01 2.025418281555175781e-01
4.745381176471710205e-01 -2.756128311157226562e-01 -4.728197157382965088e-01
-5.332738757133483887e-01 -2.342568039894104004e-01 -1.770657747983932495e-01
-3.789320290088653564e-01 -2.342568039894104004e-01 1.184621006250381470e-01
3.656286299228668213e-01 -2.342568039894104004e-01 -6.354489326477050781e-01
-3.551197052001953125e-01 -2.756128311157226562e-01 -2.436780035495758057e-01
-2.641174197196960449e-01 -2.756128311157226562e-01 -6.688345670700073242e-01
2.575553059577941895e-01 4.497480094432830811e-01 2.670581936836242676e-01
-1.161163970828056335e-01 -2.342568039894104004e-01 -3.000870347023010254e-02
7.207634299993515015e-02 -2.381963878870010376e-01 2.670581936836242676e-01
-1.402220129966735840e-01 3.302411139011383057e-01 2.670581936836242676e-01
7.908091694116592407e-02 -2.342568039894104004e-01 1.329317390918731689e-01
6.111801043152809143e-02 -2.756128311157226562e-01 -5.684952735900878906e-01
-2.723392546176910400e-01 3.839901983737945557e-01 2.025418281555175781e-01
-6.521410346031188965e-01 -2.342568039894104004e-01 -2.488316744565963745e-01
-4.782164841890335083e-02 -2.342568039894104004e-01 2.070904523134231567e-02
4.578770399093627930e-01 -2.342568039894104004e-01 -3.095967881381511688e-02
3.561150729656219482e-01 4.666529595851898193e-01 2.670581936836242676e-01
-2.127618938684463501e-01 -2.342568039894104004e-01 -7.116970140486955643e-03
-6.368362307548522949e-01 -2.756128311157226562e-01 -4.389680325984954834e-01
-5.904158353805541992e-01 -2.689968049526214600e-01 2.478365302085876465e-01
-5.251151323318481445e-02 -2.689968049526214600e-01 2.076032310724258423e-01
-5.758788585662841797e-01 1.419182717800140381e-01 2.670581936836242676e-01
1.867228001356124878e-01 -2.493586950004100800e-02 2.670581936836242676e-01
2.782641649246215820e-01 -2.342568039894104004e-01 -5.569952726364135742e-01
-2.392439991235733032e-01 6.245509982109069824e-01 2.025418281555175781e-01
6.380726695060729980e-01 1.150587275624275208e-01 2.511953115463256836e-01
-3.783455193042755127e-01 5.754570960998535156e-01 2.025418281555175781e-01
4.187342524528503418e-01 -2.756128311157226562e-01 1.801094114780426025e-01
8.731206506490707397e-02 -2.756128311157226562e-01 -1.638031899929046631e-01
-2.827297747135162354e-01 -2.756128311157226562e-01 1.708872467279434204e-01
