-1.037086695432662964e-01 7.238132357597351074e-01 5.461059808731079102e-01
1.492174267768859863e-01 -5.545998215675354004e-01 -3.253526985645294189e-02
6.860619038343429565e-02 -6.087129116058349609e-01 -3.457574248313903809e-01
-2.266478240489959717e-01 1.868848316371440887e-02 -5.010221600532531738e-01
7.667654752731323242e-02 -9.671348333358764648e-02 -6.614007949829101562e-01
2.255342304706573486e-01 3.653718531131744385e-01 2.330706417560577393e-01
1.008043065667152405e-02 -3.180151581764221191e-01 1.029845178127288818e-01
-1.817715167999267578e-01 -6.087014079093933105e-01 1.479688286781311035e-02
1.359905898571014404e-01 7.574456930160522461e-01 2.133228480815887451e-01
2.101327627897262573e-01 5.617675185203552246e-01 5.361506938934326172e-01
5.300844833254814148e-02 -5.198135972023010254e-01 8.504246920347213745e-02
1.273710727691650391e-01 -2.817872166633605957e-01 -5.248697996139526367e-01
-1.923267990350723267e-01 1.634574234485626221e-01 2.200104296207427979e-01
3.038590252399444580e-01 6.147645115852355957e-01 2.696067392826080322e-01
1.510010510683059692e-01 -9.812245517969131470e-02 -4.250077605247497559e-01
-3.363158404827117920e-01 3.405573070049285889e-01 4.440443217754364014e-01
-1.406068801879882812e-01 1.355173289775848389e-01 4.940105974674224854e-02
-1.529721822589635849e-02 -6.087977290153503418e-01 -5.457434058189392090e-01
-5.664233118295669556e-02 3.212939202785491943e-01 5.321828126907348633e-01
-3.831953704357147217e-01 7.521526217460632324e-01 5.361227989196777344e-01
9.147936850786209106e-02 -2.117920666933059692e-01 -1.866789609193801880e-01
-2.533875703811645508e-01 7.564411759376525879e-01 4.334669113159179688e-01
-1.364444941282272339e-01 2.019764930009841919e-01 5.302056670188903809e-01
1.776473522186279297e-01 -8.647023141384124756e-02 -5.657579898834228516e-01
-1.926831454038619995e-01 7.307216525077819824e-02 -9.269035607576370239e-02
1.277591884136199951e-01 -5.058788657188415527e-01 -5.964684486389160156e-01
1.577868610620498657e-01 -2.679517269134521484e-01 -4.402252733707427979e-01
6.337092816829681396e-02 -3.389523625373840332e-01 4.101845920085906982e-01
1.814254820346832275e-01 -5.559818148612976074e-01 2.670614793896675110e-02
-1.790855079889297485e-01 -2.705606818199157715e-01 -3.742952048778533936e-01
1.774932444095611572e-01 -5.323441028594970703e-01 -4.858065545558929443e-01
-2.502594888210296631e-01 1.411838680505752563e-01 5.260711908340454102e-01
-1.934713311493396759e-02 2.009558379650115967e-01 2.023043334484100342e-01
-1.867477148771286011e-01 -1.375988125801086426e-01 -3.599165380001068115e-01
-3.048112429678440094e-02 -1.506975740194320679e-01 7.363294064998626709e-02
3.725835308432579041e-02 -2.759548723697662354e-01 3.684902787208557129e-01
-7.842366397380828857e-02 -3.846290111541748047e-01 -1.806510835886001587e-01
-3.728697076439857483e-02 -3.919876366853713989e-02 -1.895988732576370239e-02
4.087584465742111206e-02 -3.249107599258422852e-01 -9.052368812263011932e-03
-2.494139075279235840e-01 1.223992109298706055e-01 -2.218243926763534546e-01
2.927114665508270264e-01 1.354647576808929443e-01 -3.824871182441711426e-01
2.947551012039184570e-01 3.279285430908203125e-01 3.223484754562377930e-01
1.925730556249618530e-01 -3.468119800090789795e-01 -3.101401031017303467e-01
2.063295841217041016e-01 -1.932673305273056030e-01 -2.525444924831390381e-01
5.067665502429008484e-02 -8.387281745672225952e-02 -5.839976072311401367e-01
1.215724125504493713e-01 1.353093981742858887e-01 3.224197626113891602e-01
8.068745583295822144e-02 1.116837486624717712e-01 1.979955285787582397e-01
-4.870930686593055725e-02 -2.117766439914703369e-01 4.690409004688262939e-01
-7.677999138832092285e-02 -2.020833045244216919e-01 7.134757190942764282e-02
9.702849388122558594e-02 7.564411759376525879e-01 3.059512078762054443e-01
-4.003750532865524292e-02 1.353041082620620728e-01 2.568768262863159180e-01
-1.000981032848358154e-01 -1.612239778041839600e-01 -1.318370550870895386e-01
1.248824968934059143e-01 1.699107885360717773e-01 2.103315442800521851e-01
-7.174572348594665527e-02 -3.036509156227111816e-01 -1.411052942276000977e-01
1.859548091888427734e-01 -4.199612438678741455e-01 -2.287594825029373169e-01
-5.934047698974609375e-02 8.394390344619750977e-03 1.997858881950378418e-01
-2.647281438112258911e-02 -5.201583504676818848e-01 4.728797078132629395e-01
-2.382085621356964111e-01 1.007573455572128296e-01 -1.847027391195297241e-01
-2.311352081596851349e-02 -6.087350845336914062e-01 -3.606176376342773438e-01
1.523820906877517700e-01 -5.443167686462402344e-02 -6.590113639831542969e-01
-1.400964707136154175e-01 2.402388304471969604e-01 2.091594785451889038e-01
-4.753358662128448486e-02 -1.308052986860275269e-01 -2.340717911720275879e-01
6.117769517004489899e-03 -2.596517466008663177e-02 -7.613513469696044922e-01
8.629273623228073120e-02 4.962614551186561584e-02 3.454198539257049561e-01
-1.494536697864532471e-01 -3.311745822429656982e-01 -5.022789835929870605e-01
3.302587866783142090e-01 4.110455811023712158e-01 3.972572684288024902e-01
3.040872812271118164e-01 4.400957226753234863e-01 5.334820151329040527e-01
1.520860102027654648e-02 4.237571954727172852e-01 5.338875055313110352e-01
2.597676217555999756e-01 3.649627789855003357e-02 -2.493817657232284546e-01
2.515044510364532471e-01 5.879987478256225586e-01 5.365185737609863281e-01
2.008535563945770264e-01 -9.016650915145874023e-02 -9.430022537708282471e-02
-9.678727947175502777e-03 -2.076970636844635010e-01 -6.162461042404174805e-01
6.244021281599998474e-02 -5.178152322769165039e-01 1.935278326272964478e-01
2.262555658817291260e-01 6.716580390930175781e-01 2.044278979301452637e-01
-2.042920142412185669e-01 2.777864038944244385e-02 -1.121502071619033813e-01
6.998511403799057007e-02 -9.522457420825958252e-02 -1.229215040802955627e-01
-2.765157818794250488e-01 9.991472959518432617e-02 -7.051096856594085693e-02
9.051571786403656006e-02 7.604678273200988770e-01 1.803009808063507080e-01
3.756711259484291077e-02 -1.268942803144454956e-01 -2.007735371589660645e-01
-3.053669445216655731e-02 6.842780709266662598e-01 5.341590642929077148e-01
-1.798058897256851196e-01 -1.236217543482780457e-01 -1.766081154346466064e-01
-6.009465828537940979e-02 4.152753949165344238e-01 1.964189708232879639e-01
1.920183151960372925e-01 -7.717368751764297485e-02 -3.679543435573577881e-01
-1.188992187380790710e-01 -6.088333129882812500e-01 -6.457826495170593262e-01
5.543076992034912109e-02 -4.816161990165710449e-01 2.461106479167938232e-01
6.124156713485717773e-02 4.658216238021850586e-02 1.670452505350112915e-01
-2.108120173215866089e-01 -4.865902289748191833e-02 -4.029726684093475342e-01
-1.111204773187637329e-01 -5.607355833053588867e-01 3.984630405902862549e-01
2.572703659534454346e-01 -8.171072602272033691e-02 -2.342258840799331665e-01
2.207203768193721771e-02 -6.087014079093933105e-01 6.860569864511489868e-02
1.657110154628753662e-01 -5.685807466506958008e-01 2.406182438135147095e-01
8.978578262031078339e-03 -4.985980987548828125e-01 -1.285784095525741577e-01
5.821316502988338470e-03 -3.904305696487426758e-01 2.257609218358993530e-01
2.630844414234161377e-01 1.189032644033432007e-01 -5.469768866896629333e-02
-1.901098042726516724e-01 3.083223104476928711e-01 2.144168913364410400e-01
-6.482950598001480103e-02 -5.034885406494140625e-01 1.979300379753112793e-01
-3.244219124317169189e-01 4.659063369035720825e-02 -4.578726291656494141e-01
1.725863963365554810e-01 1.257239431142807007e-01 -5.717185139656066895e-01
2.962738573551177979e-01 1.336389631032943726e-01 -1.571039557456970215e-01
-2.803612947463989258e-01 7.574485540390014648e-01 2.430952638387680054e-01
-1.034707948565483093e-01 3.356196284294128418e-01 5.324217081069946289e-01
-1.999880522489547729e-01 -4.716744422912597656e-01 -3.782621324062347412e-01
5.285242944955825806e-02 -7.100617140531539917e-02 4.088083803653717041e-01
1.401770561933517456e-01 7.564411759376525879e-01 4.355066716670989990e-01
-3.149770200252532959e-01 7.185981869697570801e-01 5.445795655250549316e-01
-3.420268893241882324e-01 2.799590677022933960e-02 -3.723402023315429688e-01
6.517919152975082397e-02 7.193503379821777344e-01 5.462012887001037598e-01
1.272882521152496338e-01 5.738772153854370117e-01 5.363548398017883301e-01
-1.064274236559867859e-01 -7.717368751764297485e-02 -1.142916008830070496e-01
1.893794983625411987e-01 -2.493018209934234619e-01 -2.683629691600799561e-01
2.600305378437042236e-01 -6.170577928423881531e-02 -4.472942352294921875e-01
-1.948375254869461060e-01 -5.204039216041564941e-01 -4.313823580741882324e-01
-8.368118107318878174e-02 -4.676850885152816772e-02 -4.772591218352317810e-02
6.383577827364206314e-03 -4.006969332695007324e-01 1.422287821769714355e-01
2.467651665210723877e-01 2.666896283626556396e-01 2.609285116195678711e-01
5.971941165626049042e-03 -3.029131889343261719e-01 3.071309626102447510e-01
-1.779866516590118408e-01 -3.355803713202476501e-02 -5.380706191062927246e-01
7.761140167713165283e-02 -1.987973153591156006e-01 -9.363879263401031494e-02
-2.522925436496734619e-01 1.013290882110595703e-01 -3.626526296138763428e-01
-7.056980580091476440e-02 -4.502508938312530518e-01 -6.498997807502746582e-01
-1.651036143302917480e-01 3.086547739803791046e-02 1.968572661280632019e-02
6.884117424488067627e-02 8.367770910263061523e-02 1.185882315039634705e-01
-3.293894231319427490e-01 6.152517795562744141e-01 5.359465479850769043e-01
-1.317812949419021606e-01 -6.087370514869689941e-01 -3.043067753314971924e-01
3.632619231939315796e-02 5.355286002159118652e-01 5.357317328453063965e-01
1.364461183547973633e-01 2.552774362266063690e-02 -6.532830595970153809e-01
1.839381456375122070e-01 3.230871856212615967e-01 5.322126746177673340e-01
1.256182789802551270e-01 -6.087774634361267090e-01 -5.382304787635803223e-01
-7.764762639999389648e-02 7.564411759376525879e-01 4.537655711174011230e-01
-1.486841738224029541e-01 -8.430428057909011841e-02 -4.734752327203750610e-02
1.966661065816879272e-01 -4.940793216228485107e-01 -3.856440782546997070e-01
-1.508029401302337646e-01 -2.418668866157531738e-01 -4.637261927127838135e-01
3.824367001652717590e-02 -4.728522598743438721e-01 -6.693105101585388184e-01
-9.984270483255386353e-02 6.360763311386108398e-01 5.373420119285583496e-01
-7.785044610500335693e-02 -3.578883111476898193e-01 -6.199944019317626953e-01
9.706316888332366943e-02 3.567265719175338745e-02 4.900331050157546997e-02
-7.223765552043914795e-02 1.112732738256454468e-01 4.471637010574340820e-01
-3.465985953807830811e-01 4.412938058376312256e-01 4.771422743797302246e-01
-4.514892026782035828e-02 -4.591005146503448486e-01 2.513218224048614502e-01
1.868061721324920654e-01 -1.492064539343118668e-02 -5.597628355026245117e-01
2.341258078813552856e-01 1.438499242067337036e-01 5.275861024856567383e-01
-1.859262138605117798e-01 -5.570768117904663086e-01 1.052411552518606186e-02
-1.827683001756668091e-01 6.152355577796697617e-03 -6.991898417472839355e-01
3.337557017803192139e-01 6.133102178573608398e-01 5.347301959991455078e-01
1.024650409817695618e-01 -1.488792896270751953e-01 -1.297727786004543304e-02
5.306507647037506104e-02 1.354574412107467651e-01 2.408986352384090424e-02
-3.333015367388725281e-03 -6.087014079093933105e-01 3.662597835063934326e-01
-2.843715548515319824e-01 2.669467628002166748e-01 3.033354878425598145e-01
2.551333308219909668e-01 5.312555003911256790e-03 -3.161303997039794922e-01
2.630040980875492096e-02 7.122601866722106934e-01 1.605473905801773071e-01
-6.468379497528076172e-02 -4.367466270923614502e-01 4.400032758712768555e-01
-9.752380847930908203e-02 -1.131598800420761108e-01 -2.126915603876113892e-01
7.482869923114776611e-02 1.627786606550216675e-01 2.062933593988418579e-01
9.013655036687850952e-02 -6.087014079093933105e-01 -1.850282549858093262e-01
-1.794129610061645508e-01 5.978702306747436523e-01 1.977075636386871338e-01
-3.260918557643890381e-01 5.494960546493530273e-01 3.251414000988006592e-01
-1.564051359891891479e-01 7.969733327627182007e-02 -7.266066074371337891e-01
-2.113445997238159180e-01 -6.087014079093933105e-01 -5.512329936027526855e-02
-3.034037947654724121e-01 6.716580390930175781e-01 2.730410695075988770e-01
-1.776437908411026001e-01 -2.303543239831924438e-01 -3.627075254917144775e-01
1.714788526296615601e-01 -5.067954584956169128e-02 -1.438322216272354126e-01
-1.774309575557708740e-01 1.355602890253067017e-01 -6.287140846252441406e-01
-7.419491559267044067e-02 -3.728704899549484253e-02 2.300398647785186768e-01
-2.143570929765701294e-01 -5.702988505363464355e-01 -3.439410924911499023e-01
-7.711754739284515381e-02 -3.642895072698593140e-02 -6.406205892562866211e-01
1.541088819503784180e-01 -3.722640872001647949e-01 -4.941361546516418457e-01
-2.593846023082733154e-01 2.862525284290313721e-01 2.683460712432861328e-01
2.437984943389892578e-02 1.356029510498046875e-01 7.732342928647994995e-02
7.127977907657623291e-02 -1.875753141939640045e-02 -6.623985171318054199e-01
-2.205246090888977051e-01 1.080408096313476562e-01 -4.838784635066986084e-01
3.295649588108062744e-02 7.586928606033325195e-01 1.927304118871688843e-01
1.372531801462173462e-01 2.539154291152954102e-01 2.089591622352600098e-01
1.361889690160751343e-01 1.354273855686187744e-01 2.306465953588485718e-01
-2.681659162044525146e-01 1.356417536735534668e-01 3.339053690433502197e-01
2.358227372169494629e-01 -5.872314423322677612e-02 -1.046887040138244629e-01
5.882598459720611572e-02 2.691319584846496582e-01 2.016301602125167847e-01
-1.034178212285041809e-01 7.121070623397827148e-01 1.628500968217849731e-01
-6.832594424486160278e-02 -5.088779330253601074e-01 3.982656300067901611e-01
1.787895560264587402e-01 -5.523086786270141602e-01 -1.586544960737228394e-01
-5.844375863671302795e-02 2.286607474088668823e-01 5.306448340415954590e-01
-3.206283748149871826e-01 1.427636742591857910e-01 5.107111334800720215e-01
2.447378933429718018e-01 4.851348102092742920e-01 2.348109185695648193e-01
-9.108991175889968872e-02 -5.509439706802368164e-01 -6.600120067596435547e-01
1.177162677049636841e-01 -6.087014079093933105e-01 1.732580363750457764e-01
1.792562194168567657e-02 -1.143001541495323181e-01 9.598875045776367188e-02
2.941580116748809814e-01 2.800657153129577637e-01 3.266986906528472900e-01
-1.529554128646850586e-01 -1.000832766294479370e-01 -3.096065819263458252e-01
-2.092586010694503784e-01 -4.554745554924011230e-01 -2.976634800434112549e-01
-1.107949856668710709e-02 -3.801160454750061035e-01 1.025636643171310425e-01
2.537127733230590820e-01 5.884013175964355469e-01 2.200826406478881836e-01
-1.215553805232048035e-01 -1.151784732937812805e-01 -3.832335174083709717e-01
-2.331167906522750854e-01 -9.453018754720687866e-02 -3.948867022991180420e-01
9.884581714868545532e-02 -1.244162768125534058e-01 -4.094859063625335693e-01
6.261664628982543945e-02 1.353249996900558472e-01 4.660139381885528564e-01
5.587646272033452988e-03 -4.462550878524780273e-01 -9.347689896821975708e-02
6.305570900440216064e-02 -4.833602905273437500e-01 4.157280623912811279e-01
-3.069511801004409790e-02 7.140690833330154419e-02 3.708058968186378479e-03
-1.110167801380157471e-02 -9.096200764179229736e-02 -6.927979588508605957e-01
7.401161361485719681e-03 -3.069378733634948730e-01 2.330032438039779663e-01
3.224935233592987061e-01 3.975096046924591064e-01 5.271661877632141113e-01
2.685190737247467041e-01 7.594796419143676758e-01 5.378611087799072266e-01
1.580565124750137329e-01 -5.547365546226501465e-01 -1.166527643799781799e-01
-9.456650912761688232e-02 5.609674379229545593e-02 5.256764590740203857e-02
1.491750478744506836e-01 7.231268286705017090e-02 -6.090654730796813965e-01
-2.782839834690093994e-01 -6.238184869289398193e-02 -3.823214769363403320e-01
-3.682247921824455261e-02 -4.158489406108856201e-01 -1.623315215110778809e-01
-2.402589470148086548e-01 7.564411759376525879e-01 3.227077126502990723e-01
-1.282700337469577789e-02 -6.087014079093933105e-01 1.137998327612876892e-01
2.070056647062301636e-01 -4.689855277538299561e-01 -2.903537750244140625e-01
-1.017673313617706299e-02 -5.153911709785461426e-01 -2.216476015746593475e-03
-2.399160861968994141e-01 4.618380665779113770e-01 2.291923612356185913e-01
8.613228797912597656e-02 -7.704944908618927002e-02 6.161379441618919373e-02
-1.789882332086563110e-01 2.588588595390319824e-01 2.139902412891387939e-01
-2.856591641902923584e-01 1.028361693024635315e-01 -5.299393534660339355e-01
2.032621949911117554e-01 -4.283050447702407837e-02 -4.789167344570159912e-01
3.449876233935356140e-02 3.565914928913116455e-01 5.327712893486022949e-01
2.596809566020965576e-01 9.672253578901290894e-02 -5.792082548141479492e-01
-6.209024041891098022e-02 4.646945297718048096e-01 5.345644950866699219e-01
2.374345064163208008e-02 1.353155821561813354e-01 3.874753415584564209e-01
-3.009623885154724121e-01 -1.904259808361530304e-02 -1.604256033897399902e-01
-1.266057342290878296e-01 1.354714035987854004e-01 2.867302000522613525e-01
-2.160871773958206177e-02 1.356029510498046875e-01 3.446513116359710693e-01
-9.962947666645050049e-02 -4.271685704588890076e-02 -7.198217511177062988e-01
-3.890695422887802124e-02 -5.366953015327453613e-01 6.407058238983154297e-02
1.227001696825027466e-01 -1.159316003322601318e-01 -2.761831283569335938e-01
-6.835965812206268311e-02 -5.414757132530212402e-02 3.703952431678771973e-01
-1.129609122872352600e-01 4.740250483155250549e-02 4.796618595719337463e-03
-1.686833500862121582e-01 -5.970742106437683105e-01 2.678819000720977783e-01
5.619794130325317383e-03 -3.438178300857543945e-01 3.143337965011596680e-01
-1.502389833331108093e-02 -4.040898084640502930e-01 6.597169488668441772e-02
3.019665777683258057e-01 3.282482922077178955e-01 5.315067768096923828e-01
1.517772674560546875e-01 3.313785046339035034e-02 -2.782198786735534668e-02
2.644183039665222168e-01 -7.903628051280975342e-02 -3.277903497219085693e-01
2.171082943677902222e-01 -3.992298245429992676e-02 -2.337202578783035278e-01
1.254044771194458008e-01 1.285805106163024902e-01 -3.849794343113899231e-02
-1.179006323218345642e-02 -2.661979794502258301e-01 4.875598251819610596e-01
-2.459372282028198242e-01 2.314163371920585632e-02 -2.360769063234329224e-01
-2.312503606081008911e-01 7.571538686752319336e-01 4.857540130615234375e-01
2.356503456830978394e-01 7.038294076919555664e-01 1.792753189802169800e-01
-3.272874280810356140e-02 -6.087688207626342773e-01 -4.533827602863311768e-01
4.031514376401901245e-02 -6.087014079093933105e-01 4.863935112953186035e-01
7.713631540536880493e-02 -2.460350692272186279e-01 -7.348628342151641846e-02
-5.353391543030738831e-02 2.903850674629211426e-01 2.004359513521194458e-01
1.033641491085290909e-02 -6.087014079093933105e-01 -8.769913017749786377e-02
-9.716942906379699707e-03 1.320843696594238281e-01 4.987102448940277100e-01
1.221069172024726868e-01 1.789874583482742310e-01 5.296162366867065430e-01
1.113869547843933105e-01 -6.087389588356018066e-01 -4.453093409538269043e-01
-3.088355362415313721e-01 -1.407410670071840286e-02 -4.441536366939544678e-01
1.582847684621810913e-01 6.926021724939346313e-02 -6.545957326889038086e-01
-1.435263641178607941e-02 4.160381555557250977e-01 1.954578310251235962e-01
-1.434335112571716309e-01 1.440486162900924683e-01 2.139160782098770142e-01
-7.791554927825927734e-02 1.356029510498046875e-01 3.231497704982757568e-01
-3.958524763584136963e-02 -1.081557422876358032e-01 4.509032964706420898e-01
1.859332248568534851e-02 9.206790477037429810e-02 -6.948974132537841797e-01
2.177169620990753174e-01 -8.298006653785705566e-02 -4.920761883258819580e-01
-2.665248513221740723e-01 -7.879357784986495972e-02 -2.550350129604339600e-01
-1.552937477827072144e-01 -1.827939301729202271e-01 -2.205001562833786011e-01
-8.808820694684982300e-02 4.918698221445083618e-02 2.378561496734619141e-01
-1.775137782096862793e-01 -9.883321076631546021e-02 -9.501415491104125977e-02
-4.902413114905357361e-02 1.361431330442428589e-01 2.184829711914062500e-01
-2.344159781932830811e-01 1.261038780212402344e-01 1.830448769032955170e-02
-2.820698022842407227e-01 4.310640394687652588e-01 5.341099500656127930e-01
-8.185567706823348999e-02 -6.087486147880554199e-01 -3.668073415756225586e-01
-7.577733695507049561e-02 1.975903101265430450e-02 3.556804358959197998e-01
4.164987057447433472e-02 -3.780916631221771240e-01 4.785946011543273926e-01
3.289846479892730713e-01 2.710956931114196777e-01 4.914178848266601562e-01
-1.135873235762119293e-02 1.356029510498046875e-01 2.095793783664703369e-01
1.235534548759460449e-01 7.705186307430267334e-02 -3.814093023538589478e-02
6.464353203773498535e-02 1.543512474745512009e-02 6.170045956969261169e-02
-5.326204001903533936e-02 -1.290341913700103760e-01 -4.443299174308776855e-01
7.065676897764205933e-02 5.506401658058166504e-01 1.912174224853515625e-01
2.906745374202728271e-01 -6.955073680728673935e-03 -1.299540549516677856e-01
1.638571023941040039e-01 1.444427073001861572e-01 5.275273323059082031e-01
1.304168626666069031e-02 1.353070884943008423e-01 2.908386588096618652e-01
8.393879979848861694e-02 3.418979346752166748e-01 5.325266718864440918e-01
-3.487225156277418137e-03 6.303393244743347168e-01 1.849285364151000977e-01
-2.427841275930404663e-01 -6.780973821878433228e-02 -4.865596890449523926e-01
-1.393346637487411499e-01 -4.356362223625183105e-01 -2.022807449102401733e-01
2.103446424007415771e-01 -5.377594828605651855e-01 -3.165503144264221191e-01
-9.711085259914398193e-02 -6.087014079093933105e-01 1.416884958744049072e-01
9.992446005344390869e-02 1.077710837125778198e-01 5.622057989239692688e-02
-6.304283160716295242e-03 7.564411759376525879e-01 4.573549628257751465e-01
2.651040256023406982e-01 -1.903875172138214111e-02 -5.445569157600402832e-01
3.146117329597473145e-01 2.733948267996311188e-02 -1.544660925865173340e-01
1.917708069086074829e-01 -5.890287160873413086e-01 1.609759628772735596e-01
-1.787089407444000244e-01 -4.745867550373077393e-01 -4.737402200698852539e-01
-8.441513776779174805e-02 -2.065432965755462646e-01 -1.608782261610031128e-01
-8.751603960990905762e-02 -6.088217496871948242e-01 -5.760763287544250488e-01
-3.416686058044433594e-01 5.801699161529541016e-01 3.481790721416473389e-01
-1.259306073188781738e-01 4.057833552360534668e-01 5.335889458656311035e-01
2.158485949039459229e-01 -5.976105928421020508e-01 -3.508079098537564278e-04
-6.490163505077362061e-02 4.086458683013916016e-02 1.181143894791603088e-01
1.935910135507583618e-01 -5.191462039947509766e-01 -4.164152145385742188e-01
1.043526679277420044e-01 6.299405694007873535e-01 5.372437834739685059e-01
2.776682674884796143e-01 7.565711736679077148e-01 3.886570334434509277e-01
2.013620436191558838e-01 1.350948363542556763e-01 -5.473218560218811035e-01
-2.392563819885253906e-01 2.443504519760608673e-02 -3.229421004652976990e-02
9.575009346008300781e-03 -4.053004086017608643e-01 -8.770094253122806549e-03
4.378567636013031006e-02 1.695130467414855957e-01 5.293465852737426758e-01
-2.286433279514312744e-01 6.468415260314941406e-01 2.003849297761917114e-01
-8.255727589130401611e-02 -5.530261397361755371e-01 -7.436297833919525146e-02
1.220423951745033264e-01 -5.658992379903793335e-02 -8.840014785528182983e-02
8.928702771663665771e-02 -5.540932416915893555e-01 3.161462843418121338e-01
-3.076018393039703369e-01 4.082719385623931885e-01 3.250171542167663574e-01
-1.075253337621688843e-01 -8.057236671447753906e-02 -5.482676029205322266e-01
1.285884082317352295e-01 -6.087014079093933105e-01 1.413369774818420410e-01
-3.292078152298927307e-02 5.833336114883422852e-01 1.881481111049652100e-01
2.960490621626377106e-02 -1.757991313934326172e-01 -5.891239643096923828e-02
-7.913316786289215088e-02 2.068663984537124634e-01 2.045521438121795654e-01
3.292590975761413574e-01 5.855814218521118164e-01 2.682468891143798828e-01
-1.898825168609619141e-01 -3.325852006673812866e-02 -1.556128263473510742e-01
2.848248481750488281e-01 4.497004449367523193e-01 2.872675955295562744e-01
-8.219458162784576416e-02 -2.523576617240905762e-01 -1.382464021444320679e-01
1.275935471057891846e-01 -5.759809613227844238e-01 -6.178804636001586914e-01
1.348531842231750488e-01 -2.175040394067764282e-01 -4.855735003948211670e-01
-6.365340203046798706e-02 -5.936061739921569824e-01 4.722055792808532715e-01
3.389408886432647705e-01 6.782001256942749023e-01 2.643724679946899414e-01
-3.970418870449066162e-02 -1.411669999361038208e-01 -5.453739687800407410e-02
-1.780155301094055176e-01 6.584330797195434570e-01 5.376868247985839844e-01
5.185391753911972046e-02 -1.498096287250518799e-01 2.315210551023483276e-01
1.560860574245452881e-01 -4.014105498790740967e-01 -2.130585014820098877e-01
-2.684696950018405914e-02 -6.087014079093933105e-01 -1.607549488544464111e-01
1.922398209571838379e-01 -5.955564379692077637e-01 -4.580209255218505859e-01
6.664855033159255981e-02 -6.087014079093933105e-01 3.062516748905181885e-01
6.470198929309844971e-02 -6.087014079093933105e-01 4.451142549514770508e-01
3.726783096790313721e-01 7.610937952995300293e-01 3.641496896743774414e-01
8.442678302526473999e-02 -2.330904155969619751e-01 -5.744689702987670898e-01
-8.281778544187545776e-02 1.344575583934783936e-01 -1.006995234638452530e-02
1.306936740875244141e-01 1.353244334459304810e-01 4.403615295886993408e-01
-2.332053929567337036e-01 3.256238996982574463e-01 2.384561598300933838e-01
2.052836865186691284e-01 7.567252516746520996e-01 2.346317917108535767e-01
2.303784787654876709e-01 -4.270025994628667831e-03 -1.916050910949707031e-01
-4.749053716659545898e-02 -2.800399437546730042e-02 -7.545212507247924805e-01
-7.426444441080093384e-02 -6.087014079093933105e-01 1.996645331382751465e-01
5.703630298376083374e-02 -4.361928999423980713e-01 4.514888823032379150e-01
2.798891067504882812e-01 5.457285046577453613e-01 2.600000798702239990e-01
-5.023963004350662231e-02 -6.087090969085693359e-01 -2.690650224685668945e-01
3.010420501232147217e-01 6.711398363113403320e-01 5.375577807426452637e-01
6.054303608834743500e-03 -5.003932118415832520e-01 4.127368703484535217e-02
-6.120064854621887207e-02 -4.868746101856231689e-01 1.636995375156402588e-01
-2.516867816448211670e-01 7.565374970436096191e-01 2.683480083942413330e-01
-1.579865068197250366e-01 1.907403320074081421e-01 2.129135280847549438e-01
3.017884194850921631e-01 8.273360878229141235e-02 -1.262486279010772705e-01
9.476335346698760986e-02 -5.011906623840332031e-01 -6.385933160781860352e-01
6.272325664758682251e-02 1.356029510498046875e-01 1.140483096241950989e-01
1.552115827798843384e-01 -6.087331175804138184e-01 -4.494206905364990234e-01
8.517200499773025513e-02 -3.261820077896118164e-01 -1.877161860466003418e-01
-6.853955239057540894e-02 -1.325138062238693237e-01 -2.853641211986541748e-01
2.055177092552185059e-01 -1.196009069681167603e-01 -1.180679127573966980e-01
5.289692431688308716e-02 -5.604868009686470032e-02 -7.225539684295654297e-01
-2.604998350143432617e-01 -5.708494409918785095e-02 -1.388016194105148315e-01
5.867237970232963562e-02 -5.445848107337951660e-01 4.372353851795196533e-01
1.810479611158370972e-01 1.087601482868194580e-01 2.258717827498912811e-02
1.187014877796173096e-01 6.980355978012084961e-01 5.460376143455505371e-01
-8.142970502376556396e-02 -2.763189077377319336e-01 1.619064249098300934e-02
-2.228696942329406738e-01 7.560879737138748169e-02 -5.570691227912902832e-01
-6.047102436423301697e-02 1.354466378688812256e-01 -7.365888953208923340e-01
-4.149598255753517151e-02 2.832265496253967285e-01 5.315482020378112793e-01
-2.601194381713867188e-01 6.677450537681579590e-01 2.027473449707031250e-01
-2.437635809183120728e-01 7.267304062843322754e-01 5.460443496704101562e-01
-2.586218416690826416e-01 5.208959057927131653e-02 -4.206142425537109375e-01
6.094966456294059753e-02 -7.931459695100784302e-02 -8.348857611417770386e-02
-6.825737655162811279e-02 6.325025856494903564e-02 1.719174385070800781e-01
1.387257128953933716e-01 -3.505352437496185303e-01 -5.255892276763916016e-01
9.677425026893615723e-02 4.160478115081787109e-01 5.337594151496887207e-01
1.492781043052673340e-01 -6.087014079093933105e-01 -4.978400096297264099e-02
6.572352349758148193e-02 -1.512330472469329834e-01 4.055069386959075928e-01
-9.920553117990493774e-02 -6.087014079093933105e-01 -1.909212917089462280e-01
-1.089015603065490723e-01 5.408322215080261230e-01 1.938446760177612305e-01
-8.478168398141860962e-02 9.277085214853286743e-02 3.900014758110046387e-01
1.153760030865669250e-01 -3.358743786811828613e-01 -5.646263957023620605e-01
-3.376915305852890015e-02 -6.087014079093933105e-01 -8.736012876033782959e-02
-1.680255830287933350e-01 6.846664845943450928e-02 2.227389253675937653e-02
9.327636659145355225e-02 -6.088179349899291992e-01 -6.210056543350219727e-01
-3.254042267799377441e-01 -3.954133950173854828e-03 -2.236677110195159912e-01
1.282619237899780273e-01 1.124756038188934326e-01 2.042362540960311890e-01
1.724188327789306641e-01 7.139390707015991211e-02 -5.925546213984489441e-02
-3.206687867641448975e-01 1.118871793150901794e-01 -4.039906263351440430e-01
-1.146728917956352234e-02 -3.351616859436035156e-01 1.792974621057510376e-01
1.470379978418350220e-01 7.059684395790100098e-01 1.672523170709609985e-01
-1.872841566801071167e-01 -3.395109474658966064e-01 -3.715639412403106689e-01
2.914507985115051270e-01 7.115985751152038574e-01 1.916681230068206787e-01
-6.040100753307342529e-02 -4.764955341815948486e-01 2.930344641208648682e-01
-3.751007318496704102e-01 7.588556408882141113e-01 4.628685116767883301e-01
-2.245102077722549438e-02 7.075690627098083496e-01 1.609721183776855469e-01
-1.874555796384811401e-01 1.353503316640853882e-01 4.582324251532554626e-02
-3.934857845306396484e-01 6.841856837272644043e-01 5.203929543495178223e-01
3.072105348110198975e-01 3.568082153797149658e-01 3.426500558853149414e-01
1.851544976234436035e-01 -7.736148685216903687e-02 -4.132948517799377441e-01
-3.720790147781372070e-02 7.139390707015991211e-02 -7.025769948959350586e-01
5.545638874173164368e-02 -2.230933867394924164e-02 2.375402897596359253e-01
-1.804193705320358276e-01 7.139390707015991211e-02 -5.834246277809143066e-01
1.340923607349395752e-01 -2.108058631420135498e-01 -2.042348086833953857e-01
-1.006229817867279053e-01 7.564411759376525879e-01 4.144538938999176025e-01
6.089166272431612015e-03 -2.292198240756988525e-01 3.207440078258514404e-01
-7.387459278106689453e-02 1.070094760507345200e-02 2.813186645507812500e-01
-1.193208806216716766e-02 -2.210471928119659424e-01 2.179523259401321411e-01
-1.719048321247100830e-01 -6.087100505828857422e-01 -2.036723941564559937e-01
-1.417134553194046021e-01 1.048306375741958618e-01 -6.207928061485290527e-01
-9.288912266492843628e-02 -6.087014079093933105e-01 3.827880620956420898e-01
-1.815211176872253418e-01 6.281051784753799438e-02 -5.510981753468513489e-02
7.462481409311294556e-02 -2.731436491012573242e-01 4.770605266094207764e-02
-1.261164844036102295e-01 2.080479636788368225e-03 -7.440574765205383301e-01
1.055468767881393433e-01 1.353292465209960938e-01 4.903016686439514160e-01
2.910597920417785645e-01 1.965574026107788086e-01 5.302962064743041992e-01
-2.114592045545578003e-01 2.758927345275878906e-01 5.314913392066955566e-01
1.058521717786788940e-01 -1.741407066583633423e-01 -6.386690586805343628e-02
9.250234067440032959e-02 -6.087909340858459473e-01 -5.626819729804992676e-01
-1.348756402730941772e-01 -1.801115646958351135e-02 -5.642765760421752930e-02
-2.649136185646057129e-01 6.104550138115882874e-02 -2.920978963375091553e-01
-6.394145637750625610e-02 -1.179791018366813660e-01 -6.443322300910949707e-01
2.214546352624893188e-01 1.566771045327186584e-02 -5.274122357368469238e-01
3.422403633594512939e-01 6.716580390930175781e-01 4.325770437717437744e-01
8.252914249897003174e-02 -4.185426235198974609e-01 -6.280938386917114258e-01
3.364763855934143066e-01 4.372960627079010010e-01 5.145711302757263184e-01
-2.573795020580291748e-01 5.492013096809387207e-01 2.292588055133819580e-01
-1.583592146635055542e-01 -1.188140809535980225e-01 -1.196120977401733398e-01
1.476880609989166260e-01 1.355437189340591431e-01 -6.685901284217834473e-01
-3.452098369598388672e-01 5.782726407051086426e-01 5.308066606521606445e-01
6.021031364798545837e-02 -1.670714654028415680e-02 3.076770305633544922e-01
-2.276542484760284424e-01 1.990660876035690308e-01 5.303106307983398438e-01
2.528787553310394287e-01 7.725334167480468750e-02 -1.762373149394989014e-01
3.241355717182159424e-01 1.677054464817047119e-01 4.793794751167297363e-01
9.284587204456329346e-02 -6.069148778915405273e-01 -6.691766381263732910e-01
-1.203072294592857361e-01 -2.757805287837982178e-01 -5.443498492240905762e-01
-8.272869884967803955e-02 -6.850314140319824219e-02 9.884904284263029695e-05
-3.096753060817718506e-01 1.915827244520187378e-01 3.594835996627807617e-01
1.592122018337249756e-01 -6.087014079093933105e-01 -3.145923912525177002e-01
-1.549258530139923096e-01 -7.064983993768692017e-02 -1.690951883792877197e-01
1.148906126618385315e-01 1.298892199993133545e-01 -7.321943640708923340e-01
1.167624257504940033e-02 -6.087486147880554199e-01 -4.183326959609985352e-01
-1.934998184442520142e-01 -4.348532259464263916e-01 -3.942183256149291992e-01
-7.218642532825469971e-02 -1.124818697571754456e-01 -1.771917343139648438e-01
6.536159664392471313e-02 -6.087014079093933105e-01 2.517533004283905029e-01
-3.120165467262268066e-01 3.342539966106414795e-01 5.311167240142822266e-01
1.608099341392517090e-01 -6.087014079093933105e-01 -2.326368093490600586e-01
1.856414042413234711e-02 -1.399602890014648438e-01 -2.793053984642028809e-01
1.280009299516677856e-01 -5.542212724685668945e-01 -6.501835584640502930e-02
2.087430506944656372e-01 -5.823228359222412109e-01 -3.610288798809051514e-01
-1.468524187803268433e-01 -4.650070667266845703e-01 -5.567060708999633789e-01
-7.661367207765579224e-02 -6.087235808372497559e-01 -2.966657578945159912e-01
2.605053186416625977e-01 3.444809019565582275e-01 2.703203856945037842e-01
1.316490471363067627e-01 3.350427448749542236e-01 2.056731432676315308e-01
-1.768020689487457275e-01 -4.372098743915557861e-01 -4.650051295757293701e-01
1.085795983672142029e-01 -1.135971099138259888e-01 -6.086937189102172852e-01
4.618546366691589355e-02 -4.620437026023864746e-01 -1.649597436189651489e-01
-1.040630787611007690e-01 -2.352159321308135986e-01 -1.979430615901947021e-01
-1.781975477933883667e-01 7.564411759376525879e-01 2.600241601467132568e-01
-3.052022494375705719e-02 -4.935342371463775635e-01 -6.783739924430847168e-01
-7.306166738271713257e-02 -6.087014079093933105e-01 1.080445051193237305e-01
3.862889856100082397e-02 1.924041844904422760e-02 -7.827932238578796387e-01
-1.131073012948036194e-01 -1.108754724264144897e-01 -6.247676536440849304e-02
7.426155358552932739e-02 -1.258974969387054443e-01 3.592381253838539124e-02
7.152844220399856567e-02 -9.150421619415283203e-02 3.423649966716766357e-01
2.112008035182952881e-01 -5.768795013427734375e-01 2.962223812937736511e-02
-3.135636448860168457e-02 -6.084047555923461914e-01 -6.855777502059936523e-01
-2.204528078436851501e-02 -8.014284819364547729e-02 -7.442519068717956543e-02
-1.782563030719757080e-01 2.805869840085506439e-02 -6.039323210716247559e-01
1.116806939244270325e-01 -6.063580140471458435e-02 -6.867440342903137207e-01
-2.386274933815002441e-01 1.353169083595275879e-01 3.996948003768920898e-01
2.447812408208847046e-01 9.285993874073028564e-02 -3.809057474136352539e-01
-1.668342500925064087e-01 3.883616626262664795e-02 -7.300168275833129883e-01
2.009142339229583740e-01 7.056874781847000122e-02 -6.794208288192749023e-01
3.307460844516754150e-01 6.538777947425842285e-01 2.997201085090637207e-01
-1.199586018919944763e-01 -6.087977290153503418e-01 -4.878164827823638916e-01
4.295088350772857666e-02 -6.087014079093933105e-01 -2.156703472137451172e-01
-3.534970879554748535e-01 7.513321042060852051e-01 2.503404617309570312e-01
1.014759689569473267e-01 -5.536444187164306641e-01 2.833143062889575958e-02
2.108993679285049438e-01 4.333734810352325439e-01 5.340570211410522461e-01
3.461620211601257324e-01 5.999110341072082520e-01 3.640129566192626953e-01
-6.062629166990518570e-03 -1.930198371410369873e-01 2.504512071609497070e-01
1.411478370428085327e-01 -8.956073224544525146e-02 -4.831889569759368896e-01
2.121407687664031982e-01 7.564411759376525879e-01 3.480827510356903076e-01
7.002845406532287598e-02 -1.828854084014892578e-01 1.832585781812667847e-01
-5.703170225024223328e-02 3.620376884937286377e-01 1.982170194387435913e-01
-2.120852023363113403e-01 2.419183999300003052e-01 2.277901023626327515e-01
1.514267176389694214e-01 3.072060942649841309e-01 5.319468975067138672e-01
-2.491548508405685425e-01 6.161839962005615234e-01 2.065370231866836548e-01
1.218854114413261414e-01 -6.087014079093933105e-01 2.977727949619293213e-01
1.628916896879673004e-02 -4.585265517234802246e-01 1.661284118890762329e-01
-1.594320684671401978e-01 1.353702694177627563e-01 1.258661746978759766e-01
-1.689774915575981140e-02 -3.019491732120513916e-01 4.883110225200653076e-01
-5.594911053776741028e-02 -3.270343244075775146e-01 -1.906803995370864868e-02
-3.124663233757019043e-01 2.716593630611896515e-02 -1.379561275243759155e-01
1.964320838451385498e-01 -5.099151730537414551e-01 -2.245614379644393921e-01
6.668550893664360046e-03 -6.087014079093933105e-01 2.682054638862609863e-01
-9.834733605384826660e-02 -5.534257888793945312e-01 -5.440845154225826263e-03
-1.724740117788314819e-01 -2.916269600391387939e-01 -4.145160317420959473e-01
-1.586423516273498535e-01 -5.546951293945312500e-01 -1.060213968157768250e-01
-1.271643191576004028e-01 -2.017818689346313477e-01 -2.084501981735229492e-01
-1.467734426259994507e-01 4.486933723092079163e-02 -6.504352092742919922e-01
1.967142671346664429e-01 -6.087014079093933105e-01 -1.055662557482719421e-01
3.104377686977386475e-01 -3.192370012402534485e-02 -2.880298793315887451e-01
-1.080790981650352478e-01 1.353275179862976074e-01 4.829100668430328369e-01
1.300532370805740356e-01 -1.006071791052818298e-01 -2.063969224691390991e-01
6.333558261394500732e-02 -3.899923563003540039e-01 4.124815464019775391e-01
-2.199294418096542358e-01 -6.068445444107055664e-01 -3.262580931186676025e-01
-2.001411765813827515e-01 1.301754564046859741e-01 -6.596383452415466309e-01
-1.523640751838684082e-01 -6.087177395820617676e-01 -2.368146181106567383e-01
6.134336814284324646e-02 4.599083214998245239e-02 1.262851059436798096e-01
9.378775954246520996e-02 2.250559777021408081e-01 5.305851101875305176e-01
-1.981543451547622681e-01 -5.583442449569702148e-01 -1.190117076039314270e-01
4.630940780043601990e-02 -1.354463547468185425e-01 -2.562494575977325439e-01
9.478124789893627167e-03 1.356029510498046875e-01 1.807160675525665283e-01
7.727847248315811157e-02 -1.239867508411407471e-01 -2.223598510026931763e-01
3.181982338428497314e-01 3.946915734559297562e-03 -4.253708422183990479e-01
3.295162618160247803e-01 7.154932022094726562e-01 2.350382059812545776e-01
1.902718469500541687e-02 -1.876814961433410645e-01 -1.136557385325431824e-02
1.451590359210968018e-01 1.119514554738998413e-01 1.331258118152618408e-01
-3.589567244052886963e-01 7.050207853317260742e-01 2.776782810688018799e-01
-6.221804022789001465e-02 5.927228555083274841e-02 4.101672470569610596e-01
4.971753433346748352e-02 7.539198398590087891e-01 1.581984609365463257e-01
-2.303508520126342773e-01 1.355934292078018188e-01 -5.473940968513488770e-01
1.869544833898544312e-01 7.564411759376525879e-01 2.876451015472412109e-01
9.930616617202758789e-02 7.564411759376525879e-01 3.665853440761566162e-01
-3.848031163215637207e-02 6.564664840698242188e-01 1.839500665664672852e-01
3.333473801612854004e-01 3.425604999065399170e-01 4.686190485954284668e-01
-6.034170743077993393e-03 -6.087794303894042969e-01 -4.992741942405700684e-01
-3.783592209219932556e-02 -6.062521040439605713e-02 -4.737323895096778870e-02
3.563783168792724609e-01 5.923296809196472168e-01 3.132147192955017090e-01
3.258739113807678223e-01 8.983521163463592529e-02 -3.812062442302703857e-01
6.635144352912902832e-02 -5.633358359336853027e-01 -6.783007979393005371e-01
3.255262374877929688e-01 3.532872200012207031e-01 3.980431258678436279e-01
-6.763666868209838867e-02 -1.336916387081146240e-01 3.538746833801269531e-01
-1.779278963804244995e-01 7.546614408493041992e-01 1.659656465053558350e-01
2.623467147350311279e-01 2.685919217765331268e-02 -5.949670672416687012e-01
6.324822455644607544e-02 -2.313260585069656372e-01 1.454338878393173218e-01
4.018715396523475647e-02 5.707202553749084473e-01 5.363038182258605957e-01
2.805488109588623047e-01 7.597387433052062988e-01 2.130406498908996582e-01
-1.748932451009750366e-01 -2.344673313200473785e-02 -6.815212965011596680e-01
-2.570314332842826843e-03 -6.883154809474945068e-02 -6.191950440406799316e-01
1.660255342721939087e-02 1.353249996900558472e-01 4.662691652774810791e-01
-2.470524609088897705e-01 5.956274643540382385e-02 -4.836434721946716309e-01
-2.576173841953277588e-01 1.979587674140930176e-01 2.722185850143432617e-01
5.470596253871917725e-02 -1.844453811645507812e-02 1.985040456056594849e-01
-2.380015105009078979e-01 -1.297620497643947601e-02 -3.826296329498291016e-01
-1.677780747413635254e-01 -2.265424728393554688e-01 -4.051752090454101562e-01
1.515750288963317871e-01 7.564411759376525879e-01 2.955952584743499756e-01
-3.405023217201232910e-01 4.092475473880767822e-01 4.294190704822540283e-01
-6.454482674598693848e-02 -2.199059426784515381e-01 4.346216320991516113e-01
1.432189997285604477e-02 -3.899056613445281982e-01 -1.541592627763748169e-01
1.961571909487247467e-02 -1.142288893461227417e-01 -1.521337330341339111e-01
1.104729995131492615e-01 4.817342162132263184e-01 1.972530186176300049e-01
2.315996587276458740e-01 1.342939436435699463e-01 -1.608031094074249268e-01
-1.739739254117012024e-02 -1.571405380964279175e-01 3.387274742126464844e-01
-3.380879163742065430e-01 3.797601461410522461e-01 5.086559653282165527e-01
1.673694252967834473e-01 -6.087014079093933105e-01 -1.599024981260299683e-02
-5.452896282076835632e-02 7.543532252311706543e-01 5.432514548301696777e-01
2.642834484577178955e-01 1.354935467243194580e-01 -1.303318589925765991e-01
2.337280511856079102e-01 8.028461039066314697e-02 -5.495966672897338867e-01
3.126441836357116699e-01 2.076580524444580078e-01 3.806952834129333496e-01
-1.802219301462173462e-01 1.353137344121932983e-01 3.703865706920623779e-01
8.815387636423110962e-02 7.150369137525558472e-02 -1.401980221271514893e-02
9.922333806753158569e-02 -3.987206816673278809e-01 -6.044494509696960449e-01
5.333540961146354675e-02 3.037438690662384033e-01 2.001720666885375977e-01
9.324994869530200958e-03 1.356029510498046875e-01 1.329245269298553467e-01
-2.226967550814151764e-02 1.354399025440216064e-01 -7.448481917381286621e-01
2.085340619087219238e-01 2.781819701194763184e-01 2.264889925718307495e-01
-2.748317644000053406e-02 -4.525044262409210205e-01 1.821943819522857666e-01
-9.469266980886459351e-02 -5.540990233421325684e-01 2.968376278877258301e-01
-1.535640805959701538e-01 -1.005628779530525208e-01 -3.445998430252075195e-01
-2.765542864799499512e-01 1.346996724605560303e-01 -5.173693895339965820e-01
-2.165812440216541290e-02 -6.087014079093933105e-01 -2.212426960468292236e-01
-2.250028997659683228e-01 4.290406107902526855e-01 2.213654667139053345e-01
-3.317874968051910400e-01 4.100911915302276611e-01 3.853363394737243652e-01
9.540379792451858521e-02 1.053163409233093262e-01 3.220268189907073975e-01
2.640552222728729248e-01 4.982703924179077148e-02 -4.205949604511260986e-01
3.573558032512664795e-01 6.722936630249023438e-01 3.550322949886322021e-01
-8.514158427715301514e-02 -5.536434650421142578e-01 3.469559550285339355e-01
-6.688681989908218384e-02 8.004230260848999023e-02 4.051189869642257690e-02
-2.905246019363403320e-01 3.202518820762634277e-01 3.077858388423919678e-01
1.623238772153854370e-01 -5.523163676261901855e-01 -5.384587645530700684e-01
7.915405184030532837e-02 1.313604265451431274e-01 -1.496881712228059769e-02
-9.876973927021026611e-02 7.600045800209045410e-01 1.838884502649307251e-01
-2.371530383825302124e-01 6.983026117086410522e-02 -1.556908339262008667e-01
-6.866340339183807373e-02 -5.308427214622497559e-01 2.747447490692138672e-01
4.890228807926177979e-02 -1.817307025194168091e-01 2.131966650485992432e-01
-1.843525469303131104e-01 6.075183153152465820e-01 5.368922948837280273e-01
3.407851755619049072e-01 4.552304148674011230e-01 4.351272284984588623e-01
-6.073153764009475708e-02 -1.350380182266235352e-01 4.367499947547912598e-01
-1.436043716967105865e-02 -3.382252454757690430e-01 6.821854412555694580e-02
-4.615398496389389038e-02 -4.905496537685394287e-01 9.067066758871078491e-02
-3.084849715232849121e-01 6.346432566642761230e-01 2.623220682144165039e-01
2.113408176228404045e-03 -6.078221201896667480e-01 -7.016466856002807617e-01
-6.829252839088439941e-02 -2.160392105579376221e-01 -1.652754843235015869e-02
-1.902812272310256958e-01 -6.087014079093933105e-01 -9.860400110483169556e-02
-1.182452961802482605e-01 -1.484372615814208984e-01 -5.507350564002990723e-01
2.679311856627464294e-02 -1.898426562547683716e-01 3.514323234558105469e-01
3.281367197632789612e-02 -6.087014079093933105e-01 3.587855026125907898e-02
2.056656219065189362e-02 -2.453108429908752441e-01 1.745543330907821655e-01
2.876948118209838867e-01 4.727824032306671143e-01 5.347157120704650879e-01
-1.316108107566833496e-01 7.564411759376525879e-01 3.960428237915039062e-01
-2.105442881584167480e-01 3.934290409088134766e-01 5.334059000015258789e-01
-1.698823869228363037e-01 6.719295978546142578e-01 1.816146224737167358e-01
-5.150895938277244568e-02 -6.087014079093933105e-01 3.938297033309936523e-01
-1.201348453760147095e-01 5.823060274124145508e-01 1.920928508043289185e-01
3.907628655433654785e-01 7.235859036445617676e-01 4.040575325489044189e-01
3.167777061462402344e-01 7.568187117576599121e-01 3.962518274784088135e-01
-1.041372418403625488e-01 1.088594198226928711e-01 3.583337068557739258e-01
-7.818791270256042480e-02 -1.990101337432861328e-01 -7.956279814243316650e-02
3.616386055946350098e-01 6.740175485610961914e-01 4.983163475990295410e-01
-6.280917674303054810e-02 1.347146183252334595e-01 -6.939747929573059082e-01
1.696798354387283325e-01 6.257848739624023438e-01 5.371783375740051270e-01
2.123647555708885193e-02 -2.865303754806518555e-01 1.105215251445770264e-01
-1.946212537586688995e-02 1.356029510498046875e-01 4.621713981032371521e-02
-5.596769601106643677e-02 -3.820678591728210449e-02 7.357420027256011963e-02
-1.972163170576095581e-01 7.569496631622314453e-01 4.822465479373931885e-01
3.022815287113189697e-01 2.375267893075942993e-01 5.300505757331848145e-01
5.333945900201797485e-02 -3.350740671157836914e-01 -1.737140864133834839e-01
4.340408835560083389e-03 -3.166706860065460205e-01 -6.376109719276428223e-01
2.477336116135120392e-02 -7.163313031196594238e-02 4.320482909679412842e-01
-2.838630378246307373e-01 -2.111224271357059479e-02 -5.071107149124145508e-01
3.186836242675781250e-01 5.826719403266906738e-01 5.356470346450805664e-01
-2.564366459846496582e-01 1.207238584756851196e-01 -3.213541507720947266e-01
3.004349023103713989e-02 -4.916247446089982986e-03 1.407332438975572586e-02
-1.439372003078460693e-01 -4.243563860654830933e-02 -9.554470330476760864e-02
2.779075177386403084e-03 -1.446783840656280518e-01 -3.237955272197723389e-01
-1.805667132139205933e-01 -6.087014079093933105e-01 -1.616217195987701416e-01
9.350653737783432007e-02 -2.001311779022216797e-01 -1.477259397506713867e-01
-2.796910107135772705e-01 -5.750003084540367126e-02 -1.986095160245895386e-01
1.925778537988662720e-01 -7.775346189737319946e-02 -3.249984085559844971e-01
3.660818189382553101e-02 -4.732708632946014404e-02 -2.777210064232349396e-02
7.683333754539489746e-02 7.564411759376525879e-01 2.614119648933410645e-01
-9.243647754192352295e-02 -6.087014079093933105e-01 5.844624340534210205e-02
-2.172029763460159302e-01 -1.135508790612220764e-01 -3.008792102336883545e-01
7.521586120128631592e-02 1.353219300508499146e-01 4.283982217311859131e-01
-2.400817424058914185e-01 1.074456200003623962e-01 -2.478378266096115112e-02
