5.495033264160156250e-01 -3.275620937347412109e-01 -2.088611945509910583e-02
-4.054874181747436523e-01 4.113968908786773682e-01 2.445288002490997314e-03
-5.541901588439941406e-01 -2.134857475757598877e-01 -2.376729622483253479e-02
-5.962836742401123047e-01 -2.680144906044006348e-01 -3.570252656936645508e-02
1.758401393890380859e-01 6.725863367319107056e-02 -6.840728223323822021e-02
-5.149862170219421387e-01 1.728833653032779694e-02 -1.796838343143463135e-01
6.825297474861145020e-01 -5.564613342285156250e-01 2.151618711650371552e-02
6.825297474861145020e-01 -1.124368328601121902e-02 2.774553000926971436e-02
-5.149862170219421387e-01 -3.334839940071105957e-01 1.350793838500976562e-01
-4.833429455757141113e-01 3.004501946270465851e-02 1.245946139097213745e-01
6.825297474861145020e-01 4.575857520103454590e-02 5.976020917296409607e-02
6.825297474861145020e-01 1.318778395652770996e-01 -1.286098212003707886e-01
-6.276789903640747070e-01 -4.616986513137817383e-01 -2.088611945509910583e-02
-5.149862170219421387e-01 -1.276805102825164795e-01 1.594182103872299194e-01
-2.812380902469158173e-02 3.861251473426818848e-01 -5.415035784244537354e-02
-6.741791367530822754e-01 2.875189781188964844e-01 -1.971273915842175484e-03
6.732622385025024414e-01 -2.039933055639266968e-01 -1.160965859889984131e-01
-6.741791367530822754e-01 -1.293767690658569336e-01 1.061423271894454956e-01
5.376595258712768555e-01 4.113968908786773682e-01 1.541831046342849731e-01
5.233367681503295898e-01 3.870934545993804932e-01 1.918073147535324097e-01
-6.860592961311340332e-01 -1.513077467679977417e-01 -1.217141449451446533e-01
-1.784822046756744385e-01 3.123321756720542908e-02 -8.422347158193588257e-02
3.358741477131843567e-02 -6.289388984441757202e-02 -2.017562091350555420e-01
4.092350304126739502e-01 4.311330989003181458e-02 -1.374976336956024170e-01
6.706496477127075195e-01 -1.021904721856117249e-01 3.305744007229804993e-02
-7.274417579174041748e-02 -6.078049540519714355e-02 -2.019724100828170776e-01
6.825297474861145020e-01 -4.525209963321685791e-01 1.811386831104755402e-02
6.433258056640625000e-01 -4.159832596778869629e-01 -2.903966605663299561e-02
-9.180254489183425903e-02 2.175248228013515472e-03 -1.943354606628417969e-01
-6.741791367530822754e-01 3.140451908111572266e-01 1.622042953968048096e-01
2.230180203914642334e-01 4.311330989003181458e-02 -1.933562010526657104e-01
6.576395034790039062e-01 -4.014904052019119263e-02 -1.349359452724456787e-01
5.954693555831909180e-01 1.594934426248073578e-02 -1.491914987564086914e-01
-3.366641402244567871e-01 4.311330989003181458e-02 -1.461238116025924683e-01
-4.739364385604858398e-01 4.301792010664939880e-02 -2.167593836784362793e-01
6.706496477127075195e-01 1.808979511260986328e-01 -5.448583140969276428e-02
-4.313332736492156982e-01 8.372359909117221832e-03 2.072120010852813721e-01
-5.892544388771057129e-01 4.232769310474395752e-01 -2.489680424332618713e-02
5.417818427085876465e-01 -1.921133100986480713e-01 -6.949191540479660034e-02
6.706496477127075195e-01 2.982244789600372314e-01 -1.251569986343383789e-01
-6.741791367530822754e-01 -6.097835898399353027e-01 9.205500036478042603e-02
-5.722355246543884277e-01 -6.810250878334045410e-01 -3.514185547828674316e-02
-5.149862170219421387e-01 -5.094906091690063477e-01 1.104655042290687561e-01
-2.301112711429595947e-01 -1.192651614546775818e-01 -1.943354606628417969e-01
-5.268663167953491211e-01 -3.956868052482604980e-01 1.390427500009536743e-01
-2.387892305850982666e-01 2.618466019630432129e-01 -6.840728223323822021e-02
-5.268663167953491211e-01 -8.816510438919067383e-02 -1.148884072899818420e-01
-3.857251405715942383e-01 4.113968908786773682e-01 1.012967303395271301e-01
-4.793668687343597412e-01 3.004501946270465851e-02 -2.700102888047695160e-02
-2.242584079504013062e-01 1.480610221624374390e-01 -6.840728223323822021e-02
-6.860592961311340332e-01 3.144476711750030518e-01 -4.412087053060531616e-02
3.796810507774353027e-01 3.769649192690849304e-02 -1.943354606628417969e-01
-3.365496695041656494e-01 -7.682742550969123840e-03 2.072120010852813721e-01
-5.268663167953491211e-01 -3.649726137518882751e-02 -1.961190067231655121e-02
2.244078814983367920e-01 1.213022097945213318e-01 -6.840728223323822021e-02
6.706496477127075195e-01 -6.800321936607360840e-01 9.884504228830337524e-02
6.825297474861145020e-01 9.993932396173477173e-02 6.604327261447906494e-02
-5.603808760643005371e-01 -1.921133100986480713e-01 -1.140799298882484436e-01
-2.683059275150299072e-01 6.492131948471069336e-02 -6.840728223323822021e-02
-6.029913425445556641e-01 -3.071375787258148193e-01 -2.088611945509910583e-02
-1.947789341211318970e-01 3.123321756720542908e-02 -1.646979302167892456e-01
2.855778634548187256e-01 -2.195919491350650787e-02 2.072120010852813721e-01
-6.741791367530822754e-01 1.693067252635955811e-01 9.986590594053268433e-02
-5.268663167953491211e-01 2.786656618118286133e-01 4.335137456655502319e-02
5.213673710823059082e-01 4.232769310474395752e-01 -9.427766501903533936e-02
6.706496477127075195e-01 -4.043947756290435791e-01 2.872146898880600929e-03
-6.860592961311340332e-01 -2.015587836503982544e-01 1.712937653064727783e-01
-5.007297396659851074e-01 -4.224563390016555786e-02 7.754445541650056839e-03
6.076283454895019531e-01 -4.650742411613464355e-01 -3.220190480351448059e-02
5.233367681503295898e-01 -6.792826205492019653e-02 1.054439470171928406e-01
4.971992969512939453e-01 8.451398462057113647e-03 1.182643249630928040e-01
5.872328877449035645e-01 -7.053339481353759766e-01 2.620195597410202026e-02
6.824416518211364746e-01 4.232769310474395752e-01 5.240387469530105591e-02
-6.860592961311340332e-01 8.302304893732070923e-02 -2.481741085648536682e-02
4.663953781127929688e-01 3.123321756720542908e-02 -1.739372909069061279e-01
7.731917500495910645e-02 4.232769310474395752e-01 6.984502077102661133e-02
-5.231274664402008057e-02 -2.277494408190250397e-02 -1.943354606628417969e-01
-6.860592961311340332e-01 -5.785427689552307129e-01 1.823208630084991455e-01
6.706496477127075195e-01 2.264824956655502319e-01 1.483311802148818970e-01
-5.268663167953491211e-01 -5.527931451797485352e-01 3.466944769024848938e-02
-1.196395233273506165e-01 4.113968908786773682e-01 -2.128227055072784424e-02
5.114557743072509766e-01 -1.214255243539810181e-01 -2.037292569875717163e-01
-1.627959012985229492e-01 4.232769310474395752e-01 1.100658997893333435e-01
-5.895778536796569824e-01 -5.473455190658569336e-01 -2.088611945509910583e-02
1.465877741575241089e-01 -1.017716079950332642e-01 -2.085928320884704590e-01
5.244813561439514160e-01 -1.968563646078109741e-01 -1.349359452724456787e-01
6.432186365127563477e-01 -1.056243181228637695e-01 -1.397595554590225220e-01
-6.323000192642211914e-01 -6.499366462230682373e-02 -1.349359452724456787e-01
6.071150302886962891e-01 4.232769310474395752e-01 1.313831061124801636e-01
3.938293084502220154e-02 4.232769310474395752e-01 5.738882720470428467e-02
5.158633589744567871e-01 -7.172139883041381836e-01 1.906950771808624268e-02
4.119711518287658691e-01 1.344306673854589462e-02 -2.085928320884704590e-01
4.971992969512939453e-01 -1.235020384192466736e-01 8.693324774503707886e-02
8.112911134958267212e-02 3.123321756720542908e-02 8.296489715576171875e-02
-6.586091518402099609e-01 4.113968908786773682e-01 -5.441142991185188293e-02
6.792277097702026367e-01 -6.348791718482971191e-01 -2.088611945509910583e-02
6.825297474861145020e-01 4.933041334152221680e-02 -2.732823416590690613e-02
-5.033113956451416016e-01 -3.272648155689239502e-02 -1.943354606628417969e-01
6.825297474861145020e-01 -7.679444551467895508e-02 -1.202756073325872421e-02
2.510440349578857422e-01 2.710033059120178223e-01 -5.719295889139175415e-02
-1.083508208394050598e-01 -6.159987300634384155e-02 -1.969852745532989502e-01
-3.452875912189483643e-01 4.113968908786773682e-01 6.196372210979461670e-02
1.799624711275100708e-01 2.869221270084381104e-01 -5.415035784244537354e-02
5.233367681503295898e-01 -2.932235598564147949e-01 3.276726976037025452e-02
-3.211994767189025879e-01 1.191456690430641174e-01 -6.688479334115982056e-02
-5.268663167953491211e-01 -3.787105977535247803e-01 -7.242367602884769440e-03
-6.860592961311340332e-01 -4.486802816390991211e-01 3.524849563837051392e-02
-1.701085567474365234e-01 3.004501946270465851e-02 -3.889737278223037720e-02
-6.756317019462585449e-01 -3.351136445999145508e-01 -2.088611945509910583e-02
-3.644739687442779541e-01 -1.029573380947113037e-01 -2.085928320884704590e-01
4.508052021265029907e-02 3.123321756720542908e-02 6.310540717095136642e-03
-5.149862170219421387e-01 -3.852329254150390625e-01 1.931326687335968018e-01
-3.066923022270202637e-01 -1.076177209615707397e-01 -2.085928320884704590e-01
-3.060455024242401123e-01 3.004501946270465851e-02 2.070130556821823120e-01
-8.984257280826568604e-02 4.305334389209747314e-02 -1.943354606628417969e-01
5.233367681503295898e-01 8.866528049111366272e-03 1.753098219633102417e-01
-3.091431856155395508e-01 4.113968908786773682e-01 1.244792491197586060e-01
1.822843551635742188e-01 -2.551558800041675568e-02 2.060237973928451538e-01
-5.007297396659851074e-01 -1.386404931545257568e-01 -3.213086351752281189e-02
-7.934653013944625854e-02 2.678565979003906250e-01 -6.840728223323822021e-02
5.763919949531555176e-01 -3.070203959941864014e-01 -3.786488249897956848e-02
5.494723916053771973e-01 -1.448389291763305664e-01 -1.351103484630584717e-01
-5.268663167953491211e-01 1.363292615860700607e-02 8.688101172447204590e-02
1.886622458696365356e-01 1.676970571279525757e-01 -6.087661907076835632e-02
6.825297474861145020e-01 2.271603420376777649e-02 1.344671249389648438e-01
-6.507015228271484375e-01 -7.053339481353759766e-01 8.382869511842727661e-02
6.706496477127075195e-01 -3.250221908092498779e-01 1.736537963151931763e-01
-6.741791367530822754e-01 2.348179817199707031e-01 1.600113958120346069e-01
4.971992969512939453e-01 -8.934757113456726074e-02 4.196706041693687439e-02
6.825297474861145020e-01 3.208864033222198486e-01 1.457830965518951416e-01
3.254730701446533203e-01 3.123321756720542908e-02 -7.319819182157516479e-02
6.706496477127075195e-01 1.917933374643325806e-01 1.579338908195495605e-01
1.217311546206474304e-01 2.898219414055347443e-02 -2.256608158349990845e-01
3.066200911998748779e-01 7.475113868713378906e-02 -5.415035784244537354e-02
6.825297474861145020e-01 -1.485048234462738037e-01 1.645461618900299072e-01
4.250921010971069336e-01 -1.396737098693847656e-01 -2.085928320884704590e-01
6.825297474861145020e-01 -1.817120164632797241e-01 2.013064622879028320e-01
2.971945106983184814e-01 1.342125982046127319e-02 -1.931481808423995972e-01
6.706496477127075195e-01 2.314986735582351685e-01 4.001108929514884949e-03
6.113101243972778320e-01 4.232769310474395752e-01 -2.018492110073566437e-02
-5.530019402503967285e-01 2.632073760032653809e-01 -1.413628906011581421e-01
1.109674870967864990e-01 4.170317053794860840e-01 2.072120010852813721e-01
-5.316426753997802734e-01 -3.140214681625366211e-01 -3.514185547828674316e-02
6.493657827377319336e-01 4.113968908786773682e-01 -5.900994315743446350e-02
3.587633073329925537e-01 -1.866351068019866943e-02 -1.979590803384780884e-01
6.142142415046691895e-01 -2.357101887464523315e-01 -9.774140268564224243e-02
5.233367681503295898e-01 -6.316616535186767578e-01 2.884456142783164978e-02
1.917290091514587402e-01 3.230574727058410645e-01 -5.415035784244537354e-02
-5.559533238410949707e-01 -7.053339481353759766e-01 -1.629260252229869366e-03
6.825297474861145020e-01 -1.952852755784988403e-01 -2.915464574471116066e-03
6.445131301879882812e-01 2.479543983936309814e-01 -1.359279155731201172e-01
1.847870051860809326e-01 3.123321756720542908e-02 1.338112652301788330e-01
6.825297474861145020e-01 -5.642617940902709961e-01 8.992561697959899902e-02
-1.397342830896377563e-01 2.919628620147705078e-01 -5.415035784244537354e-02
3.949812948703765869e-01 4.232769310474395752e-01 7.396063208580017090e-02
-5.268663167953491211e-01 -2.426128685474395752e-01 4.122098907828330994e-02
5.958408713340759277e-01 -5.377700328826904297e-01 -3.514185547828674316e-02
-5.848178267478942871e-01 4.232769310474395752e-01 1.629055738449096680e-01
5.126448869705200195e-01 -4.663859605789184570e-01 -3.219145908951759338e-02
-5.149862170219421387e-01 -2.640048265457153320e-01 1.323887109756469727e-01
-5.268663167953491211e-01 3.402507901191711426e-01 -3.030361235141754150e-02
6.706496477127075195e-01 -8.793891221284866333e-02 6.542310118675231934e-02
-5.149862170219421387e-01 3.761317813768982887e-03 2.062200158834457397e-01
8.518144488334655762e-03 2.377993762493133545e-01 -6.840728223323822021e-02
-6.252726316452026367e-01 -7.072916030883789062e-01 2.072120010852813721e-01
-5.268663167953491211e-01 -9.651558846235275269e-02 1.864586323499679565e-01
6.433258056640625000e-01 -6.899319291114807129e-01 -3.387735784053802490e-02
4.679206013679504395e-01 -2.617145888507366180e-02 -1.931481808423995972e-01
-4.766543507575988770e-01 4.232769310474395752e-01 1.559517532587051392e-01
3.872598707675933838e-01 3.004501946270465851e-02 1.592138260602951050e-01
1.617680788040161133e-01 2.043322660028934479e-02 -1.931481808423995972e-01
4.214321672916412354e-01 4.113968908786773682e-01 8.612694591283798218e-02
-3.826547265052795410e-01 5.533605348318815231e-03 -1.943354606628417969e-01
2.389322966337203979e-01 2.243704646825790405e-01 -6.840728223323822021e-02
-2.348667383193969727e-01 3.004501946270465851e-02 -1.542113423347473145e-01
5.506606101989746094e-01 -2.799518108367919922e-01 -2.357707731425762177e-02
-5.268663167953491211e-01 -3.754703104496002197e-01 8.835472166538238525e-02
-6.741791367530822754e-01 1.240246966481208801e-01 1.918772459030151367e-01
-6.860592961311340332e-01 3.789169788360595703e-01 -1.221301928162574768e-01
5.233367681503295898e-01 1.006560400128364563e-01 -2.754062041640281677e-02
4.484843909740447998e-01 1.925775222480297089e-02 -2.056214511394500732e-01
5.114557743072509766e-01 2.496204227209091187e-01 1.846799850463867188e-01
5.971853733062744141e-01 4.113968908786773682e-01 -9.698925167322158813e-02
4.971992969512939453e-01 -7.077739574015140533e-03 1.120155956596136093e-02
-5.021822452545166016e-01 7.136642932891845703e-02 -5.415035784244537354e-02
-6.155817508697509766e-01 1.237694323062896729e-01 -1.491914987564086914e-01
-5.300676822662353516e-02 2.206160277128219604e-01 -5.415035784244537354e-02
-9.392630308866500854e-02 3.123321756720542908e-02 4.850400984287261963e-02
-6.860592961311340332e-01 1.209197789430618286e-01 -1.476426720619201660e-01
-6.519015431404113770e-01 -7.053339481353759766e-01 3.606214374303817749e-02
-5.920895934104919434e-01 4.113968908786773682e-01 8.759292215108871460e-02
-5.149862170219421387e-01 2.072279900312423706e-01 -1.196406222879886627e-02
6.825297474861145020e-01 -7.477624714374542236e-02 1.765079945325851440e-01
6.813415884971618652e-01 -5.451154112815856934e-01 -3.322812542319297791e-02
-2.654463052749633789e-01 3.004501946270465851e-02 6.220935657620429993e-02
-6.741791367530822754e-01 -6.185651421546936035e-01 1.256465464830398560e-01
-5.139288306236267090e-01 2.717536389827728271e-01 -6.840728223323822021e-02
6.706496477127075195e-01 1.530027240514755249e-01 4.361980780959129333e-02
4.971992969512939453e-01 -7.205303758382797241e-02 1.783774793148040771e-01
-3.599619269371032715e-01 4.301792010664939880e-02 -2.066288739442825317e-01
2.795805633068084717e-01 3.123321756720542908e-02 -8.019288629293441772e-02
4.971992969512939453e-01 -1.461270451545715332e-01 -1.375221610069274902e-01
5.487529635429382324e-01 -5.884743332862854004e-01 -3.514185547828674316e-02
6.706496477127075195e-01 2.692818641662597656e-01 -1.060932576656341553e-01
1.410755813121795654e-01 1.714843884110450745e-02 2.060237973928451538e-01
-2.279292792081832886e-01 2.081474661827087402e-02 -1.931481808423995972e-01
6.510045528411865234e-01 4.113968908786773682e-01 3.089123591780662537e-02
3.688756227493286133e-01 2.701148688793182373e-01 -5.415035784244537354e-02
6.571016907691955566e-01 1.529682129621505737e-01 -1.491914987564086914e-01
-1.073215976357460022e-01 1.191456690430641174e-01 -5.660858750343322754e-02
3.303920924663543701e-01 -2.444730699062347412e-02 2.072120010852813721e-01
-1.390920579433441162e-01 3.123321756720542908e-02 -7.352340221405029297e-02
-6.860592961311340332e-01 -1.252756863832473755e-01 3.518361598253250122e-02
-6.030150875449180603e-02 3.004501946270465851e-02 -5.962157621979713440e-02
-5.720102787017822266e-01 -1.023337244987487793e-01 -1.352575123310089111e-01
-5.058649182319641113e-01 -1.469680219888687134e-01 5.506340786814689636e-02
6.825297474861145020e-01 5.817097797989845276e-02 -1.306255757808685303e-01
6.706496477127075195e-01 -5.187035799026489258e-01 1.444774679839611053e-03
5.114557743072509766e-01 3.565375506877899170e-01 -6.828828155994415283e-02
1.102598458528518677e-01 3.004501946270465851e-02 1.007337942719459534e-01
-6.468553543090820312e-01 -2.646579444408416748e-01 -3.222515806555747986e-02
5.365512967109680176e-01 -3.566264212131500244e-01 -3.514185547828674316e-02
-6.860592961311340332e-01 -1.959505826234817505e-01 -7.503135502338409424e-02
-9.763711690902709961e-02 2.371516823768615723e-01 -5.415035784244537354e-02
-3.738622963428497314e-01 3.004501946270465851e-02 3.671451285481452942e-02
2.006613314151763916e-01 3.123321756720542908e-02 -1.040311828255653381e-01
-5.268663167953491211e-01 5.658400058746337891e-02 1.476916521787643433e-01
6.706496477127075195e-01 8.603098802268505096e-03 -1.112402677536010742e-01
4.544117450714111328e-01 4.113968908786773682e-01 1.719060242176055908e-01
5.743290185928344727e-01 -2.074704021215438843e-01 -2.088611945509910583e-02
6.706496477127075195e-01 -5.996267795562744141e-01 1.719886958599090576e-01
1.368542313575744629e-01 -3.489302843809127808e-02 -2.085928320884704590e-01
-4.468878805637359619e-01 -1.838645152747631073e-02 -2.073219865560531616e-01
5.114557743072509766e-01 -3.354761004447937012e-01 9.017561376094818115e-02
-2.553857564926147461e-01 1.596297509968280792e-02 -2.085928320884704590e-01
-4.584844708442687988e-01 4.311330989003181458e-02 -6.602998822927474976e-02
-6.323971748352050781e-01 -1.053866818547248840e-01 -1.349359452724456787e-01
-2.677272856235504150e-01 3.211271464824676514e-01 -5.415035784244537354e-02
-6.860592961311340332e-01 1.112516522407531738e-01 -8.382741361856460571e-02
6.825297474861145020e-01 3.994877338409423828e-01 1.752244085073471069e-01
-5.149862170219421387e-01 1.598311960697174072e-01 1.744050383567810059e-01
-6.220405101776123047e-01 -2.039933055639266968e-01 -1.411239802837371826e-01
-3.800776004791259766e-01 3.123321756720542908e-02 1.696223020553588867e-01
-4.535419046878814697e-01 3.993959724903106689e-01 -5.415035784244537354e-02
-5.555754303932189941e-01 -4.872692525386810303e-01 -2.088611945509910583e-02
6.825297474861145020e-01 2.361933290958404541e-01 1.116534173488616943e-01
2.423814982175827026e-01 3.123321756720542908e-02 1.553763914853334427e-02
-5.149862170219421387e-01 2.966711223125457764e-01 1.716289669275283813e-01
-3.028606474399566650e-01 1.464885920286178589e-01 -5.415035784244537354e-02
-5.268663167953491211e-01 -1.254661828279495239e-01 4.233568906784057617e-03
4.036592543125152588e-01 -1.548046153038740158e-02 -1.931481808423995972e-01
-5.094712972640991211e-01 4.124563187360763550e-02 -1.943354606628417969e-01
4.821623489260673523e-02 1.515358779579401016e-02 -1.943354606628417969e-01
5.276478826999664307e-02 2.879595458507537842e-01 -5.415035784244537354e-02
-3.134600073099136353e-02 1.348394621163606644e-02 -1.943354606628417969e-01
-4.209829568862915039e-01 3.123321756720542908e-02 -1.278362423181533813e-02
-6.531496644020080566e-01 -6.849684715270996094e-01 -3.514185547828674316e-02
5.233367681503295898e-01 2.762202620506286621e-01 6.941643357276916504e-02
1.550113856792449951e-01 -5.434282496571540833e-02 2.072120010852813721e-01
-1.999105066061019897e-01 4.311330989003181458e-02 -6.121800094842910767e-02
-5.268663167953491211e-01 -5.696558356285095215e-01 1.387675106525421143e-01
-4.660360217094421387e-01 -1.346847563982009888e-01 -1.943354606628417969e-01
4.708483815193176270e-01 4.232769310474395752e-01 1.230585128068923950e-01
6.706496477127075195e-01 -1.835726946592330933e-01 1.230766773223876953e-01
4.842291176319122314e-01 2.629466652870178223e-01 -6.840728223323822021e-02
6.090661510825157166e-02 4.232769310474395752e-01 -1.615998102352023125e-03
-5.720102787017822266e-01 6.538005918264389038e-02 -1.357198953628540039e-01
6.825297474861145020e-01 1.819453388452529907e-01 -1.981020718812942505e-02
2.545550167560577393e-01 3.123321756720542908e-02 1.860235184431076050e-01
-6.741791367530822754e-01 -3.061683177947998047e-01 1.776634901762008667e-01
1.958595067262649536e-01 -1.866351068019866943e-02 -2.080496251583099365e-01
-1.155617162585258484e-01 3.959494829177856445e-01 -6.840728223323822021e-02
-2.377818077802658081e-01 3.004501946270465851e-02 1.706669628620147705e-01
-5.268663167953491211e-01 3.177115023136138916e-01 1.476943790912628174e-01
5.114557743072509766e-01 -3.975227177143096924e-01 2.067023813724517822e-01
1.646322757005691528e-01 3.004501946270465851e-02 3.835743293166160583e-02
-6.741791367530822754e-01 1.226675584912300110e-01 1.052113026380538940e-01
-5.268663167953491211e-01 1.274266541004180908e-01 1.974712014198303223e-01
1.462578587234020233e-02 3.004501946270465851e-02 1.956162303686141968e-01
-2.205394059419631958e-01 8.410859853029251099e-02 -5.415035784244537354e-02
7.023831363767385483e-03 1.654832810163497925e-01 -5.415035784244537354e-02
6.825297474861145020e-01 -6.295741200447082520e-01 1.802778691053390503e-01
-5.149862170219421387e-01 -5.854838490486145020e-01 6.492620706558227539e-02
6.706496477127075195e-01 4.177729487419128418e-01 9.001128375530242920e-02
-6.860592961311340332e-01 -6.450096964836120605e-01 4.513920098543167114e-02
-5.268663167953491211e-01 -4.382663667201995850e-01 1.673367619514465332e-01
-6.468553543090820312e-01 -4.041422307491302490e-01 -2.901423163712024689e-02
5.114557743072509766e-01 1.901436746120452881e-01 1.645443439483642578e-01
-6.741791367530822754e-01 3.677356615662574768e-02 -8.919515460729598999e-02
-5.149862170219421387e-01 -5.370078682899475098e-01 -1.490419637411832809e-02
1.419384125620126724e-02 3.004501946270465851e-02 2.800804004073143005e-02
3.707387745380401611e-01 -9.137611836194992065e-02 -2.012901902198791504e-01
6.587976813316345215e-01 -5.063356757164001465e-01 -3.514185547828674316e-02
-4.058971107006072998e-01 2.910444438457489014e-01 -5.415035784244537354e-02
5.248792767524719238e-01 -5.285724997520446777e-01 -2.088611945509910583e-02
7.368256896734237671e-02 3.004501946270465851e-02 1.867075413465499878e-01
6.706496477127075195e-01 1.170790567994117737e-01 2.999959513545036316e-03
-4.579612910747528076e-01 3.174090087413787842e-01 -5.951075628399848938e-02
-5.268663167953491211e-01 -5.954463481903076172e-01 9.177186526358127594e-03
-6.741791367530822754e-01 -5.503886938095092773e-01 1.450772732496261597e-01
5.494723916053771973e-01 3.205512166023254395e-01 -1.376393586397171021e-01
-7.398168742656707764e-02 3.123321756720542908e-02 -1.189389675855636597e-01
1.746100187301635742e-02 -2.912558428943157196e-02 2.060237973928451538e-01
-6.741791367530822754e-01 -6.867289543151855469e-01 1.464940374717116356e-03
-5.149862170219421387e-01 1.795408129692077637e-01 -6.735716760158538818e-02
3.260989487171173096e-01 4.232769310474395752e-01 1.314185261726379395e-01
6.825297474861145020e-01 3.521672189235687256e-01 -4.823202732950448990e-03
2.866406738758087158e-01 3.123321756720542908e-02 7.030285894870758057e-02
-6.741791367530822754e-01 1.766539067029953003e-01 -8.066798001527786255e-02
6.327419877052307129e-01 1.744673699140548706e-01 -1.446631103754043579e-01
5.224500223994255066e-02 4.232769310474395752e-01 2.023311406373977661e-01
-5.164433121681213379e-01 -3.055514991283416748e-01 2.072120010852813721e-01
5.671263337135314941e-01 4.232769310474395752e-01 9.781482070684432983e-02
5.114557743072509766e-01 -6.950853466987609863e-01 8.719041198492050171e-02
9.424562007188796997e-02 3.620307892560958862e-02 -5.415035784244537354e-02
-5.729104876518249512e-01 -3.047448396682739258e-01 -8.337048441171646118e-02
-6.741791367530822754e-01 -5.138980746269226074e-01 1.647214740514755249e-01
1.944514960050582886e-01 9.616671502590179443e-02 -6.840728223323822021e-02
2.277807593345642090e-01 4.113968908786773682e-01 1.191484704613685608e-01
4.669913053512573242e-01 3.123321756720542908e-02 4.571948945522308350e-02
-6.741791367530822754e-01 1.189040467143058777e-01 3.049105033278465271e-02
1.075627952814102173e-01 2.630422264337539673e-02 -1.943354606628417969e-01
-1.703011244535446167e-01 3.004501946270465851e-02 1.899823248386383057e-01
2.626661360263824463e-01 4.301792010664939880e-02 -2.248514294624328613e-01
5.233367681503295898e-01 1.593797355890274048e-01 1.268401890993118286e-01
6.825297474861145020e-01 -4.067166447639465332e-01 1.353528201580047607e-01
6.706496477127075195e-01 3.716869950294494629e-01 -1.133205071091651917e-01
-5.304908156394958496e-01 3.337847888469696045e-01 -1.491914987564086914e-01
6.215423345565795898e-01 -2.666655480861663818e-01 -5.131505429744720459e-02
-6.582221984863281250e-01 4.232769310474395752e-01 1.318000555038452148e-01
4.279026985168457031e-01 1.606496721506118774e-01 -5.415035784244537354e-02
5.233367681503295898e-01 2.847655713558197021e-01 1.239950656890869141e-01
-5.268663167953491211e-01 -4.844123125076293945e-01 5.640493333339691162e-02
-5.827366709709167480e-01 1.249468978494405746e-02 -1.349359452724456787e-01
6.174635887145996094e-01 4.113968908786773682e-01 5.623070150613784790e-02
4.734400510787963867e-01 2.036334425210952759e-01 -6.546860188245773315e-02
4.960120022296905518e-01 6.005059462040662766e-03 -1.027830317616462708e-01
-4.588896632194519043e-01 -6.493636872619390488e-03 2.060237973928451538e-01
-6.741791367530822754e-01 -6.713687777519226074e-01 1.239941641688346863e-01
-5.007297396659851074e-01 -1.398069970309734344e-02 1.623592711985111237e-02
6.706496477127075195e-01 1.741249114274978638e-01 8.565185219049453735e-02
-6.860592961311340332e-01 -7.814224064350128174e-02 -1.123221665620803833e-01
2.961244285106658936e-01 3.123321756720542908e-02 -1.208593398332595825e-01
5.114557743072509766e-01 2.089348882436752319e-01 8.997457474470138550e-02
4.970121681690216064e-01 4.113968908786773682e-01 1.873797476291656494e-01
5.114557743072509766e-01 1.071493029594421387e-01 3.913129866123199463e-02
4.971992969512939453e-01 3.172829374670982361e-02 1.762959919869899750e-02
-5.284242033958435059e-01 4.301792010664939880e-02 -1.627412289381027222e-01
-2.031943798065185547e-01 3.123321756720542908e-02 1.217976361513137817e-01
-4.751918315887451172e-01 -9.121061116456985474e-02 -1.943354606628417969e-01
-6.860592961311340332e-01 4.420702531933784485e-02 1.756041347980499268e-01
-3.311319649219512939e-01 4.123934209346771240e-01 -6.840728223323822021e-02
1.105196475982666016e-01 4.190765321254730225e-01 -6.840728223323822021e-02
6.825297474861145020e-01 3.866020441055297852e-01 -2.540623769164085388e-02
-5.149862170219421387e-01 -7.151256203651428223e-01 3.813296556472778320e-02
3.250643014907836914e-01 -9.293430298566818237e-02 -1.990882158279418945e-01
-2.281073033809661865e-01 3.123321756720542908e-02 5.401883646845817566e-02
-6.741791367530822754e-01 9.896734356880187988e-02 4.483476805035024881e-04
4.960120022296905518e-01 -2.374692820012569427e-02 -1.190080195665359497e-01
-6.741791367530822754e-01 -1.050731912255287170e-01 1.667353957891464233e-01
-3.321829736232757568e-01 3.123321756720542908e-02 -1.013150513172149658e-01
5.233367681503295898e-01 -1.501326560974121094e-01 1.101565510034561157e-01
6.825297474861145020e-01 2.467008084058761597e-01 1.712501645088195801e-01
1.760336458683013916e-01 4.232769310474395752e-01 -6.478910893201828003e-02
-5.149862170219421387e-01 -2.144014984369277954e-01 6.323847919702529907e-02
-1.213500425219535828e-01 4.113968908786773682e-01 1.443732529878616333e-01
3.453643620014190674e-01 3.959104418754577637e-01 -6.840728223323822021e-02
-5.007297396659851074e-01 -3.722307831048965454e-02 1.871699094772338867e-01
5.292114019393920898e-01 -7.053339481353759766e-01 1.520901322364807129e-01
5.233367681503295898e-01 -5.939510464668273926e-01 1.215287521481513977e-01
-5.149862170219421387e-01 -3.021013736724853516e-01 4.855633527040481567e-02
-5.080369710922241211e-01 4.113968908786773682e-01 6.594515591859817505e-02
-2.901003360748291016e-01 3.123321756720542908e-02 -1.026767641305923462e-01
6.825297474861145020e-01 -7.107670307159423828e-01 1.701864302158355713e-01
-6.741791367530822754e-01 5.450939759612083435e-03 5.966918542981147766e-02
6.765506267547607422e-01 2.932037413120269775e-01 2.072120010852813721e-01
-3.671074211597442627e-01 -2.779567427933216095e-02 2.060237973928451538e-01
-6.264971494674682617e-01 -2.310235649347305298e-01 -7.140774279832839966e-02
5.561091899871826172e-01 -7.172139883041381836e-01 1.327529698610305786e-01
4.971992969512939453e-01 -6.855850666761398315e-02 -3.449334297329187393e-03
1.920387744903564453e-01 4.311330989003181458e-02 -5.599196255207061768e-02
-4.995415508747100830e-01 -3.398825973272323608e-02 -7.720334082841873169e-02
2.735951244831085205e-01 -7.890529930591583252e-02 -1.943354606628417969e-01
-6.741791367530822754e-01 3.859234452247619629e-01 -3.420511260628700256e-02
4.971992969512939453e-01 -1.234824210405349731e-01 -1.155179217457771301e-01
-4.405472278594970703e-01 3.123321756720542908e-02 -8.947312086820602417e-02
-4.992981255054473877e-01 3.123321756720542908e-02 -1.213053613901138306e-01
5.985115766525268555e-01 -2.039933055639266968e-01 -8.158365637063980103e-02
6.689672470092773438e-01 2.330938428640365601e-01 -1.491914987564086914e-01
3.038140535354614258e-01 4.232769310474395752e-01 1.250030379742383957e-02
5.114557743072509766e-01 9.426089376211166382e-02 -9.519060701131820679e-02
6.534018516540527344e-01 4.113968908786773682e-01 6.232463195919990540e-02
5.233367681503295898e-01 8.877595514059066772e-02 1.017279457300901413e-02
-5.268663167953491211e-01 -6.782444119453430176e-01 -9.023382328450679779e-03
5.233367681503295898e-01 -3.760508000850677490e-01 -1.414240989834070206e-02
1.109502315521240234e-01 3.123321756720542908e-02 -1.481441110372543335e-01
-6.426076292991638184e-01 -2.012306749820709229e-01 -2.088611945509910583e-02
4.415587186813354492e-01 -1.684760861098766327e-02 -2.066016197204589844e-01
-1.416455805301666260e-01 4.311330989003181458e-02 -1.927557587623596191e-01
-4.475155770778656006e-01 4.113968908786773682e-01 1.711111664772033691e-01
6.428025364875793457e-01 2.147432118654251099e-01 -1.349359452724456787e-01
5.233367681503295898e-01 4.216063916683197021e-01 -2.094116806983947754e-02
-3.022883534431457520e-01 3.123321756720542908e-02 1.345834136009216309e-01
3.291793465614318848e-01 -2.180749364197254181e-02 -1.943354606628417969e-01
5.720380544662475586e-01 -2.672814428806304932e-01 -8.320242911577224731e-02
-1.242660209536552429e-01 4.232769310474395752e-01 9.683711454272270203e-03
1.474107801914215088e-01 4.232769310474395752e-01 1.207311823964118958e-01
-5.149862170219421387e-01 -7.998811453580856323e-02 1.423211693763732910e-01
5.233367681503295898e-01 2.143744081258773804e-01 -1.098086163401603699e-01
-4.284981787204742432e-01 4.113968908786773682e-01 2.471583522856235504e-02
-6.741791367530822754e-01 -2.060998082160949707e-01 8.286669850349426270e-02
-6.860592961311340332e-01 -2.768296301364898682e-01 1.723929345607757568e-01
5.114557743072509766e-01 -1.508412361145019531e-01 8.118423819541931152e-02
6.230775117874145508e-01 -1.352814733982086182e-01 -1.349359452724456787e-01
-6.741791367530822754e-01 -3.592789769172668457e-01 1.414841879159212112e-02
6.143396496772766113e-01 -1.813689172267913818e-01 -1.491914987564086914e-01
-3.879915773868560791e-01 4.018540978431701660e-01 -6.840728223323822021e-02
-6.741791367530822754e-01 2.256796136498451233e-02 1.124814301729202271e-01
-6.722869873046875000e-01 -5.508755445480346680e-01 -2.088611945509910583e-02
5.114557743072509766e-01 -5.772437453269958496e-01 -4.400249104946851730e-03
-6.741791367530822754e-01 -6.042950153350830078e-01 1.692798286676406860e-01
-6.003889441490173340e-02 2.937751114368438721e-01 -6.840728223323822021e-02
-3.013336360454559326e-01 2.062287479639053345e-01 -5.415035784244537354e-02
-1.574753969907760620e-01 -4.781505092978477478e-02 2.060237973928451538e-01
-3.565753996372222900e-01 2.318747788667678833e-01 -5.415035784244537354e-02
-6.260311603546142578e-01 -3.617852628231048584e-01 -4.632510617375373840e-02
5.233367681503295898e-01 7.393629848957061768e-02 -1.156005933880805969e-01
5.233367681503295898e-01 6.985484808683395386e-02 9.020504355430603027e-02
-1.782451122999191284e-01 4.232769310474395752e-01 4.421562701463699341e-02
5.233367681503295898e-01 3.815413117408752441e-01 1.852828310802578926e-03
-6.211666464805603027e-01 -2.442007511854171753e-01 -3.514185547828674316e-02
5.872528553009033203e-01 4.113968908786773682e-01 -6.372628360986709595e-02
-2.482920289039611816e-01 4.609756637364625931e-03 2.072120010852813721e-01
-5.268663167953491211e-01 -2.179882377386093140e-01 1.671487241983413696e-01
6.706496477127075195e-01 2.933263778686523438e-01 -4.659245163202285767e-02
-6.741791367530822754e-01 4.131228625774383545e-01 -1.175173223018646240e-01
-1.521857678890228271e-01 4.113968908786773682e-01 8.200770616531372070e-02
-5.149862170219421387e-01 -2.051392942667007446e-02 6.140533089637756348e-02
4.689071178436279297e-01 8.281047642230987549e-02 -5.415035784244537354e-02
-5.682930946350097656e-01 4.232769310474395752e-01 3.083719499409198761e-02
-2.652791440486907959e-01 4.232769310474395752e-01 2.134417183697223663e-02
-6.741791367530822754e-01 -2.610752284526824951e-01 -2.345351502299308777e-03
-4.576205909252166748e-01 3.123321756720542908e-02 -1.908908039331436157e-01
1.096684709191322327e-01 3.123321756720542908e-02 1.341927945613861084e-01
5.114557743072509766e-01 -5.803813338279724121e-01 4.000473022460937500e-02
5.233367681503295898e-01 -9.978684037923812866e-02 1.111818701028823853e-01
5.783359408378601074e-01 7.721745967864990234e-02 -1.349359452724456787e-01
-6.860592961311340332e-01 -4.882965981960296631e-01 1.430815011262893677e-01
-6.860592961311340332e-01 2.594384253025054932e-01 2.067732363939285278e-01
6.255047321319580078e-01 1.960930228233337402e-02 -1.349432021379470825e-01
-5.007297396659851074e-01 -3.150650113821029663e-02 -1.222682595252990723e-01
-2.004728019237518311e-01 4.232769310474395752e-01 9.805791079998016357e-02
-6.860592961311340332e-01 -4.171787202358245850e-01 2.303890697658061981e-02
5.114557743072509766e-01 -6.257640570402145386e-02 -1.060287579894065857e-01
-5.007297396659851074e-01 -1.275169998407363892e-01 -1.590867340564727783e-01
-4.269584119319915771e-01 3.107686042785644531e-01 -6.840728223323822021e-02
5.157099803909659386e-04 4.232769310474395752e-01 1.908244192600250244e-01
5.114557743072509766e-01 -2.207509726285934448e-01 2.526578307151794434e-02
-1.510620713233947754e-01 4.232769310474395752e-01 -3.803620859980583191e-02
-4.174847006797790527e-01 1.969203501939773560e-01 -6.840728223323822021e-02
-5.007297396659851074e-01 7.102416362613439560e-03 -8.587675541639328003e-02
4.971992969512939453e-01 -5.126970261335372925e-02 1.137987002730369568e-01
5.114557743072509766e-01 -2.703354954719543457e-01 1.745794564485549927e-01
6.263786554336547852e-01 -7.172139883041381836e-01 1.494330614805221558e-01
2.399369925260543823e-01 6.598868966102600098e-02 -6.840728223323822021e-02
-6.741791367530822754e-01 -2.747966647148132324e-01 8.601830899715423584e-02
3.864695727825164795e-01 4.301792010664939880e-02 -2.336683720350265503e-01
-1.453927457332611084e-01 -8.087716996669769287e-02 -1.952302306890487671e-01
-6.860592961311340332e-01 -3.913555741310119629e-01 1.753343492746353149e-01
-5.247715115547180176e-01 3.887585699558258057e-01 -1.349359452724456787e-01
-5.978797674179077148e-01 -2.225994765758514404e-01 -2.088611945509910583e-02
5.477537512779235840e-01 -1.763759702444076538e-01 -1.349359452724456787e-01
-2.187489569187164307e-01 4.232769310474395752e-01 1.816728152334690094e-02
6.706496477127075195e-01 -4.505379796028137207e-01 1.789525002241134644e-01
4.010947048664093018e-02 3.186971247196197510e-01 -6.840728223323822021e-02
4.897803962230682373e-01 4.301792010664939880e-02 -2.305180281400680542e-01
6.706496477127075195e-01 -2.885480225086212158e-01 1.755541712045669556e-01
-5.149862170219421387e-01 2.438456863164901733e-01 1.775117814540863037e-01
5.233367681503295898e-01 -9.690303355455398560e-03 3.831555321812629700e-02
2.053514122962951660e-01 1.430057734251022339e-01 -5.415035784244537354e-02
6.013494133949279785e-01 -3.272668719291687012e-01 -7.247056812047958374e-02
5.233367681503295898e-01 -6.419646739959716797e-01 1.882263869047164917e-01
6.492722034454345703e-01 7.627544552087783813e-02 -1.491914987564086914e-01
5.665349364280700684e-01 -3.736262619495391846e-01 -3.514185547828674316e-02
6.706496477127075195e-01 7.137552648782730103e-02 7.112196087837219238e-02
2.776656746864318848e-01 3.123321756720542908e-02 1.263114809989929199e-01
-4.520957171916961670e-01 3.004501946270465851e-02 2.023920118808746338e-01
6.706496477127075195e-01 -5.560452938079833984e-01 6.062955409288406372e-02
-5.530019402503967285e-01 -2.874314412474632263e-02 -1.441044360399246216e-01
-4.552851021289825439e-01 1.264210790395736694e-01 -5.415035784244537354e-02
6.825297474861145020e-01 2.703801095485687256e-01 8.732040971517562866e-02
-2.894554845988750458e-02 1.191456690430641174e-01 -5.657960474491119385e-02
2.024635970592498779e-01 3.829657137393951416e-01 -5.415035784244537354e-02
5.114557743072509766e-01 2.259065508842468262e-01 -4.360735043883323669e-02
-6.592450737953186035e-01 -3.058094978332519531e-01 -2.088611945509910583e-02
-3.604978919029235840e-01 3.123321756720542908e-02 9.500640630722045898e-02
-5.149862170219421387e-01 1.468474119901657104e-01 3.378161787986755371e-02
-6.577718257904052734e-02 3.004501946270465851e-02 2.042388021945953369e-01
6.825297474861145020e-01 -2.616783976554870605e-01 6.284878402948379517e-02
4.532788991928100586e-01 4.113968908786773682e-01 -2.180114621296525002e-03
-1.036680042743682861e-01 3.364227712154388428e-01 -5.415035784244537354e-02
4.971992969512939453e-01 -1.100070849061012268e-01 -1.002907566726207733e-02
-1.696634292602539062e-01 3.004501946270465851e-02 -1.369280666112899780e-01
-2.670714259147644043e-01 -9.622254222631454468e-02 -1.943354606628417969e-01
-5.149862170219421387e-01 1.053617056459188461e-02 1.398975700139999390e-01
-6.329914927482604980e-02 4.232769310474395752e-01 1.515160202980041504e-01
-2.630627900362014771e-02 4.232769310474395752e-01 5.121059715747833252e-02
-2.582463026046752930e-01 3.123321756720542908e-02 1.165231838822364807e-01
5.033909678459167480e-01 4.301792010664939880e-02 -1.966582387685775757e-01
-2.500515878200531006e-01 3.123321756720542908e-02 -7.633671909570693970e-02
2.097962200641632080e-01 1.941306442022323608e-01 -5.415035784244537354e-02
-6.860592961311340332e-01 1.708782911300659180e-01 -2.448102831840515137e-02
-6.848710775375366211e-01 -6.832533478736877441e-01 -3.258888423442840576e-02
-6.860592961311340332e-01 -1.925503462553024292e-01 1.427099704742431641e-01
5.233367681503295898e-01 3.497463464736938477e-01 3.933423757553100586e-02
-6.496704816818237305e-01 1.358130425214767456e-01 -1.349359452724456787e-01
3.398848772048950195e-01 2.227008193731307983e-01 -6.840728223323822021e-02
-6.860592961311340332e-01 -3.425162434577941895e-01 3.706821799278259277e-02
-5.268663167953491211e-01 3.523607552051544189e-01 8.601640164852142334e-02
4.047838747501373291e-01 4.113968908786773682e-01 1.482357829809188843e-01
6.706496477127075195e-01 1.086009293794631958e-01 -2.666173875331878662e-02
-3.647083342075347900e-01 1.670965850353240967e-01 -6.840728223323822021e-02
5.233367681503295898e-01 -4.451674818992614746e-01 -1.317131216637790203e-03
-1.801291257143020630e-01 4.232769310474395752e-01 -5.427871271967887878e-02
-6.860592961311340332e-01 9.737693704664707184e-03 2.895731106400489807e-02
-5.268663167953491211e-01 -1.538352817296981812e-01 1.476362347602844238e-01
2.675609197467565536e-03 3.004501946270465851e-02 1.532383710145950317e-01
4.126687943935394287e-01 2.367883175611495972e-01 -6.840728223323822021e-02
3.955617547035217285e-01 3.382032811641693115e-01 -6.840728223323822021e-02
-5.149862170219421387e-01 -4.532586634159088135e-01 -1.929060183465480804e-02
-1.223765388131141663e-01 1.004473678767681122e-02 2.072120010852813721e-01
6.356244087219238281e-01 4.113968908786773682e-01 1.430833339691162109e-01
5.318512320518493652e-01 3.369770944118499756e-02 -1.491914987564086914e-01
-2.836279571056365967e-01 3.004501946270465851e-02 -1.873226016759872437e-01
2.857241034507751465e-01 1.278645247220993042e-01 -6.840728223323822021e-02
-4.229224026203155518e-01 4.691860452294349670e-02 -6.840728223323822021e-02
-5.149862170219421387e-01 9.375945478677749634e-02 1.716571301221847534e-01
-3.590789735317230225e-01 1.319223493337631226e-01 -5.415035784244537354e-02
-6.480435132980346680e-01 -1.626821607351303101e-01 -1.396968811750411987e-01
6.706496477127075195e-01 -6.753648519515991211e-01 1.667408496141433716e-01
-6.741791367530822754e-01 -4.101840257644653320e-01 7.818451523780822754e-02
5.149585604667663574e-01 -5.044816136360168457e-01 -3.514185547828674316e-02
2.854779362678527832e-01 4.232769310474395752e-01 6.686891615390777588e-02
-3.227410316467285156e-01 -3.447153046727180481e-02 -2.085928320884704590e-01
-2.137808948755264282e-01 3.797753751277923584e-01 -5.415035784244537354e-02
4.487187564373016357e-01 3.123321756720542908e-02 1.296871155500411987e-01
-2.477606236934661865e-01 4.232769310474395752e-01 1.567765921354293823e-01
6.825297474861145020e-01 2.206289581954479218e-02 1.641028523445129395e-01
5.861073732376098633e-01 4.113968908786773682e-01 1.688428968191146851e-01
6.073721051216125488e-01 -7.053339481353759766e-01 1.727572083473205566e-01
3.692642971873283386e-02 3.004501946270465851e-02 -8.923694491386413574e-02
-3.844660818576812744e-01 2.764146327972412109e-01 -6.840728223323822021e-02
-5.832744836807250977e-01 -1.623742282390594482e-01 -1.349359452724456787e-01
6.706496477127075195e-01 -3.492572531104087830e-02 -1.169771887362003326e-02
-6.860592961311340332e-01 9.453364647924900055e-03 1.993643045425415039e-01
6.706496477127075195e-01 2.869630157947540283e-01 2.813674323260784149e-02
2.479763627052307129e-01 6.522861775010824203e-03 -1.943354606628417969e-01
-5.924475193023681641e-01 3.466514348983764648e-01 -1.491914987564086914e-01
-3.564391434192657471e-01 3.004501946270465851e-02 -7.007055729627609253e-02
-1.159677579998970032e-01 1.788894832134246826e-01 -6.840728223323822021e-02
-5.149862170219421387e-01 -3.671793341636657715e-01 1.446257829666137695e-01
3.995060324668884277e-01 2.089376300573348999e-01 -5.415035784244537354e-02
8.329392224550247192e-02 3.123321756720542908e-02 -1.335878670215606689e-01
6.706496477127075195e-01 -2.261382490396499634e-01 1.032705008983612061e-01
-6.003533005714416504e-01 -3.583624064922332764e-01 -6.170653924345970154e-02
-5.781183242797851562e-01 -4.013171195983886719e-01 -2.088611945509910583e-02
-5.268663167953491211e-01 -6.288238167762756348e-01 1.531202644109725952e-01
4.348583519458770752e-01 4.113968908786773682e-01 1.946960240602493286e-01
-5.149862170219421387e-01 -2.027447074651718140e-01 -6.875973939895629883e-02
-5.149862170219421387e-01 8.115536719560623169e-02 5.154861509799957275e-02
-4.530341029167175293e-01 4.232769310474395752e-01 1.141418963670730591e-01
4.404949843883514404e-01 3.627264797687530518e-01 -6.669313460588455200e-02
5.233367681503295898e-01 -3.179112374782562256e-01 1.260716766119003296e-01
5.114557743072509766e-01 2.246520668268203735e-01 1.616946756839752197e-01
-6.775484681129455566e-01 -3.358285725116729736e-01 2.072120010852813721e-01
6.071185320615768433e-02 3.123321756720542908e-02 -6.701924651861190796e-02
-6.860592961311340332e-01 -4.736913144588470459e-01 6.675236672163009644e-02
5.233367681503295898e-01 2.781488001346588135e-01 1.627720445394515991e-01
-6.741791367530822754e-01 3.109584450721740723e-01 -1.317865103483200073e-01
6.706496477127075195e-01 -4.989167153835296631e-01 1.304928660392761230e-01
-6.860592961311340332e-01 -2.146978229284286499e-01 1.990999579429626465e-01
5.233367681503295898e-01 -3.838946670293807983e-02 7.281358540058135986e-02
1.632060855627059937e-01 4.232769310474395752e-01 1.546854376792907715e-01
5.233367681503295898e-01 -1.037410199642181396e-01 4.415322095155715942e-02
5.114557743072509766e-01 -1.463814079761505127e-01 -8.525632321834564209e-02
-5.230425391346216202e-03 3.004501946270465851e-02 -3.182155638933181763e-02
-5.893262624740600586e-01 -5.500596016645431519e-02 -1.349359452724456787e-01
-5.149862170219421387e-01 2.351168692111968994e-01 -1.066637262701988220e-01
5.114557743072509766e-01 1.715486794710159302e-01 1.870627254247665405e-01
5.233367681503295898e-01 1.334039717912673950e-01 7.480207830667495728e-02
5.559211969375610352e-01 4.113968908786773682e-01 1.890076100826263428e-01
-5.149862170219421387e-01 3.823699429631233215e-02 1.670387983322143555e-01
-4.011788666248321533e-01 -5.154858529567718506e-02 -1.943354606628417969e-01
-2.222335785627365112e-01 3.123321756720542908e-02 -1.236426830291748047e-01
2.357482351362705231e-02 1.883468478918075562e-01 -6.840728223323822021e-02
-5.856335759162902832e-01 -1.921133100986480713e-01 -3.872023522853851318e-02
-6.860592961311340332e-01 -3.228048086166381836e-01 1.235590428113937378e-01
5.233367681503295898e-01 2.866096496582031250e-01 -1.214170902967453003e-01
-3.620939552783966064e-01 3.004501946270465851e-02 8.677474223077297211e-03
1.741596013307571411e-01 4.273086786270141602e-02 -1.943354606628417969e-01
-6.860592961311340332e-01 -6.282714009284973145e-01 2.135963365435600281e-02
-4.458677172660827637e-01 3.123321756720542908e-02 5.843612551689147949e-02
-3.679068088531494141e-01 4.311330989003181458e-02 -1.435821205377578735e-01
-2.251504659652709961e-01 3.123321756720542908e-02 -7.594012189656496048e-03
2.509513795375823975e-01 3.262459635734558105e-01 -5.415035784244537354e-02
-5.720102787017822266e-01 1.258978247642517090e-01 -1.437329053878784180e-01
-4.105208516120910645e-01 4.113968908786773682e-01 1.289949119091033936e-01
6.581237316131591797e-01 3.315046727657318115e-01 -1.349359452724456787e-01
5.939404964447021484e-01 4.113968908786773682e-01 7.939441502094268799e-02
5.233367681503295898e-01 3.389409184455871582e-01 -1.233638077974319458e-01
-5.268663167953491211e-01 -7.170160412788391113e-01 1.119633764028549194e-01
-1.156743466854095459e-01 8.438021689653396606e-02 -5.415035784244537354e-02
6.706496477127075195e-01 -6.843661665916442871e-01 2.542145550251007080e-02
5.352795124053955078e-01 -4.877370893955230713e-01 -2.088611945509910583e-02
3.171783313155174255e-02 4.113968908786773682e-01 1.901327632367610931e-02
-5.715234950184822083e-02 4.113968908786773682e-01 1.139966398477554321e-01
-4.295173883438110352e-01 4.232769310474395752e-01 5.109777301549911499e-02
5.555099342018365860e-03 3.123321756720542908e-02 -1.491215527057647705e-01
-5.237441062927246094e-01 -8.136031217873096466e-03 -1.491914987564086914e-01
6.495628952980041504e-01 4.183788895606994629e-01 -1.491914987564086914e-01
-3.549738824367523193e-01 -6.005585938692092896e-02 2.072120010852813721e-01
5.114557743072509766e-01 -6.968939900398254395e-01 -5.363427568227052689e-03
2.606431245803833008e-01 3.123321756720542908e-02 -1.661868095397949219e-01
6.706496477127075195e-01 -3.483672440052032471e-01 1.653497293591499329e-02
-2.034360170364379883e-01 -8.386000245809555054e-02 -1.943354606628417969e-01
5.246294140815734863e-01 -7.105236053466796875e-01 2.072120010852813721e-01
-1.785412430763244629e-01 2.133851498365402222e-01 -5.432041361927986145e-02
