-1.990401297807693481e-01 1.739154607057571411e-01 -1.131351441144943237e-01
-3.261367678642272949e-01 -3.115969002246856689e-01 3.222366869449615479e-01
-2.171999812126159668e-01 1.485822051763534546e-01 -9.290316700935363770e-02
-4.570325911045074463e-01 -3.115969002246856689e-01 -1.807791292667388916e-01
1.596986651420593262e-01 -1.198576763272285461e-01 -2.673217356204986572e-01
9.537322446703910828e-03 7.458834052085876465e-01 -7.165399938821792603e-02
3.564796596765518188e-02 -3.115969002246856689e-01 5.274766683578491211e-01
2.217048406600952148e-01 2.559148473665118217e-03 -1.712154448032379150e-01
-8.716726303100585938e-02 -1.488882452249526978e-01 -3.048138022422790527e-01
3.956691622734069824e-01 -3.115969002246856689e-01 -8.471881970763206482e-03
3.591686487197875977e-02 -2.288462817668914795e-01 3.452190458774566650e-01
-1.542756855487823486e-01 -2.432675361633300781e-01 3.131982088088989258e-01
2.619018256664276123e-01 -1.577394455671310425e-01 1.984108090400695801e-01
-1.736094802618026733e-01 3.653967678546905518e-01 4.405843839049339294e-02
2.926562726497650146e-01 -3.115969002246856689e-01 -4.510083496570587158e-01
5.543173104524612427e-02 5.867770910263061523e-01 -1.026238501071929932e-01
-3.050416707992553711e-01 -2.614712119102478027e-01 -1.685296297073364258e-01
2.917469143867492676e-01 -2.118468135595321655e-01 1.801178604364395142e-01
-3.169963061809539795e-01 -1.994738131761550903e-01 -1.051885187625885010e-01
-1.310064345598220825e-01 5.365325808525085449e-01 -8.163214661180973053e-03
-2.751248478889465332e-01 -1.869852244853973389e-01 1.851419806480407715e-01
1.567873060703277588e-01 4.261357486248016357e-01 -4.780646041035652161e-02
-3.723955452442169189e-01 -3.115969002246856689e-01 -3.772149384021759033e-01
-8.064243942499160767e-02 2.415731400251388550e-01 -1.941977739334106445e-01
2.873986065387725830e-01 -2.876677513122558594e-01 -2.164405435323715210e-01
-4.893044829368591309e-01 -3.115969002246856689e-01 2.233067005872726440e-01
-4.616542756557464600e-01 -3.115969002246856689e-01 1.443281471729278564e-01
-3.285309076309204102e-01 -3.115969002246856689e-01 4.801244437694549561e-01
-6.443477421998977661e-02 -8.580534160137176514e-02 2.998337447643280029e-01
2.080534696578979492e-01 1.590927876532077789e-02 1.868722289800643921e-01
-7.460982352495193481e-02 7.317219376564025879e-01 2.315858751535415649e-02
-1.801430732011795044e-01 -1.118377074599266052e-01 2.577088773250579834e-01
5.058348774909973145e-01 -3.115969002246856689e-01 8.053217083215713501e-03
9.626749157905578613e-02 4.065118730068206787e-01 -1.373591721057891846e-01
5.461555346846580505e-02 -3.115969002246856689e-01 -4.044188261032104492e-01
2.462205588817596436e-01 -3.115969002246856689e-01 2.964450120925903320e-01
-5.638190731406211853e-02 7.957364916801452637e-01 -1.662437058985233307e-02
1.376232653856277466e-01 -2.608025372028350830e-01 3.293887376785278320e-01
-4.520745202898979187e-02 -2.303788363933563232e-01 -3.377431631088256836e-01
-2.676357030868530273e-01 3.334547206759452820e-02 3.223723918199539185e-02
2.648665904998779297e-01 -3.022938370704650879e-01 -2.483346313238143921e-01
-1.752456724643707275e-01 1.803719252347946167e-02 -2.092542052268981934e-01
-1.462915986776351929e-01 2.036096602678298950e-01 1.715272814035415649e-01
-3.687294721603393555e-01 -3.115969002246856689e-01 -3.322448432445526123e-01
3.178366422653198242e-01 -1.349459737539291382e-01 -3.174432367086410522e-02
1.674214377999305725e-02 4.177340567111968994e-01 1.683545261621475220e-01
-5.070673301815986633e-02 6.301292181015014648e-01 9.669539332389831543e-02
4.398135840892791748e-01 -3.115969002246856689e-01 -1.401198953390121460e-01
1.278158091008663177e-02 9.422235488891601562e-01 -1.476917322725057602e-02
2.741074860095977783e-01 -2.823894023895263672e-01 2.359857410192489624e-01
5.147993192076683044e-02 4.496210217475891113e-01 -1.459019482135772705e-01
-2.693451941013336182e-01 -3.115969002246856689e-01 -5.114023089408874512e-01
-6.746455281972885132e-02 -3.115969002246856689e-01 -3.770451843738555908e-01
4.630286991596221924e-02 8.506488800048828125e-01 1.873346790671348572e-02
-2.894911170005798340e-01 -3.041244745254516602e-01 -2.159384340047836304e-01
2.075999975204467773e-01 1.332908123731613159e-01 1.364365071058273315e-01
-9.735498577356338501e-02 -2.784921824932098389e-01 -3.389354646205902100e-01
-3.134385943412780762e-01 -3.115969002246856689e-01 -2.557927370071411133e-01
2.890770435333251953e-01 -2.121538110077381134e-02 1.769110560417175293e-02
-1.837262660264968872e-01 -3.115969002246856689e-01 -3.166799545288085938e-01
2.490099817514419556e-01 -2.134949564933776855e-01 2.355426400899887085e-01
4.093436300754547119e-01 -3.115969002246856689e-01 2.928211688995361328e-01
5.308622717857360840e-01 -3.115969002246856689e-01 1.497133076190948486e-01
2.799485325813293457e-01 -3.269739449024200439e-02 -7.657556235790252686e-02
-4.589994624257087708e-02 9.562342613935470581e-02 -2.475687563419342041e-01
-1.848244965076446533e-01 3.070072531700134277e-01 -5.796971544623374939e-02
1.894944347441196442e-02 7.928243279457092285e-01 6.358470022678375244e-02
-8.893176913261413574e-02 3.999400138854980469e-01 -1.401629298925399780e-01
9.095725417137145996e-02 -9.747304767370223999e-02 -2.911401093006134033e-01
-2.266393452882766724e-01 8.340342342853546143e-02 1.233661323785781860e-01
3.560085296630859375e-01 -3.115969002246856689e-01 1.624983549118041992e-01
1.483688801527023315e-01 -7.073216885328292847e-02 2.656658589839935303e-01
3.491331264376640320e-02 6.853675842285156250e-01 -8.269711583852767944e-02
-1.216770485043525696e-01 -4.760558903217315674e-02 2.695009112358093262e-01
-2.792029678821563721e-01 -4.910947382450103760e-02 8.758040517568588257e-02
1.790300607681274414e-01 1.427030712366104126e-01 1.670442968606948853e-01
-3.455669879913330078e-01 -2.957769334316253662e-01 1.025762632489204407e-01
-3.051762655377388000e-02 1.622929424047470093e-01 -2.304879873991012573e-01
2.739959061145782471e-01 2.560764923691749573e-02 -2.548967115581035614e-02
-7.110813632607460022e-03 7.290655970573425293e-01 8.319345861673355103e-02
-8.975265175104141235e-02 5.863140225410461426e-01 8.060320466756820679e-02
-7.774703204631805420e-02 5.339759588241577148e-01 1.111493110656738281e-01
2.028452455997467041e-01 1.370142698287963867e-01 -1.323860585689544678e-01
2.342978417873382568e-01 -2.461692839860916138e-01 2.652299404144287109e-01
-3.072118461132049561e-01 -1.478274613618850708e-01 8.910022675991058350e-02
-5.107367038726806641e-01 -3.115969002246856689e-01 -1.618988066911697388e-01
-7.220000028610229492e-03 9.014001488685607910e-01 -2.744911052286624908e-02
1.247138902544975281e-01 3.498653471469879150e-01 -1.335169672966003418e-01
4.329883679747581482e-02 8.040154576301574707e-01 -3.894729539752006531e-02
-8.543464541435241699e-02 -4.867835901677608490e-03 -2.637951374053955078e-01
-3.505448997020721436e-01 -3.115969002246856689e-01 4.228881299495697021e-01
-6.318097561597824097e-02 3.556298613548278809e-01 1.750044822692871094e-01
6.550102680921554565e-02 -3.115969002246856689e-01 -5.079457759857177734e-01
1.120244562625885010e-01 -2.928408980369567871e-01 -3.415128588676452637e-01
-1.820964515209197998e-01 -1.595773361623287201e-02 -2.159440070390701294e-01
1.891892030835151672e-02 2.316640317440032959e-01 2.194222509860992432e-01
1.836349815130233765e-01 2.431290000677108765e-01 1.170309931039810181e-01
-3.002885282039642334e-01 -9.966950863599777222e-02 -5.225421860814094543e-02
2.522161900997161865e-01 1.042793542146682739e-01 -2.825317904353141785e-02
-1.979578286409378052e-01 -3.115969002246856689e-01 3.880691230297088623e-01
4.773518145084381104e-01 -3.115969002246856689e-01 -2.562820613384246826e-01
2.024284303188323975e-01 2.733548581600189209e-01 4.697655886411666870e-02
-1.958131790161132812e-01 -2.382680922746658325e-01 -2.798119187355041504e-01
1.023109480738639832e-01 6.485784053802490234e-01 2.226613648235797882e-02
2.572857439517974854e-01 -3.115969002246856689e-01 3.595772981643676758e-01
9.381201118230819702e-02 1.365121752023696899e-01 2.288520485162734985e-01
-1.009134799242019653e-01 2.845492660999298096e-01 1.776424646377563477e-01
1.574915251694619656e-03 -1.090371459722518921e-01 -3.067544400691986084e-01
2.055350244045257568e-01 2.735141813755035400e-01 -3.086024150252342224e-02
-7.626745104789733887e-02 4.392818808555603027e-01 -1.354886889457702637e-01
-1.088848188519477844e-01 -2.011657804250717163e-01 3.227276206016540527e-01
-3.175151348114013672e-01 -1.718291640281677246e-01 -6.647900491952896118e-02
2.030923068523406982e-01 2.351529449224472046e-01 -7.511541247367858887e-02
3.743660449981689453e-01 -3.115969002246856689e-01 -2.105429172515869141e-01
5.247486829757690430e-01 -3.115969002246856689e-01 2.160685658454895020e-01
-2.462465018033981323e-01 1.179976686835289001e-01 -4.905183799564838409e-03
-5.559259653091430664e-01 -3.115969002246856689e-01 -1.670536398887634277e-01
-3.292665183544158936e-01 -3.115969002246856689e-01 -1.915486305952072144e-01
3.082139790058135986e-01 -3.115969002246856689e-01 -2.082747370004653931e-01
7.242260035127401352e-03 1.237016245722770691e-01 2.497136294841766357e-01
-1.501840204000473022e-01 3.173344731330871582e-01 -1.154925972223281860e-01
-2.112281508743762970e-02 2.214845418930053711e-01 -2.146863788366317749e-01
3.305189013481140137e-01 -2.908149957656860352e-01 1.519344598054885864e-01
5.117564201354980469e-01 -3.115969002246856689e-01 2.882194519042968750e-01
1.086707934737205505e-01 -2.912341952323913574e-01 3.475374281406402588e-01
3.019577562808990479e-01 -3.115969002246856689e-01 -2.883905470371246338e-01
4.864414408802986145e-02 7.468309998512268066e-01 -5.528502911329269409e-02
-1.619911938905715942e-01 2.445178776979446411e-01 1.417842060327529907e-01
-4.875718951225280762e-01 -3.115969002246856689e-01 -9.723711013793945312e-02
-1.889966577291488647e-01 1.216183304786682129e-01 1.621915400028228760e-01
1.534966081380844116e-01 -1.477278470993041992e-01 -2.790906727313995361e-01
2.559173405170440674e-01 2.143470384180545807e-02 -1.025601029396057129e-01
2.761023044586181641e-01 -3.242800384759902954e-02 1.024527326226234436e-01
-3.139653801918029785e-01 -3.115969002246856689e-01 -4.288628101348876953e-01
5.650007724761962891e-02 -2.645467221736907959e-01 -3.454467356204986572e-01
-1.939131915569305420e-01 4.260312765836715698e-02 -1.796713322401046753e-01
-2.655109763145446777e-01 1.608461514115333557e-02 -6.281802803277969360e-02
3.728129900991916656e-03 9.742515683174133301e-01 -8.745642378926277161e-03
3.353788554668426514e-01 -1.872753202915191650e-01 3.037223964929580688e-02
-2.803107798099517822e-01 -4.345037508755922318e-03 -1.302706822752952576e-02
6.377223134040832520e-02 2.871237099170684814e-01 1.950850486755371094e-01
-5.366765335202217102e-02 4.427590668201446533e-01 1.529880613088607788e-01
-4.109547734260559082e-01 -3.115969002246856689e-01 -1.759861111640930176e-01
-3.928985297679901123e-01 -3.115969002246856689e-01 -1.217209473252296448e-01
-1.163939088582992554e-01 -1.805360764265060425e-01 -3.044990003108978271e-01
2.418993711471557617e-01 -2.780833244323730469e-01 -2.601115107536315918e-01
-2.000913321971893311e-01 2.268786430358886719e-01 -7.911949604749679565e-02
-2.691005170345306396e-01 -3.115969002246856689e-01 -3.430757224559783936e-01
2.027647495269775391e-01 -4.484407603740692139e-02 -2.091251164674758911e-01
-4.507197737693786621e-01 -3.115969002246856689e-01 3.017576336860656738e-01
-8.770921081304550171e-02 4.877569153904914856e-02 -2.475727200508117676e-01
7.219257950782775879e-02 7.365421056747436523e-01 3.726495057344436646e-02
-1.789826750755310059e-01 -3.115969002246856689e-01 4.890943765640258789e-01
2.259662747383117676e-01 1.015226244926452637e-01 1.196841150522232056e-01
1.846783235669136047e-02 -2.479800134897232056e-01 -3.458324670791625977e-01
-5.518437549471855164e-02 3.890987932682037354e-01 1.684071272611618042e-01
-1.471164673566818237e-01 -3.115969002246856689e-01 3.527098000049591064e-01
5.494500994682312012e-01 -3.115969002246856689e-01 -3.437130898237228394e-02
1.580552905797958374e-01 4.290279746055603027e-01 4.997827857732772827e-02
3.022908866405487061e-01 -2.373882383108139038e-01 -1.680251508951187134e-01
8.687037229537963867e-02 -3.115969002246856689e-01 4.162852168083190918e-01
1.122085675597190857e-01 6.148154139518737793e-01 -1.721237599849700928e-02
-3.107256069779396057e-02 5.826917886734008789e-01 -1.117468252778053284e-01
1.367115378379821777e-01 -1.770278066396713257e-01 3.054978549480438232e-01
1.169888228178024292e-01 6.728062778711318970e-02 2.408194094896316528e-01
1.498185694217681885e-01 3.723559379577636719e-01 -9.533791244029998779e-02
-2.132286727428436279e-01 -3.111338317394256592e-01 3.015950620174407959e-01
-2.204819172620773315e-01 -1.791485399007797241e-01 -2.411403656005859375e-01
3.306528031826019287e-01 -3.115969002246856689e-01 -4.428744614124298096e-01
6.106004118919372559e-02 1.539207249879837036e-01 2.344181090593338013e-01
-1.139679178595542908e-01 2.672778666019439697e-01 -1.673660576343536377e-01
2.815496325492858887e-01 -2.289929240942001343e-01 2.058569490909576416e-01
7.602179795503616333e-02 4.338305294513702393e-01 -1.392822712659835815e-01
9.859943389892578125e-02 4.819063842296600342e-01 -1.082273796200752258e-01
1.371084302663803101e-01 -1.690325587987899780e-01 -2.940427064895629883e-01
-1.057790145277976990e-01 -3.115969002246856689e-01 4.728209376335144043e-01
3.340192139148712158e-01 -1.887576729059219360e-01 -4.669199697673320770e-03
-9.312065690755844116e-02 -3.115969002246856689e-01 -4.546138644218444824e-01
1.224010661244392395e-01 1.377020478248596191e-01 -2.069302499294281006e-01
-1.137686744332313538e-01 2.301108241081237793e-01 1.878644526004791260e-01
-2.346776276826858521e-01 1.435014009475708008e-01 5.331513658165931702e-02
3.840468823909759521e-01 -3.115969002246856689e-01 4.166940748691558838e-01
-8.245874196290969849e-02 2.204564660787582397e-01 2.068515568971633911e-01
-8.811725676059722900e-02 6.383771300315856934e-01 5.681471899151802063e-02
7.599015533924102783e-02 3.294644057750701904e-01 -1.714975535869598389e-01
-5.392171442508697510e-03 -3.115969002246856689e-01 5.748575329780578613e-01
-2.259913980960845947e-01 2.071980200707912445e-02 1.560492515563964844e-01
-2.970886826515197754e-01 -6.766542792320251465e-02 -5.036707152612507343e-04
-8.933981508016586304e-02 6.709486842155456543e-01 3.186473250389099121e-02
-9.605353325605392456e-02 6.371131539344787598e-01 -3.506260365247726440e-02
2.052505016326904297e-01 8.615218102931976318e-02 1.611833572387695312e-01
-2.938521504402160645e-01 -1.048649996519088745e-01 -8.914782106876373291e-02
3.307635784149169922e-01 -2.775039374828338623e-01 -1.379903703927993774e-01
-2.100551128387451172e-01 2.457542270421981812e-01 1.570584252476692200e-02
1.401568502187728882e-01 2.579447329044342041e-01 1.628609895706176758e-01
1.718581020832061768e-01 -3.115969002246856689e-01 4.011634290218353271e-01
2.083037048578262329e-01 -3.115969002246856689e-01 -3.947483599185943604e-01
1.390570253133773804e-01 3.058588206768035889e-01 -1.368530988693237305e-01
-4.727664589881896973e-01 -3.115969002246856689e-01 -2.222321480512619019e-01
-2.013951838016510010e-01 9.805101156234741211e-02 1.549534052610397339e-01
2.415550649166107178e-01 1.290525048971176147e-01 -5.089928209781646729e-02
1.941223591566085815e-01 -1.013240292668342590e-01 2.460547238588333130e-01
2.012178301811218262e-01 2.394982874393463135e-01 8.483163267374038696e-02
-1.833155867643654346e-03 -1.818447746336460114e-02 -2.815915644168853760e-01
2.613017261028289795e-01 -1.482554525136947632e-01 -1.862838268280029297e-01
1.041065230965614319e-01 5.098571181297302246e-01 9.953022748231887817e-02
3.207121491432189941e-01 -2.351559102535247803e-01 1.375307589769363403e-01
2.843414247035980225e-01 -8.941984735429286957e-03 -8.965448476374149323e-03
4.489700868725776672e-02 -1.654192991554737091e-02 -2.782618105411529541e-01
2.750670611858367920e-01 -1.096149533987045288e-01 1.510538160800933838e-01
-1.587156355381011963e-01 1.105627045035362244e-01 -1.896789371967315674e-01
-2.098263800144195557e-01 -3.219687566161155701e-02 2.014329433441162109e-01
5.743827298283576965e-02 4.962153136730194092e-01 1.367688477039337158e-01
-4.033786058425903320e-02 4.737230837345123291e-01 1.478117257356643677e-01
-5.924081057310104370e-02 -1.494797784835100174e-02 2.810402810573577881e-01
-2.279678881168365479e-01 5.491557344794273376e-02 -1.283629238605499268e-01
3.045240044593811035e-01 -1.001301705837249756e-01 -6.078159436583518982e-02
-1.096634566783905029e-01 5.972062945365905762e-01 -2.825102582573890686e-02
3.743325769901275635e-01 -3.115969002246856689e-01 -3.860844373703002930e-01
-2.447457909584045410e-01 -1.921185255050659180e-01 2.290903329849243164e-01
2.093429714441299438e-01 1.015066877007484436e-01 -1.402968168258666992e-01
3.714698255062103271e-01 -3.115969002246856689e-01 -1.108884736895561218e-01
8.356373012065887451e-02 -1.578111797571182251e-01 3.171376287937164307e-01
1.605912744998931885e-01 -2.192228138446807861e-01 3.063450157642364502e-01
-3.277657926082611084e-01 -1.873167455196380615e-01 4.326489195227622986e-02
1.543892174959182739e-01 4.658490121364593506e-01 3.567437175661325455e-03
-1.967209279537200928e-01 -1.100628674030303955e-01 -2.372702360153198242e-01
1.382759958505630493e-01 5.213327407836914062e-01 -1.314103417098522186e-02
3.985016047954559326e-01 -3.115969002246856689e-01 2.522830963134765625e-01
1.052039563655853271e-01 1.856981515884399414e-01 2.096983641386032104e-01
1.956509649753570557e-01 1.894007474184036255e-01 1.259507238864898682e-01
-1.198750883340835571e-01 -1.744489744305610657e-02 -2.562884390354156494e-01
-1.438145935535430908e-01 2.325529903173446655e-01 -1.572978794574737549e-01
-6.435770541429519653e-02 -3.115969002246856689e-01 -5.613805055618286133e-01
-6.082009524106979370e-02 -1.560339033603668213e-01 -3.153976202011108398e-01
1.008302625268697739e-02 6.547725796699523926e-01 -9.710162132978439331e-02
-1.955860406160354614e-01 -3.115969002246856689e-01 -4.358738362789154053e-01
-5.511648058891296387e-01 -3.115969002246856689e-01 6.815893948078155518e-02
-8.169046044349670410e-02 -3.115969002246856689e-01 5.674847364425659180e-01
-1.885121017694473267e-01 1.189890317618846893e-02 2.043578475713729858e-01
-5.753928422927856445e-01 -3.115969002246856689e-01 -6.563318520784378052e-02
-7.977133989334106445e-02 4.965516328811645508e-01 -1.144788488745689392e-01
-2.506545782089233398e-01 9.665630012750625610e-02 2.374085783958435059e-02
-1.449072510004043579e-01 6.544917821884155273e-02 -2.133817523717880249e-01
2.545218467712402344e-01 -3.115969002246856689e-01 -3.615742921829223633e-01
1.760216057300567627e-02 -1.536095291376113892e-01 3.254596590995788574e-01
-1.919860020279884338e-02 6.571761965751647949e-01 1.008014082908630371e-01
4.694354832172393799e-01 -3.115969002246856689e-01 2.675690352916717529e-01
1.097197178751230240e-02 6.508282423019409180e-01 1.045360267162322998e-01
-5.639737844467163086e-01 -3.115969002246856689e-01 -1.017997860908508301e-01
-2.031724452972412109e-01 -2.603841423988342285e-01 2.918919026851654053e-01
3.369034826755523682e-01 -2.052223831415176392e-01 -3.690759837627410889e-02
5.818264931440353394e-02 -3.931387513875961304e-02 2.911355495452880859e-01
-3.495271801948547363e-01 -2.630260884761810303e-01 2.488937601447105408e-02
-6.835572421550750732e-02 -2.590667307376861572e-01 -3.427059352397918701e-01
2.832702994346618652e-01 -1.582064777612686157e-01 1.643306165933609009e-01
-1.542780846357345581e-01 -3.115969002246856689e-01 3.800197243690490723e-01
-6.086719781160354614e-02 -3.115969002246856689e-01 5.025951266288757324e-01
3.449704647064208984e-01 -3.115969002246856689e-01 2.895121276378631592e-01
5.231875181198120117e-02 5.271115899085998535e-01 -1.226231232285499573e-01
-4.509939253330230713e-01 -3.115969002246856689e-01 -8.515418320894241333e-02
4.072746634483337402e-01 -3.115969002246856689e-01 3.856202587485313416e-02
-2.441568225622177124e-01 -1.429978013038635254e-01 2.107408046722412109e-01
-8.862572908401489258e-02 1.841560900211334229e-01 2.148970067501068115e-01
4.097199067473411560e-02 -1.122768521308898926e-01 -3.059949278831481934e-01
-2.504130899906158447e-01 -3.115969002246856689e-01 3.376924097537994385e-01
2.869642674922943115e-01 -2.461766637861728668e-02 -4.207016155123710632e-02
1.751655340194702148e-01 3.494278192520141602e-01 -5.945472046732902527e-02
-3.838305175304412842e-01 -3.115969002246856689e-01 3.816648572683334351e-02
1.326804310083389282e-01 -3.115969002246856689e-01 -4.612183868885040283e-01
2.593833804130554199e-01 4.064815118908882141e-02 8.630125969648361206e-02
1.357408165931701660e-01 3.137455508112907410e-02 -2.329131811857223511e-01
-1.488363295793533325e-01 -5.507801100611686707e-02 -2.502792477607727051e-01
2.820477485656738281e-01 -1.703435778617858887e-01 -1.654046922922134399e-01
1.345899850130081177e-01 -1.620242185890674591e-02 -2.481800317764282227e-01
-3.988391757011413574e-01 -3.115969002246856689e-01 1.935110241174697876e-01
-3.655734360218048096e-01 -3.115969002246856689e-01 -1.315460503101348877e-01
-3.117019832134246826e-01 -1.725352704524993896e-01 -9.456724673509597778e-02
1.635958701372146606e-01 3.474194407463073730e-01 -8.666205406188964844e-02
5.215233564376831055e-01 -3.115969002246856689e-01 -1.388088762760162354e-01
2.412657737731933594e-01 -8.101235330104827881e-02 1.898162513971328735e-01
-2.819094955921173096e-01 -3.115969002246856689e-01 -3.134059906005859375e-01
-5.579287409782409668e-01 -3.115969002246856689e-01 2.003460749983787537e-02
2.810570895671844482e-01 -2.559665143489837646e-01 2.174592912197113037e-01
-6.376969814300537109e-02 3.087613880634307861e-01 -1.802563071250915527e-01
-3.391800522804260254e-01 -2.489690780639648438e-01 8.053866028785705566e-02
-2.215243726968765259e-01 1.272107064723968506e-01 1.085296571254730225e-01
-2.828315794467926025e-01 -3.590441867709159851e-02 -5.012446641921997070e-02
-1.992943733930587769e-01 2.861046195030212402e-01 9.087394922971725464e-03
1.375053226947784424e-01 2.796040177345275879e-01 -1.479708850383758545e-01
-1.267936229705810547e-01 4.886862635612487793e-01 7.273691147565841675e-02
-3.573637083172798157e-02 -3.115969002246856689e-01 -3.890707194805145264e-01
-8.044000715017318726e-02 7.140036225318908691e-01 -1.149161718785762787e-02
-1.861124038696289062e-01 3.295736014842987061e-01 3.312331438064575195e-02
-2.848144769668579102e-01 -1.392592191696166992e-01 -1.343458145856857300e-01
3.364890515804290771e-01 -3.115969002246856689e-01 -3.879987895488739014e-01
-3.854881599545478821e-02 -6.668992340564727783e-02 3.000034987926483154e-01
-3.330274224281311035e-01 -3.010632991790771484e-01 1.460703313350677490e-01
-2.515184879302978516e-01 -1.200672611594200134e-01 -1.825499981641769409e-01
-8.777366951107978821e-03 7.778086066246032715e-01 6.914422661066055298e-02
3.061267137527465820e-01 -8.767744898796081543e-02 -6.434258073568344116e-03
2.196231484413146973e-01 -1.093368008732795715e-01 -2.177722752094268799e-01
-2.841593623161315918e-01 -3.115969002246856689e-01 -2.385732978582382202e-01
1.827630847692489624e-01 -3.115969002246856689e-01 -5.018225908279418945e-01
-3.422731161117553711e-01 -3.115969002246856689e-01 -4.252389669418334961e-01
4.490402340888977051e-02 1.725457422435283661e-02 -2.687666416168212891e-01
-2.681569159030914307e-01 -9.164557605981826782e-02 1.477160900831222534e-01
3.451170921325683594e-01 -2.356604039669036865e-01 -4.000432416796684265e-02
-3.050504326820373535e-01 -2.828388810157775879e-01 1.873687356710433960e-01
6.466356664896011353e-02 -3.115969002246856689e-01 5.613942742347717285e-01
-6.917692720890045166e-02 -3.115969002246856689e-01 -4.743724465370178223e-01
1.850512027740478516e-01 3.543252050876617432e-01 3.322073724120855331e-03
2.178466916084289551e-01 1.384424567222595215e-01 -1.084943637251853943e-01
1.145341321825981140e-01 -7.971249520778656006e-02 2.845748662948608398e-01
-1.731950640678405762e-01 1.106798648834228516e-01 1.816289275884628296e-01
-2.434451282024383545e-01 9.043334051966667175e-03 -1.257703751325607300e-01
-1.568706333637237549e-01 3.611672520637512207e-01 -8.262219280004501343e-02
8.527323603630065918e-02 3.544822037220001221e-01 1.673694700002670288e-01
-2.461787611246109009e-01 6.859404593706130981e-02 -8.422331511974334717e-02
-2.528103590011596680e-01 -3.115969002246856689e-01 4.844966530799865723e-01
1.393615733832120895e-02 3.292785584926605225e-02 2.743393480777740479e-01
-5.791176576167345047e-03 -3.115969002246856689e-01 -5.077098608016967773e-01
3.156298398971557617e-01 -2.316006124019622803e-01 -1.438090801239013672e-01
3.369616568088531494e-01 -3.115969002246856689e-01 2.325436323881149292e-01
-4.312003254890441895e-01 -3.115969002246856689e-01 3.709963560104370117e-01
-2.374892495572566986e-02 4.195129275321960449e-01 -1.600840985774993896e-01
2.524306997656822205e-02 3.361613750457763672e-01 1.903573870658874512e-01
3.726326227188110352e-01 -3.115969002246856689e-01 5.107108876109123230e-02
6.270125508308410645e-02 1.988673657178878784e-01 2.209109812974929810e-01
2.815432548522949219e-01 -7.514423877000808716e-02 1.175864860415458679e-01
-2.214374840259552002e-01 -3.115969002246856689e-01 -3.223097920417785645e-01
1.528096199035644531e-01 1.285599768161773682e-01 -1.900543123483657837e-01
1.721872538328170776e-01 -3.674601018428802490e-02 -2.337372750043869019e-01
4.049698710441589355e-01 -3.115969002246856689e-01 1.339364051818847656e-01
2.443947046995162964e-01 1.340367794036865234e-01 -2.113197557628154755e-02
6.035424396395683289e-02 6.290661096572875977e-01 9.364775568246841431e-02
1.413363665342330933e-01 3.139130473136901855e-01 1.386130452156066895e-01
-1.471053063869476318e-01 -4.882176965475082397e-02 2.568752467632293701e-01
-3.816627562046051025e-01 -3.115969002246856689e-01 3.252086043357849121e-01
1.944993287324905396e-01 3.177568614482879639e-01 2.574205957353115082e-02
-9.269666671752929688e-02 4.982970058917999268e-01 1.108552366495132446e-01
5.232106149196624756e-02 1.320913583040237427e-01 -2.349207699298858643e-01
4.022601246833801270e-01 -3.115969002246856689e-01 1.007233038544654846e-01
1.390705853700637817e-01 3.770182728767395020e-01 1.152561232447624207e-01
-2.469980418682098389e-01 -1.703913956880569458e-01 -2.081838846206665039e-01
3.304057419300079346e-01 -2.289108335971832275e-01 1.082650646567344666e-01
4.681420028209686279e-01 -3.115969002246856689e-01 1.724549531936645508e-01
1.761545836925506592e-01 4.465453699231147766e-02 2.099175155162811279e-01
-8.663090318441390991e-02 -3.055805563926696777e-01 -3.502245843410491943e-01
9.414594620466232300e-02 6.532224416732788086e-01 -3.877937421202659607e-02
-6.530363857746124268e-02 -2.116666883230209351e-01 -3.300085663795471191e-01
-1.121285036206245422e-01 -3.115969002246856689e-01 5.192598700523376465e-01
-2.241209000349044800e-01 1.920355409383773804e-01 2.962132915854454041e-02
4.629592597484588623e-01 -3.115969002246856689e-01 3.058644533157348633e-01
9.709395468235015869e-02 2.133537977933883667e-01 2.056066840887069702e-01
1.352745890617370605e-01 1.107322331517934799e-02 2.473737299442291260e-01
-1.825379878282546997e-01 2.110200971364974976e-01 -1.230224147439002991e-01
-2.638046443462371826e-01 -1.131973490118980408e-01 1.653324067592620850e-01
-1.158575415611267090e-01 5.477006435394287109e-01 5.980050936341285706e-02
-4.751317948102951050e-02 6.368342638015747070e-01 -8.945783972740173340e-02
-2.991974651813507080e-01 -3.115969002246856689e-01 -3.988758921623229980e-01
-5.800718069076538086e-02 4.886982440948486328e-01 -1.301720589399337769e-01
2.358965575695037842e-01 -3.115969002246856689e-01 -4.616415500640869141e-01
-3.517164587974548340e-01 -2.942125201225280762e-01 -6.730834394693374634e-02
4.733072966337203979e-02 3.846986889839172363e-01 -1.650277376174926758e-01
-3.573351204395294189e-01 -2.903607189655303955e-01 1.921555772423744202e-02
-5.140489339828491211e-01 -3.115969002246856689e-01 -7.695013284683227539e-02
3.166268467903137207e-01 -1.699969023466110229e-01 9.531822800636291504e-02
-4.200506210327148438e-01 -3.115969002246856689e-01 -2.903495132923126221e-01
6.121354550123214722e-02 7.948781847953796387e-01 2.226613648235797882e-02
-1.299313157796859741e-01 1.206723228096961975e-01 -2.050063312053680420e-01
1.679234355688095093e-01 2.420139461755752563e-01 -1.332539618015289307e-01
-2.265174090862274170e-01 1.196346580982208252e-01 -9.214682877063751221e-02
2.171987444162368774e-01 2.332041859626770020e-01 -1.955141685903072357e-02
1.416200995445251465e-01 -3.115969002246856689e-01 4.972275197505950928e-01
-5.003480240702629089e-02 3.852420300245285034e-02 -2.627160251140594482e-01
-3.348014652729034424e-01 -2.350531220436096191e-01 -6.869180500507354736e-02
1.195056512951850891e-01 4.047760367393493652e-01 1.255466639995574951e-01
2.208233922719955444e-01 -3.115969002246856689e-01 -3.526274859905242920e-01
-4.293026924133300781e-01 -3.115969002246856689e-01 -2.375380396842956543e-01
-5.074331536889076233e-02 -2.317783236503601074e-01 3.437693417072296143e-01
-7.235725969076156616e-02 -3.115969002246856689e-01 4.772760570049285889e-01
7.321144454181194305e-03 2.839301526546478271e-01 2.056385874748229980e-01
1.196658462285995483e-01 -2.131499536335468292e-02 2.660563886165618896e-01
1.466912478208541870e-01 4.052670001983642578e-01 -8.353393524885177612e-02
2.671483159065246582e-01 2.749089524149894714e-02 -6.242679059505462646e-02
5.615442991256713867e-02 -3.115969002246856689e-01 3.924046754837036133e-01
2.801262140274047852e-01 4.027192480862140656e-03 3.744235634803771973e-02
-3.529964089393615723e-01 -3.115969002246856689e-01 1.753519624471664429e-01
1.134048178791999817e-01 -2.195216566324234009e-01 -3.206209838390350342e-01
-1.137224510312080383e-01 3.554672598838806152e-01 -1.386662125587463379e-01
-2.053960114717483521e-01 -3.115969002246856689e-01 -4.106782972812652588e-01
5.298565030097961426e-01 -3.115969002246856689e-01 -2.260217517614364624e-01
3.303907066583633423e-02 9.074069261550903320e-01 5.546343047171831131e-03
1.904825866222381592e-01 -2.179867178201675415e-01 2.865880429744720459e-01
7.256364822387695312e-02 -3.115969002246856689e-01 4.852912127971649170e-01
-2.356491386890411377e-01 1.003056541085243225e-01 8.887149393558502197e-02
8.682837942615151405e-04 -1.031793877482414246e-01 3.124418854713439941e-01
5.032519102096557617e-01 -3.115969002246856689e-01 -5.660155043005943298e-02
2.903306782245635986e-01 -7.237951457500457764e-02 -7.989654690027236938e-02
1.647316478192806244e-02 4.474316835403442383e-01 1.601998805999755859e-01
-1.950576454401016235e-01 1.810979396104812622e-01 1.227668076753616333e-01
-2.524358034133911133e-01 -3.800603747367858887e-02 -1.365765482187271118e-01
1.255610734224319458e-01 5.508964657783508301e-01 4.184683412313461304e-02
2.360025644302368164e-01 -9.911163151264190674e-02 -1.991987824440002441e-01
-2.082969844341278076e-01 2.345399111509323120e-01 5.361598730087280273e-02
1.756238043308258057e-01 3.890573382377624512e-01 5.781912710517644882e-03
-1.310550421476364136e-01 -1.634131073951721191e-01 3.004346787929534912e-01
1.837314069271087646e-01 -4.022480174899101257e-02 2.327874898910522461e-01
-1.661227047443389893e-01 -7.834249734878540039e-02 2.562599778175354004e-01
1.568956971168518066e-01 -3.115969002246856689e-01 -4.498846232891082764e-01
-2.528709471225738525e-01 -2.227582037448883057e-01 -2.231438755989074707e-01
-7.565274089574813843e-02 3.093542344868183136e-02 2.646393775939941406e-01
-3.890387713909149170e-01 -3.115969002246856689e-01 1.387222409248352051e-01
3.237908780574798584e-01 -3.115969002246856689e-01 4.409611225128173828e-01
-9.779970347881317139e-02 6.563959121704101562e-01 -5.993372295051813126e-03
1.202619895339012146e-01 -3.115969002246856689e-01 -5.174042582511901855e-01
1.368223130702972412e-01 -3.115969002246856689e-01 -3.487796783447265625e-01
2.214298844337463379e-01 -1.828688234090805054e-01 -2.433551400899887085e-01
2.805519104003906250e-02 4.911035299301147461e-01 -1.392623484134674072e-01
-7.536742836236953735e-02 7.387169599533081055e-01 -1.976845785975456238e-03
2.577671408653259277e-01 -4.190005362033843994e-02 1.440292894840240479e-01
-9.873056411743164062e-02 6.002084612846374512e-01 5.971395596861839294e-02
-1.556648164987564087e-01 2.569853365421295166e-01 -1.341585218906402588e-01
-1.366099566221237183e-01 -2.704610824584960938e-01 -3.239228427410125732e-01
-2.108879387378692627e-01 2.149120718240737915e-01 -5.706929042935371399e-02
1.244676187634468079e-01 4.859956800937652588e-01 -7.705612480640411377e-02
2.589840888977050781e-01 -1.972503401339054108e-02 -1.248992830514907837e-01
-4.174309968948364258e-01 -3.115969002246856689e-01 -1.338397413492202759e-01
2.235722541809082031e-02 7.161218672990798950e-02 2.632693648338317871e-01
4.253174066543579102e-01 -3.115969002246856689e-01 3.732677400112152100e-01
2.283524125814437866e-01 1.529852449893951416e-01 8.384259045124053955e-02
-1.678338050842285156e-01 -1.527344435453414917e-01 -2.699366211891174316e-01
7.132969051599502563e-02 7.164886593818664551e-01 5.105300247669219971e-02
6.422084569931030273e-02 -2.352555245161056519e-01 3.455378413200378418e-01
1.148976571857929230e-02 -2.974131405353546143e-01 -3.590734004974365234e-01
6.524455547332763672e-02 5.546725392341613770e-01 1.148265600204467773e-01
2.144587486982345581e-01 -2.513504326343536377e-01 2.819823324680328369e-01
2.386118471622467041e-01 8.822585456073284149e-03 1.508880555629730225e-01
-1.606148183345794678e-01 -3.115969002246856689e-01 -3.713691234588623047e-01
1.243401095271110535e-01 -3.115969002246856689e-01 -5.605971217155456543e-01
6.747010350227355957e-02 4.369220435619354248e-01 1.506425738334655762e-01
3.386823236942291260e-01 -2.503964602947235107e-01 -8.930481970310211182e-02
-2.448095381259918213e-01 1.144519373774528503e-01 4.237323626875877380e-02
-2.936281077563762665e-02 3.888907730579376221e-01 1.739907264709472656e-01
3.818289041519165039e-01 -3.115969002246856689e-01 1.569442600011825562e-01
-1.114988923072814941e-01 -9.446927160024642944e-02 -2.812345325946807861e-01
-1.854109577834606171e-02 -2.076682895421981812e-01 -3.328569233417510986e-01
-1.353324055671691895e-01 -2.684096395969390869e-01 3.306407928466796875e-01
4.951283335685729980e-01 -3.115969002246856689e-01 -1.095328256487846375e-01
-6.219296157360076904e-02 -1.195611879229545593e-01 -3.044233024120330811e-01
-3.415454924106597900e-01 -3.115969002246856689e-01 2.947905063629150391e-01
-4.417586028575897217e-01 -3.115969002246856689e-01 2.365452200174331665e-01
3.911910578608512878e-02 6.632658839225769043e-01 9.446545690298080444e-02
-1.824901551008224487e-01 2.873058319091796875e-01 8.631081879138946533e-02
-1.067320816218852997e-02 8.447384834289550781e-01 -4.269052669405937195e-02
-3.079243302345275879e-01 -1.874857246875762939e-01 1.222997754812240601e-01
-1.788758933544158936e-01 3.542375564575195312e-01 -2.376788854598999023e-02
4.049817919731140137e-01 -3.115969002246856689e-01 -3.297598958015441895e-01
-3.127037584781646729e-01 -3.115969002246856689e-01 4.592747986316680908e-01
2.049508541822433472e-01 7.297500967979431152e-02 -1.615011245012283325e-01
-4.854981303215026855e-01 -3.115969002246856689e-01 -1.688029915094375610e-01
-7.396530359983444214e-03 9.237784147262573242e-01 2.824368141591548920e-02
-3.273058310151100159e-02 1.129639428108930588e-02 2.793411314487457275e-01
-2.904706001281738281e-01 -2.466905415058135986e-01 -1.881105005741119385e-01
-4.619921743869781494e-01 -3.115969002246856689e-01 1.905598342418670654e-01
-2.753480076789855957e-01 -1.660510897636413574e-01 -1.690285354852676392e-01
-2.681234478950500488e-01 -4.852705635130405426e-03 -7.809378951787948608e-02
4.535860717296600342e-01 -3.115969002246856689e-01 -2.306274622678756714e-01
4.538905322551727295e-01 -3.115969002246856689e-01 2.268524169921875000e-01
-2.883562445640563965e-01 -2.914238870143890381e-01 2.174935638904571533e-01
-6.588686257600784302e-02 5.844985246658325195e-01 -9.468839317560195923e-02
-5.559601783752441406e-01 -3.115969002246856689e-01 -3.711927682161331177e-02
6.315553188323974609e-02 -1.467372179031372070e-01 -3.109281957149505615e-01
2.540436387062072754e-01 -3.115969002246856689e-01 -4.824473559856414795e-01
-4.000982642173767090e-02 3.705763220787048340e-01 -1.700941026210784912e-01
-1.286768764257431030e-01 1.930179595947265625e-01 1.913520246744155884e-01
9.216865152120590210e-02 6.509239077568054199e-01 4.985801875591278076e-02
-1.239101663231849670e-01 5.431467294692993164e-01 -3.264195472002029419e-02
-1.674664020538330078e-01 3.551644384860992432e-01 7.218939810991287231e-02
-1.291797608137130737e-01 -2.325936257839202881e-01 -3.153928518295288086e-01
4.752008318901062012e-01 -3.115969002246856689e-01 -5.908117815852165222e-02
1.839083433151245117e-01 1.693664938211441040e-01 -1.452834904193878174e-01
4.919165372848510742e-01 -3.115969002246856689e-01 1.115119457244873047e-01
-9.591715410351753235e-03 -1.759486943483352661e-01 -3.245883285999298096e-01
-1.245326027274131775e-01 2.012028843164443970e-01 -1.821491271257400513e-01
-1.881295591592788696e-01 -3.115969002246856689e-01 -5.016568899154663086e-01
2.533749938011169434e-01 8.832155168056488037e-02 5.179753527045249939e-02
-3.081530630588531494e-01 -1.501889079809188843e-01 -8.181964606046676636e-02
3.340806066989898682e-01 -3.115969002246856689e-01 3.891960680484771729e-01
-1.315117180347442627e-01 4.149478375911712646e-01 1.027197241783142090e-01
3.043510615825653076e-01 -2.878749668598175049e-01 -1.903611421585083008e-01
-2.829422801733016968e-02 -3.115969002246856689e-01 5.200344920158386230e-01
2.657153606414794922e-01 -6.368932127952575684e-02 -1.367239803075790405e-01
-1.178651228547096252e-01 -3.115969002246856689e-01 -4.235079586505889893e-01
1.556006222963333130e-01 3.105075657367706299e-01 -1.176675334572792053e-01
-1.111984327435493469e-01 -3.115969002246856689e-01 4.068785309791564941e-01
3.360548242926597595e-02 -1.792505830526351929e-01 -3.263854980468750000e-01
-4.267667233943939209e-01 -3.115969002246856689e-01 1.981334686279296875e-01
-1.510806232690811157e-01 4.428754448890686035e-01 -3.730043023824691772e-02
2.347337752580642700e-01 1.728204935789108276e-01 -1.393157755956053734e-03
-7.306034862995147705e-02 -3.115969002246856689e-01 5.449694395065307617e-01
-2.072099000215530396e-01 2.556622922420501709e-01 -2.076417207717895508e-02
8.291976898908615112e-02 2.447503507137298584e-01 2.011260986328125000e-01
1.431869417428970337e-01 5.049501061439514160e-01 1.979615353047847748e-02
-1.187513619661331177e-01 4.462801218032836914e-01 1.065818518400192261e-01
-1.749460101127624512e-01 -1.794984042644500732e-01 -2.740904390811920166e-01
-1.044663861393928528e-01 5.848165154457092285e-01 -5.016430839896202087e-02
2.232861518859863281e-02 -2.148450464010238647e-01 -3.369159400463104248e-01
-7.123565301299095154e-03 2.038425505161285400e-01 2.284033298492431641e-01
7.822965830564498901e-02 7.282782196998596191e-01 -2.099202759563922882e-02
5.835374593734741211e-01 -3.115969002246856689e-01 1.376345753669738770e-02
-2.977326214313507080e-01 -2.439768165349960327e-01 1.790291965007781982e-01
1.592643111944198608e-01 4.436509013175964355e-01 -2.055273391306400299e-02
-1.212958246469497681e-03 -3.115969002246856689e-01 4.731756150722503662e-01
1.712237000465393066e-01 3.358975946903228760e-01 8.532894402742385864e-02
2.190373837947845459e-01 -3.115969002246856689e-01 -5.060625076293945312e-01
-2.050469219684600830e-01 -3.115969002246856689e-01 -3.023782372474670410e-01
-1.552607417106628418e-01 3.940495848655700684e-01 -6.592918187379837036e-02
3.013153970241546631e-01 -3.115969002246856689e-01 2.492091357707977295e-01
-2.837465405464172363e-01 -3.905804827809333801e-02 6.455852836370468140e-02
-4.080936312675476074e-01 -3.115969002246856689e-01 3.209894299507141113e-01
-1.165309846401214600e-01 3.238489329814910889e-01 1.538982242345809937e-01
1.183819249272346497e-01 5.878425836563110352e-01 2.689615637063980103e-02
2.567406296730041504e-01 9.222990274429321289e-02 -4.522636067122220993e-03
4.251587986946105957e-01 -3.115969002246856689e-01 1.550267338752746582e-01
3.109986186027526855e-01 -1.165159568190574646e-01 5.141291022300720215e-02
-1.351020783185958862e-01 -6.925619393587112427e-02 2.693168222904205322e-01
6.340426206588745117e-02 3.149738013744354248e-01 1.871639192104339600e-01
4.051906168460845947e-01 -3.115969002246856689e-01 -2.309677749872207642e-01
3.383627235889434814e-01 -2.249992638826370239e-01 -6.761876493692398071e-02
2.188971042633056641e-01 -5.756934732198715210e-02 2.049802839756011963e-01
-1.684817522764205933e-01 5.846849083900451660e-02 2.052081972360610962e-01
1.795002669095993042e-01 1.913112550973892212e-01 1.465987265110015869e-01
-1.001308485865592957e-01 -3.115969002246856689e-01 -4.021610319614410400e-01
2.358678728342056274e-01 -3.115969002246856689e-01 5.049231052398681641e-01
2.608753144741058350e-01 -3.115969002246856689e-01 -4.324667453765869141e-01
-1.750551909208297729e-01 -2.275368422269821167e-01 -2.897398471832275391e-01
1.629941463470458984e-01 -3.115969002246856689e-01 -3.370091617107391357e-01
2.674471735954284668e-01 -2.403410524129867554e-01 -2.230753302574157715e-01
2.084479779005050659e-01 1.814546734094619751e-01 -1.012706011533737183e-01
5.431404709815979004e-01 -3.115969002246856689e-01 -8.840105682611465454e-02
3.745899796485900879e-01 -3.115969002246856689e-01 3.012180924415588379e-01
-2.800206840038299561e-01 -7.032174617052078247e-02 1.039885058999061584e-01
-2.514220476150512695e-01 -3.970518708229064941e-02 1.473120152950286865e-01
1.690862178802490234e-01 6.748864054679870605e-02 -1.979594975709915161e-01
3.096860051155090332e-01 -2.676835954189300537e-01 1.787239611148834229e-01
1.011975705623626709e-01 9.534686803817749023e-02 2.383479923009872437e-01
3.191038668155670166e-01 -2.192538827657699585e-01 -1.220429241657257080e-01
1.190537810325622559e-01 1.902813166379928589e-01 -1.924197226762771606e-01
1.840183287858963013e-01 2.291094958782196045e-01 -1.149171888828277588e-01
8.419732004404067993e-02 -3.115969002246856689e-01 -4.393462240695953369e-01
2.430390417575836182e-01 1.442275196313858032e-01 7.247308734804391861e-03
4.258259758353233337e-02 6.232944726943969727e-01 -9.792728722095489502e-02
2.579783201217651367e-01 -3.115969002246856689e-01 4.676071703433990479e-01
-1.637461334466934204e-01 -3.115969002246856689e-01 5.291391611099243164e-01
3.559870123863220215e-01 -2.790309190750122070e-01 -6.076303496956825256e-02
2.348079085350036621e-01 -3.115969002246856689e-01 -2.957554161548614502e-01
-4.359590113162994385e-01 -3.115969002246856689e-01 1.614256063476204872e-03
2.979752719402313232e-01 -9.636047482490539551e-02 8.581429719924926758e-02
2.102189511060714722e-02 9.610785171389579773e-03 2.803907692432403564e-01
5.208785533905029297e-01 -3.115969002246856689e-01 7.842252403497695923e-02
1.566199511289596558e-01 -3.115969002246856689e-01 5.347968935966491699e-01
-9.388495981693267822e-02 1.154282242059707642e-01 -2.263325601816177368e-01
-8.121307194232940674e-02 4.797697365283966064e-01 1.274864971637725830e-01
4.559953212738037109e-01 -3.115969002246856689e-01 6.749035418033599854e-02
-2.192187309265136719e-01 -3.788967803120613098e-02 -1.846380680799484253e-01
-5.702538788318634033e-02 1.484003365039825439e-01 -2.287338674068450928e-01
1.029198318719863892e-01 -3.115969002246856689e-01 3.609241843223571777e-01
-1.503665149211883545e-01 4.326502680778503418e-01 5.589175224304199219e-02
-9.922787547111511230e-02 3.381450474262237549e-01 -1.537194699048995972e-01
3.061602823436260223e-02 -2.730177640914916992e-01 3.576390743255615234e-01
5.007469654083251953e-01 -3.115969002246856689e-01 2.406090199947357178e-01
3.528668582439422607e-01 -3.115969002246856689e-01 2.657917737960815430e-01
-4.154479876160621643e-02 7.797699570655822754e-01 5.286866426467895508e-02
-5.187383294105529785e-01 -3.115969002246856689e-01 -1.855442374944686890e-01
-3.116206824779510498e-01 -2.478565126657485962e-01 -1.474456787109375000e-01
-5.336615443229675293e-02 7.176688909530639648e-01 6.517849117517471313e-02
-4.714562892913818359e-01 -3.115969002246856689e-01 1.672164499759674072e-01
2.716615796089172363e-01 -3.115969002246856689e-01 -5.035895109176635742e-01
-3.944342732429504395e-01 -3.115969002246856689e-01 -7.841656357049942017e-02
-1.593253165483474731e-01 3.381131589412689209e-01 -9.173320978879928589e-02
3.271915316581726074e-01 -1.677446514368057251e-01 4.299049079418182373e-02
-1.415719091892242432e-01 4.392579793930053711e-01 -6.542349606752395630e-02
-8.002070710062980652e-03 8.604404330253601074e-01 4.609773308038711548e-02
2.922530174255371094e-01 -1.142892166972160339e-01 -1.113666668534278870e-01
5.568324327468872070e-01 -3.115969002246856689e-01 2.369678393006324768e-02
1.878964006900787354e-01 -3.115969002246856689e-01 4.366495311260223389e-01
-2.533387839794158936e-01 -2.495452910661697388e-01 -2.336057573556900024e-01
-4.283040761947631836e-01 -3.115969002246856689e-01 -4.473014175891876221e-02
4.408521205186843872e-02 3.409567773342132568e-01 -1.780096441507339478e-01
1.003695204854011536e-01 4.089122638106346130e-02 2.543376684188842773e-01
7.977531105279922485e-02 6.392912864685058594e-01 -6.697663664817810059e-02
7.407718151807785034e-02 5.986974239349365234e-01 9.470135718584060669e-02
-2.748873531818389893e-01 6.907439790666103363e-03 3.262209519743919373e-02
-4.790090397000312805e-02 7.368783950805664062e-01 -5.646853893995285034e-02
3.367161750793457031e-01 -2.074730396270751953e-01 5.063690245151519775e-02
5.417426303029060364e-02 -6.738010048866271973e-02 -2.905583083629608154e-01
-2.738815844058990479e-01 -3.115969002246856689e-01 2.764027118682861328e-01
1.704880893230438232e-01 2.883062660694122314e-01 -1.058946326375007629e-01
3.806791210081428289e-04 1.754332780838012695e-01 -2.284493446350097656e-01
2.926180064678192139e-01 -5.180324614048004150e-02 5.235955864191055298e-02
-3.419862091541290283e-01 -3.115969002246856689e-01 2.408297657966613770e-01
-1.184979155659675598e-01 7.849884033203125000e-02 2.322208434343338013e-01
2.275705784559249878e-01 1.870142072439193726e-01 -4.239763692021369934e-02
2.543114423751831055e-01 -1.631540954113006592e-01 -2.046102583408355713e-01
-5.053211748600006104e-02 -2.666332125663757324e-01 3.536055982112884521e-01
-2.138271927833557129e-01 -2.869297266006469727e-01 -2.840733528137207031e-01
-1.130649447441101074e-01 -3.115969002246856689e-01 -3.600536584854125977e-01
-3.351123034954071045e-01 -2.131857573986053467e-01 3.873991221189498901e-02
-3.132025897502899170e-02 -3.115969002246856689e-01 5.707690715789794922e-01
-1.176864933222532272e-02 -3.115969002246856689e-01 -5.533732771873474121e-01
-1.462652981281280518e-01 2.643667459487915039e-01 1.490645557641983032e-01
-1.675532758235931396e-01 -3.115969002246856689e-01 3.384830057621002197e-01
1.770487874746322632e-01 1.158896759152412415e-01 1.802294403314590454e-01
-4.709748625755310059e-01 -3.115969002246856689e-01 -3.181464076042175293e-01
1.580616682767868042e-01 -3.115969002246856689e-01 3.384064733982086182e-01
-1.007094532251358032e-01 1.166459266096353531e-02 -2.540824115276336670e-01
-4.433174729347229004e-01 -3.115969002246856689e-01 7.008035480976104736e-02
7.707699388265609741e-02 3.723639249801635742e-01 -1.577059179544448853e-01
-2.130269259214401245e-02 -3.115969002246856689e-01 4.964711666107177734e-01
2.991772070527076721e-02 -3.115969002246856689e-01 4.568169414997100830e-01
-5.072673782706260681e-02 2.016351670026779175e-01 -2.154020667076110840e-01
1.594101488590240479e-01 6.166116893291473389e-02 2.151926904916763306e-01
-1.553396433591842651e-01 -1.342956572771072388e-01 2.790350914001464844e-01
2.406951338052749634e-01 -5.482218042016029358e-02 -1.708862930536270142e-01
