-1.974642872810363770e-01 3.417714238166809082e-01 1.204281300306320190e-01
8.239076286554336548e-02 3.417714238166809082e-01 9.153549373149871826e-02
1.110167503356933594e-01 -2.180002033710479736e-01 -1.647856784984469414e-03
1.684584766626358032e-01 -4.169580638408660889e-01 -1.490639639087021351e-03
2.733226399868726730e-03 -2.251843549311161041e-02 4.078705608844757080e-02
2.863145805895328522e-02 -2.675717771053314209e-01 3.598070936277508736e-03
1.723931133747100830e-01 3.637947738170623779e-01 -2.176004797220230103e-01
4.235269725322723389e-01 -6.719810962677001953e-01 2.283547772094607353e-03
3.575551807880401611e-01 -3.393445014953613281e-01 -3.882854245603084564e-03
-2.088603191077709198e-02 3.617494404315948486e-01 -7.491225004196166992e-02
-7.497455179691314697e-02 3.618578612804412842e-01 -3.318765014410018921e-02
2.094671428203582764e-01 3.649456501007080078e-01 -1.746519654989242554e-01
2.835602462291717529e-01 3.611963391304016113e-01 3.177129104733467102e-02
-1.624085158109664917e-01 3.417714238166809082e-01 -5.286109820008277893e-02
2.125241756439208984e-01 3.417714238166809082e-01 -1.489108502864837646e-01
-1.409229040145874023e-01 -3.594061732292175293e-02 2.779275178909301758e-01
2.946585789322853088e-02 -2.920439243316650391e-01 6.006944458931684494e-03
-1.329768169671297073e-02 -5.673320591449737549e-02 -7.192029152065515518e-03
-1.120624840259552002e-01 3.677594661712646484e-01 2.017231583595275879e-01
1.329353153705596924e-01 3.641764521598815918e-01 2.408703416585922241e-01
2.839740365743637085e-02 -3.520951792597770691e-02 2.011404372751712799e-03
1.861911267042160034e-01 -5.671097040176391602e-01 1.323258429765701294e-01
-9.505142271518707275e-02 7.778315246105194092e-02 1.633678525686264038e-01
-1.527444273233413696e-01 -1.790500730276107788e-01 2.889871597290039062e-01
1.659010648727416992e-01 3.607143163681030273e-01 2.332134991884231567e-01
2.671352326869964600e-01 -7.592597603797912598e-01 -1.911985687911510468e-03
-2.376019358634948730e-01 3.680597841739654541e-01 2.819647081196308136e-03
1.632799208164215088e-01 3.417714238166809082e-01 -5.523836240172386169e-02
-1.310060769319534302e-01 3.634848892688751221e-01 -4.122836142778396606e-02
-8.727517724037170410e-02 3.417714238166809082e-01 9.103587269783020020e-02
-1.343832314014434814e-01 3.681946396827697754e-01 1.999605894088745117e-01
-2.946730889379978180e-02 -1.308761239051818848e-01 7.896043360233306885e-03
-1.314119249582290649e-01 -7.718680500984191895e-01 2.259742319583892822e-01
6.352116167545318604e-02 3.417714238166809082e-01 2.025282531976699829e-01
1.828483939170837402e-01 3.653683066368103027e-01 1.297253370285034180e-02
4.143323004245758057e-02 1.016455516219139099e-02 1.487846765667200089e-02
8.975677192211151123e-02 3.627457320690155029e-01 -9.399576485157012939e-02
-4.756865650415420532e-02 -1.976024508476257324e-01 8.076887577772140503e-02
1.950089633464813232e-02 -1.591541469097137451e-01 2.429656498134136200e-02
-1.708184480667114258e-01 -5.042894482612609863e-01 3.203603029251098633e-01
2.125593423843383789e-01 3.417714238166809082e-01 -4.734819382429122925e-02
1.891862193588167429e-04 2.945813238620758057e-01 2.743658609688282013e-02
-1.537275314331054688e-01 -8.985928297042846680e-01 -2.887390851974487305e-01
-2.437989041209220886e-02 -8.721848577260971069e-02 -2.111764252185821533e-02
-2.988341264426708221e-02 4.901798069477081299e-02 -5.166165530681610107e-02
5.838026106357574463e-02 3.417714238166809082e-01 -3.480897843837738037e-02
2.112055420875549316e-01 -6.119827032089233398e-01 1.022421661764383316e-02
-8.884800970554351807e-02 3.633984327316284180e-01 -2.626895606517791748e-01
-1.772306561470031738e-01 3.417714238166809082e-01 -7.887400686740875244e-02
8.244570344686508179e-02 3.665499389171600342e-01 1.888599097728729248e-01
-1.276854518800973892e-02 3.150171935558319092e-01 1.806991733610630035e-02
3.830933868885040283e-01 -5.910699367523193359e-01 1.388751715421676636e-02
-2.003513425588607788e-01 -5.976045131683349609e-01 -3.358845412731170654e-01
1.873661577701568604e-01 -5.331887006759643555e-01 8.217605762183666229e-03
3.437504172325134277e-02 3.635984063148498535e-01 -2.747755348682403564e-01
-2.301040440797805786e-01 3.679755032062530518e-01 -3.327819705009460449e-02
-1.358227282762527466e-01 3.659573197364807129e-01 1.400925815105438232e-01
-1.362067274749279022e-02 6.592796742916107178e-02 -2.549058757722377777e-02
1.979635655879974365e-01 3.417714238166809082e-01 1.200757697224617004e-01
-3.807437792420387268e-02 3.613421320915222168e-01 -4.323634505271911621e-02
-6.975571066141128540e-02 3.659499883651733398e-01 -2.572838962078094482e-01
8.518371731042861938e-03 -3.433168232440948486e-01 -2.493354957550764084e-03
-2.040750086307525635e-01 3.417714238166809082e-01 -1.417067348957061768e-01
-1.570249721407890320e-02 -1.064397171139717102e-01 1.123091764748096466e-02
3.204753100872039795e-01 -7.188134640455245972e-02 -1.728886622004210949e-03
3.565954864025115967e-01 -2.581303119659423828e-01 7.139706052839756012e-03
-1.792093217372894287e-01 -4.005923569202423096e-01 3.094860017299652100e-01
-1.760175079107284546e-01 -5.662313699722290039e-01 -2.534027397632598877e-01
4.150781035423278809e-02 3.626944124698638916e-01 1.143426597118377686e-01
-1.541868597269058228e-01 -2.057289034128189087e-01 3.012775182723999023e-01
-7.144648581743240356e-02 -3.566350638866424561e-01 1.227709054946899414e-01
1.571160554885864258e-01 3.417714238166809082e-01 4.037176072597503662e-02
3.689195513725280762e-01 -4.621614217758178711e-01 1.354144979268312454e-02
1.602265536785125732e-01 3.417714238166809082e-01 2.096122205257415771e-01
-1.932028331793844700e-03 3.626189827919006348e-01 1.274959892034530640e-01
2.792989835143089294e-03 3.417714238166809082e-01 2.414417564868927002e-01
2.665982544422149658e-01 -5.633289217948913574e-01 6.628145277500152588e-02
2.497440669685602188e-03 3.604015111923217773e-01 -6.938936166989151388e-06
2.479564845561981201e-01 3.417714238166809082e-01 -6.127798184752464294e-02
1.023438349366188049e-01 3.417714238166809082e-01 -1.390042752027511597e-01
9.890952706336975098e-02 3.660869896411895752e-01 -1.696323901414871216e-01
-3.157250583171844482e-02 -1.252404451370239258e-01 6.038659065961837769e-02
-1.722476929426193237e-01 -8.916495442390441895e-01 -3.071142137050628662e-01
3.537611663341522217e-01 -2.291902452707290649e-01 4.352496005594730377e-03
-8.607375621795654297e-02 -4.564290344715118408e-01 -1.412869691848754883e-01
-1.298683881759643555e-01 3.417714238166809082e-01 -5.131727084517478943e-02
1.822513490915298462e-01 -5.118459463119506836e-01 1.082023698836565018e-02
-1.129437685012817383e-01 -6.430664658546447754e-01 -1.863291710615158081e-01
-3.990695113316178322e-04 -1.170957162976264954e-01 4.396854341030120850e-02
-1.012973412871360779e-01 3.652364611625671387e-01 1.466783881187438965e-01
-1.805609166622161865e-01 -3.947662115097045898e-01 -3.017473816871643066e-01
-1.781221926212310791e-01 -5.593656897544860840e-01 1.467875540256500244e-01
-2.765557169914245605e-01 3.417714238166809082e-01 -4.955521598458290100e-02
2.375157363712787628e-02 4.194824956357479095e-03 -1.180240046232938766e-02
1.038353443145751953e-01 3.417714238166809082e-01 1.238265335559844971e-01
-2.152386754751205444e-01 -7.746665477752685547e-01 3.748380243778228760e-01
-3.506650403141975403e-02 3.475609719753265381e-01 -2.866563796997070312e-01
1.404178142547607422e-01 -3.352908790111541748e-01 1.416054740548133850e-02
-2.205483764410018921e-01 3.683601021766662598e-01 -1.028833314776420593e-01
-2.207791358232498169e-01 3.680327236652374268e-01 8.646096289157867432e-02
-9.660668671131134033e-02 3.417714238166809082e-01 3.402072936296463013e-02
-1.873687207698822021e-01 3.659902811050415039e-01 -4.486140981316566467e-02
-1.165363043546676636e-01 -7.870396375656127930e-01 -2.206421196460723877e-01
-2.105758488178253174e-01 -7.492374181747436523e-01 3.764218389987945557e-01
-1.985120028257369995e-02 -1.073678731918334961e-01 7.766057550907135010e-02
-1.213215850293636322e-02 3.614812791347503662e-01 6.149643659591674805e-02
-4.949774220585823059e-02 -5.741204619407653809e-01 -2.479428946971893311e-01
-1.190937161445617676e-01 3.417714238166809082e-01 -5.149537231773138046e-03
-1.759017705917358398e-01 -5.649904012680053711e-01 -1.308434158563613892e-01
2.991691529750823975e-01 -8.874972462654113770e-01 1.384217012673616409e-02
-1.497943550348281860e-01 3.417714238166809082e-01 -1.655871272087097168e-01
-8.660413324832916260e-02 3.417714238166809082e-01 -7.215338200330734253e-02
1.975108236074447632e-01 3.417714238166809082e-01 1.386193782091140747e-01
-1.703137010335922241e-01 -2.882195115089416504e-01 2.964315712451934814e-01
-1.585068404674530029e-01 -3.073283433914184570e-01 -2.953066229820251465e-01
-1.183091402053833008e-01 5.462728068232536316e-02 2.201216965913772583e-01
1.709168590605258942e-02 4.660050570964813232e-02 -1.483114715665578842e-02
4.041855633258819580e-01 -6.434217691421508789e-01 9.021348319947719574e-03
1.296290848404169083e-02 2.562443614006042480e-01 -1.679634489119052887e-02
-1.522918231785297394e-02 1.518462300300598145e-01 1.233431696891784668e-02
8.043186366558074951e-02 3.655470907688140869e-01 -1.652772426605224609e-01
1.771621704101562500e-01 3.661419153213500977e-01 -8.936810493469238281e-02
7.136140018701553345e-03 9.986119111999869347e-04 -1.912431232631206512e-02
-1.421228498220443726e-01 3.417714238166809082e-01 -8.142994344234466553e-02
2.006160654127597809e-02 1.156915873289108276e-01 -1.396011933684349060e-02
-2.574364282190799713e-02 6.055162101984024048e-02 7.544381171464920044e-02
7.961650937795639038e-02 4.030695930123329163e-02 1.392040867358446121e-02
1.605884581804275513e-01 3.417714238166809082e-01 -1.973961144685745239e-01
-1.789280176162719727e-01 -5.583708286285400391e-01 -9.896026924252510071e-03
7.940699160099029541e-02 -5.612813830375671387e-01 -1.826333552598953247e-01
3.505100309848785400e-01 -5.497748255729675293e-01 9.971112944185733795e-03
6.539786607027053833e-02 3.651448786258697510e-01 1.625634878873825073e-01
-2.120673805475234985e-01 -8.441326022148132324e-01 3.923318684101104736e-01
2.054042965173721313e-01 -5.956184864044189453e-01 2.838159212842583656e-03
1.029650494456291199e-01 3.623428046703338623e-01 4.152974113821983337e-02
6.778966635465621948e-03 3.607135713100433350e-01 -1.811182498931884766e-02
3.047872483730316162e-01 -5.584412217140197754e-01 -3.618438169360160828e-02
5.930411070585250854e-02 3.663448095321655273e-01 2.566814720630645752e-01
-1.189435422420501709e-01 -6.936044692993164062e-01 -1.941442340612411499e-01
1.555489655584096909e-02 3.680077493190765381e-01 2.352976799011230469e-01
-1.881511062383651733e-01 3.663243055343627930e-01 -6.697271019220352173e-02
-1.240920573472976685e-01 3.646335601806640625e-01 1.131778657436370850e-01
-2.753749303519725800e-02 -1.360229961574077606e-02 -6.708522886037826538e-02
-2.814991176128387451e-01 3.614036440849304199e-01 -2.614667825400829315e-02
-8.929268270730972290e-02 3.417714238166809082e-01 -5.107039585709571838e-02
-1.028533279895782471e-01 3.417714238166809082e-01 2.158691287040710449e-01
-1.765260286629199982e-02 -5.714084506034851074e-01 2.328259646892547607e-01
-1.285416930913925171e-01 -7.729353904724121094e-01 -2.276198714971542358e-01
-1.511840522289276123e-01 -5.664020776748657227e-01 -2.963446676731109619e-01
2.414995878934860229e-01 3.417714238166809082e-01 1.080659776926040649e-01
3.356944918632507324e-01 -2.071991711854934692e-01 1.117311790585517883e-02
-1.829549670219421387e-01 3.654078841209411621e-01 5.503088701516389847e-03
-1.888940669596195221e-02 6.368041783571243286e-02 -6.541877239942550659e-02
6.689202040433883667e-02 3.417714238166809082e-01 2.489550113677978516e-01
-1.176711823791265488e-02 -2.338127791881561279e-01 2.040411345660686493e-02
1.184845939278602600e-01 3.417714238166809082e-01 -3.218483179807662964e-02
-1.277263462543487549e-01 3.417714238166809082e-01 -2.343690544366836548e-01
-1.284025162458419800e-01 3.649126887321472168e-01 -1.164256557822227478e-01
-5.744861438870429993e-03 3.610395789146423340e-01 3.733876347541809082e-02
1.391658335924148560e-01 -5.564214587211608887e-01 1.518342494964599609e-01
-2.036838233470916748e-01 -8.905022740364074707e-01 -3.520077168941497803e-01
6.540690083056688309e-04 3.417714238166809082e-01 1.114028394222259521e-01
4.023871123790740967e-01 -6.253448128700256348e-01 9.696984663605690002e-03
2.935604564845561981e-02 -5.663976669311523438e-01 2.231670171022415161e-01
-3.210420534014701843e-02 1.400102395564317703e-02 7.722322642803192139e-02
1.022639796137809753e-01 3.417714238166809082e-01 -1.858954727649688721e-01
-8.477564156055450439e-02 -5.701476335525512695e-01 -1.661072522401809692e-01
3.927038609981536865e-02 3.417714238166809082e-01 -7.132484763860702515e-02
-2.010884508490562439e-02 3.630621731281280518e-01 1.303764730691909790e-01
9.230099618434906006e-02 3.417714238166809082e-01 4.977674782276153564e-02
-1.742967069149017334e-01 -5.615670680999755859e-01 3.057484030723571777e-01
1.861215233802795410e-01 -5.741819739341735840e-01 -1.122316867113113403e-01
-1.454356685280799866e-02 3.417714238166809082e-01 -2.058793157339096069e-01
-1.227083522826433182e-02 1.708330512046813965e-01 1.923009380698204041e-02
1.452922169119119644e-02 3.618036210536956787e-01 -8.122849464416503906e-02
2.830730676651000977e-01 3.530889153480529785e-01 -7.700081169605255127e-02
-1.092516109347343445e-01 3.417714238166809082e-01 8.811950683593750000e-02
3.036796152591705322e-01 -5.719015002250671387e-01 6.124150007963180542e-02
-3.945175930857658386e-02 -1.503889262676239014e-01 6.754425913095474243e-02
-1.057066917419433594e-01 -6.129570007324218750e-01 1.964237242937088013e-01
-4.584535583853721619e-02 3.650027513504028320e-01 1.659428477287292480e-01
-1.154396459460258484e-01 -7.738423347473144531e-01 2.341980934143066406e-01
-1.309086382389068604e-01 3.333874791860580444e-02 2.252445816993713379e-01
-4.297298379242420197e-03 4.444015026092529297e-02 2.532817050814628601e-02
-1.958364993333816528e-01 3.672408163547515869e-01 -1.630494892597198486e-01
-1.942512094974517822e-01 -7.351698875427246094e-01 -3.565005660057067871e-01
-7.079962641000747681e-02 -4.108857512474060059e-01 -1.195361688733100891e-01
-4.279851540923118591e-02 3.417714238166809082e-01 1.107259541749954224e-01
1.972113270312547684e-03 3.678282797336578369e-01 2.510215938091278076e-01
1.330708414316177368e-01 3.638518750667572021e-01 6.170624494552612305e-02
-6.112979259341955185e-03 7.312256097793579102e-02 2.491873688995838165e-02
9.803850203752517700e-02 3.654452562332153320e-01 -2.506768405437469482e-01
1.674920879304409027e-02 -2.194345891475677490e-01 -1.528358459472656250e-02
1.149946227669715881e-01 3.636468052864074707e-01 9.193107485771179199e-02
-5.465710163116455078e-02 -2.733794450759887695e-01 -8.617921173572540283e-02
2.758250236511230469e-01 3.417714238166809082e-01 3.937971219420433044e-02
-7.492180913686752319e-02 3.417714238166809082e-01 4.641159996390342712e-02
-1.421770751476287842e-01 -2.879364416003227234e-02 -2.668740153312683105e-01
9.927701205015182495e-03 -3.289348781108856201e-01 2.840402163565158844e-02
-1.888074874877929688e-01 3.417714238166809082e-01 1.720935255289077759e-01
-1.882939487695693970e-01 -6.358052492141723633e-01 -3.484722971916198730e-01
-9.130579233169555664e-02 7.388442009687423706e-02 -1.782152056694030762e-01
2.410996258258819580e-01 3.681110441684722900e-01 -1.250033499673008919e-03
-1.598708927631378174e-01 -1.202545538544654846e-01 -2.687925994396209717e-01
6.108872964978218079e-02 3.417714238166809082e-01 3.597237542271614075e-02
-6.560326367616653442e-02 3.417714238166809082e-01 6.660121679306030273e-02
-9.633918525651097298e-04 3.206477165222167969e-01 -1.625944301486015320e-02
3.491306006908416748e-01 -2.871074974536895752e-01 1.362093351781368256e-02
2.741701304912567139e-01 -7.984765172004699707e-01 -3.759305691346526146e-03
-9.891867637634277344e-02 3.417714238166809082e-01 1.414873898029327393e-01
-1.830179691314697266e-01 3.667879998683929443e-01 -1.024005636572837830e-01
7.211855798959732056e-02 3.643712699413299561e-01 -1.406056731939315796e-01
3.139970079064369202e-02 3.595150709152221680e-01 2.869403362274169922e-01
1.640205532312393188e-01 -4.423284828662872314e-01 -1.866331789642572403e-03
1.034661233425140381e-01 3.417714238166809082e-01 2.055347263813018799e-01
6.644361466169357300e-02 3.650357127189636230e-01 -2.634953856468200684e-01
4.124607145786285400e-01 -6.981332302093505859e-01 -5.533354124054312706e-04
-1.579727977514266968e-01 -1.855186820030212402e-01 -2.924466431140899658e-01
-5.428349226713180542e-02 -3.200297355651855469e-01 1.084190830588340759e-01
-2.498359791934490204e-02 3.417714238166809082e-01 1.295303404331207275e-01
-2.965922001749277115e-03 3.664825260639190674e-01 2.061559408903121948e-01
1.444718688726425171e-01 3.417714238166809082e-01 2.204558113589882851e-03
-4.489305894821882248e-03 2.162418328225612640e-02 5.016823485493659973e-02
-9.962707012891769409e-02 -5.954228639602661133e-01 1.759197562932968140e-01
1.235246881842613220e-01 -3.037674427032470703e-01 -2.674710704013705254e-04
-1.780731081962585449e-01 -5.731952190399169922e-01 -2.974383831024169922e-01
2.505240403115749359e-02 -1.584677249193191528e-01 -1.551699591800570488e-03
1.124511361122131348e-01 3.623845875263214111e-01 2.536194212734699249e-02
-1.117511466145515442e-01 3.624511957168579102e-01 3.007479943335056305e-02
2.307952493429183960e-01 3.683747947216033936e-01 8.333434164524078369e-02
-2.336885184049606323e-01 3.417714238166809082e-01 -1.041499450802803040e-01
2.212652117013931274e-01 3.680209219455718994e-01 -9.004866331815719604e-02
-1.120551601052284241e-01 -6.789749860763549805e-01 1.972940266132354736e-01
-1.008101776242256165e-01 -5.592609047889709473e-01 1.757182925939559937e-01
-2.102344781160354614e-01 -8.952610492706298828e-01 3.656969964504241943e-01
3.715808317065238953e-02 3.417714238166809082e-01 -4.441871494054794312e-02
7.353457156568765640e-03 3.417714238166809082e-01 2.614321708679199219e-01
-1.930190324783325195e-01 -5.683880448341369629e-01 -9.941240400075912476e-02
-1.082699671387672424e-01 -7.304235100746154785e-01 2.180126309394836426e-01
-1.793228685855865479e-01 -5.582008957862854004e-01 3.147188946604728699e-02
-1.842910656705498695e-03 8.197933435440063477e-02 3.895884752273559570e-02
2.123863250017166138e-02 2.726810574531555176e-01 2.355102449655532837e-02
2.530618011951446533e-01 -6.999859213829040527e-01 7.990559563040733337e-03
-1.543641388416290283e-01 -8.705657720565795898e-02 2.922800779342651367e-01
2.053830474615097046e-01 3.665668070316314697e-01 -2.320356853306293488e-02
6.079445779323577881e-02 3.622563779354095459e-01 -8.893807977437973022e-02
-2.508579567074775696e-02 3.637508153915405273e-01 -1.451432257890701294e-01
3.693671524524688721e-01 -4.938868880271911621e-01 1.224911864846944809e-02
3.399038314819335938e-01 -1.383798569440841675e-01 1.206744089722633362e-02
2.652078270912170410e-01 2.260508947074413300e-02 2.222521696239709854e-03
-2.232039570808410645e-01 3.417714238166809082e-01 8.748729526996612549e-02
-1.522645950317382812e-01 3.658635616302490234e-01 -1.177713945508003235e-01
-2.040691524744033813e-01 -6.609976291656494141e-01 3.657534122467041016e-01
-1.621579825878143311e-01 -2.152567058801651001e-01 -2.952685058116912842e-01
-1.722198575735092163e-01 3.659053146839141846e-01 8.250141143798828125e-02
1.030090004205703735e-01 3.673242926597595215e-01 -1.972327679395675659e-01
3.815930485725402832e-01 -5.862312912940979004e-01 -2.896951511502265930e-03
-1.287395060062408447e-01 -8.005298972129821777e-01 2.280254364013671875e-01
2.788020670413970947e-02 2.659018635749816895e-01 5.402535665780305862e-03
-1.705840229988098145e-01 -4.383638203144073486e-01 3.267131745815277100e-01
-1.726271659135818481e-01 -4.236185848712921143e-01 -2.985064983367919922e-01
6.029095873236656189e-02 3.417714238166809082e-01 -2.110754400491714478e-01
-2.137852609157562256e-01 3.417714238166809082e-01 -7.516718655824661255e-02
-2.819036133587360382e-02 -1.676805466413497925e-01 -7.242663949728012085e-02
-9.550781548023223877e-02 -6.192293167114257812e-01 -1.728454530239105225e-01
-1.103498600423336029e-02 3.417714238166809082e-01 2.276041954755783081e-01
3.107057213783264160e-01 -4.431904852390289307e-02 1.155383512377738953e-02
-9.814959950745105743e-03 8.215001970529556274e-02 -2.479618042707443237e-02
-2.130937129259109497e-01 -7.481203079223632812e-01 -3.621098697185516357e-01
7.158809900283813477e-02 -2.860902994871139526e-02 7.240896113216876984e-03
1.528927832841873169e-01 -5.579752326011657715e-01 -1.379039436578750610e-01
4.293068498373031616e-02 -1.209702789783477783e-01 -8.222685195505619049e-03
3.524110317230224609e-01 -5.606015324592590332e-01 -3.562844358384609222e-03
-8.908169716596603394e-02 3.629882037639617920e-01 9.898720681667327881e-02
-2.060786038637161255e-01 -8.418213725090026855e-01 -3.662518560886383057e-01
4.342443868517875671e-02 3.642877936363220215e-01 1.511382907629013062e-01
-7.934214919805526733e-02 -5.299404263496398926e-01 -1.591258347034454346e-01
-1.466750651597976685e-01 3.417714238166809082e-01 1.460740268230438232e-01
-2.496864199638366699e-01 3.600051701068878174e-01 1.401921957731246948e-01
1.893367916345596313e-01 3.620570898056030273e-01 2.105257511138916016e-01
1.042978465557098389e-02 -6.624785810708999634e-02 -1.780839450657367706e-02
-1.034723520278930664e-01 -6.924191713333129883e-01 2.134340554475784302e-01
2.395180016756057739e-01 3.657133579254150391e-01 1.223599240183830261e-01
2.463512867689132690e-02 7.074536383152008057e-02 -2.446703612804412842e-02
-1.677746027708053589e-01 3.649961650371551514e-01 -4.011997953057289124e-02
-5.040129646658897400e-02 3.417714238166809082e-01 -2.527500391006469727e-01
-7.426029443740844727e-02 7.420968264341354370e-02 -1.306170523166656494e-01
-1.828091889619827271e-01 -5.563357472419738770e-01 -2.381733059883117676e-01
2.924791537225246429e-02 2.362883687019348145e-01 1.260375697165727615e-02
6.984179466962814331e-02 3.616739809513092041e-01 2.752558290958404541e-01
-5.805865675210952759e-02 -5.693851113319396973e-01 2.551745474338531494e-01
-1.988869458436965942e-01 3.650731146335601807e-01 -1.819916218519210815e-01
3.798942267894744873e-01 -5.105404853820800781e-01 8.971013128757476807e-03
-1.718110740184783936e-01 -5.204566121101379395e-01 -3.030030131340026855e-01
-3.364692628383636475e-02 -2.062116563320159912e-01 -8.163287490606307983e-02
1.564223170280456543e-01 3.658100664615631104e-01 1.122980415821075439e-01
-4.736836999654769897e-02 5.921613425016403198e-02 -6.093477457761764526e-02
1.667845547199249268e-01 3.417714238166809082e-01 -1.178930029273033142e-01
2.405860871076583862e-01 -5.668057203292846680e-01 -7.095292210578918457e-02
2.926932275295257568e-01 3.519395291805267334e-01 -2.319748885929584503e-02
-2.724996022880077362e-02 3.609054684638977051e-01 -9.126606397330760956e-03
-4.021876305341720581e-02 -1.443503201007843018e-01 -6.598966568708419800e-02
-1.940175443887710571e-01 -5.658658146858215332e-01 2.215392291545867920e-01
-1.801441013813018799e-01 -5.978338122367858887e-01 -3.222469389438629150e-01
1.582251787185668945e-01 -3.711114823818206787e-01 7.347793783992528915e-03
-3.174443542957305908e-02 3.656474351882934570e-01 -1.838113069534301758e-01
-1.805946230888366699e-01 -5.575957894325256348e-01 -2.135112583637237549e-01
-2.189162075519561768e-01 -8.205342888832092285e-01 -3.693916499614715576e-01
4.222653433680534363e-02 3.417714238166809082e-01 -2.069364190101623535e-01
-2.467656731605529785e-01 3.417714238166809082e-01 -6.611259281635284424e-02
-1.732330024242401123e-01 3.668759465217590332e-01 1.247334629297256470e-01
1.934874057769775391e-02 2.238074988126754761e-01 2.436190843582153320e-02
-1.030357331037521362e-01 5.113071948289871216e-02 -1.938138455152511597e-01
-6.676249206066131592e-02 -3.429802656173706055e-01 -1.053037568926811218e-01
-1.581288278102874756e-01 -5.715139508247375488e-01 3.140250146389007568e-01
1.162564940750598907e-02 5.309621989727020264e-02 4.000965133309364319e-02
2.176661044359207153e-01 3.417714238166809082e-01 -6.448547542095184326e-02
2.721854299306869507e-02 3.417714238166809082e-01 3.756894171237945557e-02
-1.696587800979614258e-01 -2.486232668161392212e-01 -2.962816655635833740e-01
9.290171414613723755e-02 -1.603489667177200317e-01 -2.171235624700784683e-03
-1.685189008712768555e-01 -5.840145349502563477e-01 -3.134092092514038086e-01
-2.127970159053802490e-01 -8.015826940536499023e-01 -3.758924901485443115e-01
-3.876504302024841309e-02 3.289919719099998474e-02 5.661018192768096924e-02
1.877427250146865845e-01 3.662635385990142822e-01 -1.862822771072387695e-01
-2.188773602247238159e-01 3.586316108703613281e-01 1.881471276283264160e-01
7.462947163730859756e-03 1.227272003889083862e-01 2.946148999035358429e-02
-1.371305063366889954e-02 1.908507943153381348e-02 -2.312386408448219299e-02
-1.846977472305297852e-01 -5.738713741302490234e-01 2.650752663612365723e-01
-1.973309516906738281e-01 3.663829863071441650e-01 3.446715697646141052e-02
-1.809110939502716064e-01 -4.192231595516204834e-01 3.118309676647186279e-01
-1.380079984664916992e-01 -8.915688991546630859e-01 -2.615877985954284668e-01
-1.551912128925323486e-01 3.627544939517974854e-01 -2.323119938373565674e-01
-1.533634513616561890e-01 -5.571247339248657227e-01 3.125913739204406738e-01
4.391188919544219971e-02 3.676539659500122070e-01 2.226710617542266846e-01
-8.139042556285858154e-02 -4.977028965950012207e-01 -1.588569879531860352e-01
2.479614876210689545e-02 2.274696677923202515e-01 -9.367842227220535278e-03
-1.468428224325180054e-01 -1.049313396215438843e-01 2.849316298961639404e-01
-1.766577810049057007e-01 3.417714238166809082e-01 3.707115724682807922e-02
-2.161017991602420807e-02 -5.114956200122833252e-02 -5.766976997256278992e-02
7.288574706763029099e-04 -1.192890182137489319e-01 2.765218354761600494e-02
-1.276986300945281982e-02 -8.679872006177902222e-02 -7.567692548036575317e-03
-1.926271021366119385e-01 -5.630080699920654297e-01 2.471096515655517578e-01
-2.019058763980865479e-01 -8.955921530723571777e-01 3.806715011596679688e-01
-1.664581745862960815e-01 -2.505809068679809570e-01 2.915093898773193359e-01
2.410716563463211060e-02 -3.359931707382202148e-02 2.071780152618885040e-02
-1.893744915723800659e-01 -6.643784642219543457e-01 -3.511754870414733887e-01
-1.903678476810455322e-01 3.658386170864105225e-01 -1.293349266052246094e-02
2.706222832202911377e-01 3.652189075946807861e-01 1.667869091033935547e-02
-8.401816338300704956e-02 8.692348748445510864e-02 1.488028615713119507e-01
2.147438675165176392e-01 3.417714238166809082e-01 -2.934904396533966064e-02
-3.535118326544761658e-02 -3.469597920775413513e-02 6.198169291019439697e-02
1.977826207876205444e-01 3.669477403163909912e-01 8.415848761796951294e-02
2.403090521693229675e-02 3.417714238166809082e-01 -1.651131361722946167e-01
4.137617647647857666e-01 -8.917176127433776855e-01 1.801795908249914646e-03
3.376995325088500977e-01 -5.737732052803039551e-01 3.328888863325119019e-02
-4.473775625228881836e-03 -1.439554691314697266e-01 2.557365596294403076e-02
-2.739785313606262207e-01 3.417714238166809082e-01 -4.841798916459083557e-03
-1.288691610097885132e-01 8.042297326028347015e-03 -2.454294115304946899e-01
2.805484831333160400e-02 3.417714238166809082e-01 -1.103766821324825287e-02
-1.779024153947830200e-01 -5.427187085151672363e-01 3.161201775074005127e-01
-1.782166957855224609e-01 -3.460381627082824707e-01 3.119738101959228516e-01
7.637775503098964691e-03 3.613757789134979248e-01 -5.812931433320045471e-02
-9.334526956081390381e-02 -5.083903670310974121e-01 1.624946296215057373e-01
-1.026225686073303223e-01 -6.471454501152038574e-01 2.071148753166198730e-01
1.472357381135225296e-02 1.543845981359481812e-01 -1.609285734593868256e-02
-1.654032766819000244e-01 -3.806177675724029541e-01 -2.964120805263519287e-01
2.854515984654426575e-02 -1.022237539291381836e-01 1.074119284749031067e-02
2.037692070007324219e-01 -5.617634057998657227e-01 1.032771542668342590e-01
-2.641255967319011688e-02 3.417714238166809082e-01 -1.839893311262130737e-01
-9.599791467189788818e-02 3.648196160793304443e-01 -1.408628076314926147e-01
-3.134511038661003113e-02 -1.877332478761672974e-01 -6.620109081268310547e-02
-9.546606242656707764e-02 7.223612070083618164e-02 -1.557406187057495117e-01
-1.812064461410045624e-02 6.359568331390619278e-03 4.879332613199949265e-03
3.590730428695678711e-01 -5.829120278358459473e-01 -3.669800469651818275e-03
8.327716588973999023e-02 6.357418000698089600e-02 1.868234761059284210e-02
1.528517603874206543e-01 -4.121560454368591309e-01 8.696517907083034515e-03
-1.035236194729804993e-01 -5.653002858161926270e-01 2.991962730884552002e-01
-1.623176783323287964e-01 -3.502997457981109619e-01 -3.048044145107269287e-01
8.850773423910140991e-02 3.683814108371734619e-01 2.290070801973342896e-01
-1.300163716077804565e-01 3.642218708992004395e-01 -8.478365838527679443e-02
1.105050742626190186e-02 3.622432053089141846e-01 1.096102446317672729e-01
4.390501677989959717e-01 -7.742291688919067383e-01 -6.498224684037268162e-04
-1.389751210808753967e-02 -1.199175715446472168e-01 3.575421124696731567e-02
-2.191454917192459106e-01 -8.732092380523681641e-01 3.885371387004852295e-01
-1.108207777142524719e-01 3.638423681259155273e-01 -1.035140827298164368e-01
-2.224874943494796753e-01 3.417714238166809082e-01 5.808477848768234253e-02
-1.861973255872726440e-01 -8.911058902740478516e-01 3.381537497043609619e-01
1.107159070670604706e-02 3.417714238166809082e-01 -1.325363814830780029e-01
-1.585633680224418640e-02 -2.836796939373016357e-01 1.087239664047956467e-02
-1.888419240713119507e-01 -5.726171731948852539e-01 -1.504704952239990234e-01
2.978591993451118469e-02 -3.172815442085266113e-01 2.261898713186383247e-03
-8.139188587665557861e-02 3.417714238166809082e-01 -1.505071222782135010e-01
3.276054263114929199e-01 -9.636611491441726685e-02 -3.365094540640711784e-03
-1.511116418987512589e-02 -5.886280164122581482e-02 1.315230689942836761e-02
-3.818704187870025635e-02 3.611560165882110596e-01 2.043905667960643768e-02
-8.150543272495269775e-02 3.417714238166809082e-01 -2.216772288084030151e-01
1.549212783575057983e-01 3.505315184593200684e-01 -2.479582577943801880e-01
-1.535159442573785782e-02 -2.730651199817657471e-02 3.356184437870979309e-02
2.776952683925628662e-01 3.626402318477630615e-01 5.133954435586929321e-02
-2.621921598911285400e-01 3.658159375190734863e-01 -5.229884386062622070e-02
-2.037460803985595703e-01 -6.924455165863037109e-01 -3.605582714080810547e-01
9.102778881788253784e-02 3.417714238166809082e-01 1.070579662919044495e-01
5.962292850017547607e-02 2.530169114470481873e-02 -8.222685195505619049e-03
-1.742153912782669067e-01 3.417714238166809082e-01 -9.087267331779003143e-03
2.668568789958953857e-01 -7.438947558403015137e-01 4.456088878214359283e-03
3.405946493148803711e-01 -5.627186894416809082e-01 -3.225757554173469543e-02
-1.567370630800724030e-02 3.299301266670227051e-01 1.129802130162715912e-02
-9.934137016534805298e-02 3.417714238166809082e-01 2.391597926616668701e-01
-1.124771237373352051e-01 -7.203652858734130859e-01 -2.147566229104995728e-01
2.207480221986770630e-01 -6.294523477554321289e-01 1.320563908666372299e-02
-8.444304764270782471e-02 3.637098073959350586e-01 1.183402985334396362e-01
-2.176898866891860962e-01 3.675571978092193604e-01 5.344459041953086853e-02
6.796187162399291992e-02 6.617703288793563843e-02 -8.209133520722389221e-03
1.177007481455802917e-01 3.650122880935668945e-01 1.322042346000671387e-01
-1.680999808013439178e-02 1.170717477798461914e-01 8.649354800581932068e-03
-2.280309796333312988e-02 -4.525087401270866394e-02 6.560756266117095947e-02
-1.668588966131210327e-01 3.417714238166809082e-01 -3.031647764146327972e-02
2.980437874794006348e-02 1.241879537701606750e-01 8.411766961216926575e-03
7.487119734287261963e-02 3.616703152656555176e-01 1.154944021254777908e-02
-1.242810636758804321e-01 4.937181621789932251e-02 -2.096000611782073975e-01
3.469079732894897461e-01 -1.653304547071456909e-01 4.616024438291788101e-03
-1.320074945688247681e-01 -8.194859623908996582e-01 2.508560419082641602e-01
4.223737493157386780e-02 3.417714238166809082e-01 1.145375221967697144e-01
-3.608521819114685059e-02 3.158936649560928345e-02 7.829644531011581421e-02
8.649389445781707764e-02 6.325184553861618042e-02 -8.222685195505619049e-03
-1.581163704395294189e-01 3.646694719791412354e-01 4.489744454622268677e-02
-8.912553894333541393e-04 3.417714238166809082e-01 1.835524141788482666e-01
3.697114586830139160e-01 -5.248160958290100098e-01 -1.475958735682070255e-03
-1.108156517148017883e-01 3.417714238166809082e-01 2.512897253036499023e-01
-1.824033558368682861e-01 -5.984498858451843262e-01 3.366937339305877686e-01
-1.619067043066024780e-01 -8.536727726459503174e-02 -2.680959403514862061e-01
1.336509082466363907e-02 -1.418427377939224243e-01 2.713476680219173431e-02
5.466592498123645782e-03 2.896313667297363281e-01 -1.901830919086933136e-02
-7.448885589838027954e-02 3.417714238166809082e-01 1.928685456514358521e-01
-6.215182691812515259e-02 3.547936379909515381e-01 -2.855883240699768066e-01
6.043937429785728455e-02 3.417714238166809082e-01 6.907020509243011475e-02
-4.330703988671302795e-03 3.650540709495544434e-01 1.767461001873016357e-01
-6.202201917767524719e-02 3.620900511741638184e-01 -7.924688607454299927e-02
-2.398450523614883423e-01 3.417714238166809082e-01 7.824516296386718750e-02
-8.976519107818603516e-02 -5.623172521591186523e-01 -2.619423270225524902e-01
6.554497033357620239e-02 3.615340292453765869e-01 -1.507904939353466034e-02
4.511977136135101318e-01 -8.828403353691101074e-01 2.874172525480389595e-03
2.513600289821624756e-01 3.417714238166809082e-01 7.219814509153366089e-02
-1.019031777977943420e-01 3.639500439167022705e-01 1.149887815117835999e-01
-5.204686895012855530e-02 3.671162724494934082e-01 -2.099092006683349609e-01
1.329858601093292236e-01 3.417714238166809082e-01 2.497769594192504883e-01
-3.373549506068229675e-02 3.417714238166809082e-01 1.624697297811508179e-01
3.491319343447685242e-02 -7.700686343014240265e-03 -1.245812512934207916e-02
-1.222767382860183716e-01 3.459950163960456848e-02 2.402718365192413330e-01
1.670797765254974365e-01 3.594916164875030518e-01 -2.358422577381134033e-01
3.083576634526252747e-02 3.394704163074493408e-01 4.869274329394102097e-03
-1.486947685480117798e-01 -1.056294962763786316e-01 -2.807540595531463623e-01
-1.374820172786712646e-01 3.683161735534667969e-01 -2.008150517940521240e-01
-1.935333013534545898e-01 -5.670958161354064941e-01 8.370356261730194092e-02
1.385607421398162842e-01 3.417714238166809082e-01 -2.083671391010284424e-01
1.176062449812889099e-01 8.480780571699142456e-02 -3.047465812414884567e-03
4.887462779879570007e-02 3.417714238166809082e-01 1.663245260715484619e-01
-1.617125719785690308e-01 3.680209219455718994e-01 1.876819431781768799e-01
7.507748901844024658e-02 -1.389095187187194824e-01 9.949282743036746979e-03
-1.771207600831985474e-01 -5.618696212768554688e-01 6.428395211696624756e-02
-1.275974214076995850e-01 -5.738493800163269043e-01 3.023807704448699951e-01
7.399372756481170654e-02 3.603670597076416016e-01 -2.771270871162414551e-01
-2.646997570991516113e-01 3.650108277797698975e-01 5.741784349083900452e-02
-1.901590675115585327e-01 -6.717627644538879395e-01 3.639219701290130615e-01
2.348273396492004395e-01 3.417714238166809082e-01 1.469670236110687256e-01
-2.692660130560398102e-02 3.664627969264984131e-01 -2.600559592247009277e-01
-1.812576055526733398e-01 -4.802772104740142822e-01 3.154315352439880371e-01
-2.382027730345726013e-02 5.546533688902854919e-02 2.105910517275333405e-02
-2.588443160057067871e-01 3.417714238166809082e-01 7.374820113182067871e-02
-1.771823018789291382e-01 -5.679749250411987305e-01 -7.169992476701736450e-02
-2.494739890098571777e-01 3.665983378887176514e-01 7.316821813583374023e-02
-1.931772828102111816e-01 -7.081320881843566895e-01 -3.496663868427276611e-01
-2.334813214838504791e-02 2.162418328225612640e-02 -5.542883276939392090e-02
9.462764859199523926e-02 3.650775253772735596e-01 1.485962718725204468e-01
1.653941273689270020e-01 8.338809013366699219e-02 -3.708516713231801987e-03
-1.117292884737253189e-02 3.417714238166809082e-01 -1.152059286832809448e-01
1.624315977096557617e-01 3.417714238166809082e-01 1.106548905372619629e-01
-2.015850096940994263e-01 -8.177050948143005371e-01 -3.716911971569061279e-01
1.961914747953414917e-01 -5.442512631416320801e-01 -2.931645838543772697e-03
3.624861240386962891e-01 -3.034398257732391357e-01 5.222630687057971954e-03
-1.730118878185749054e-02 -2.643573582172393799e-01 7.504549343138933182e-03
1.880320906639099121e-01 3.417714238166809082e-01 2.382105030119419098e-02
-1.406210809946060181e-01 3.568308949470520020e-01 2.541115880012512207e-01
2.340698540210723877e-01 3.616102337837219238e-01 1.615906357765197754e-01
-1.427229586988687515e-02 3.618710339069366455e-01 8.434309810400009155e-02
-9.791432321071624756e-02 5.622942745685577393e-02 1.974874287843704224e-01
-5.919055268168449402e-02 3.417714238166809082e-01 8.297272957861423492e-03
-2.340482175350189209e-01 3.668261766433715820e-01 1.101538166403770447e-01
-9.694525040686130524e-03 -1.191088110208511353e-01 -1.251336093991994858e-02
2.802665829658508301e-01 2.680858224630355835e-02 -1.514103962108492851e-03
1.944224233739078045e-03 3.683806359767913818e-01 -2.456807047128677368e-01
2.782159671187400818e-02 8.175605908036231995e-03 8.453560061752796173e-03
4.438289906829595566e-03 3.417714238166809082e-01 -3.678590059280395508e-02
2.681372873485088348e-02 1.979403942823410034e-01 1.589703559875488281e-02
1.468036472797393799e-01 3.657191991806030273e-01 -1.228803545236587524e-01
1.047986745834350586e-01 3.650240302085876465e-01 -1.410386264324188232e-01
9.090251475572586060e-02 -9.030333161354064941e-02 1.697728596627712250e-02
-1.943574547767639160e-01 3.672268390655517578e-01 1.649516820907592773e-01
3.787922859191894531e-02 3.417714238166809082e-01 1.302526593208312988e-01
1.085421293973922729e-01 -2.611775100231170654e-01 6.376966834068298340e-03
-6.887076050043106079e-02 3.643815517425537109e-01 -1.425081640481948853e-01
1.866943985223770142e-01 3.417714238166809082e-01 -4.449951648712158203e-02
1.978337764739990234e-02 -1.218581572175025940e-01 -1.407132390886545181e-02
3.610706329345703125e-02 -5.565408468246459961e-01 -1.965250968933105469e-01
-9.486901760101318359e-02 -5.428066253662109375e-01 1.795027554035186768e-01
-1.924857199192047119e-01 -5.697132945060729980e-01 -1.869034916162490845e-01
-2.107297033071517944e-01 3.417714238166809082e-01 -1.693078577518463135e-01
-1.538388878107070923e-01 -8.907242417335510254e-01 -2.657524645328521729e-01
-1.298361569643020630e-01 -7.923200130462646484e-01 -2.330511510372161865e-01
3.484719991683959961e-01 -3.269128203392028809e-01 4.624493594747036695e-04
1.689279451966285706e-02 3.643632531166076660e-01 -1.608363837003707886e-01
1.705118864774703979e-01 -5.705506205558776855e-01 -1.132638752460479736e-01
-1.732528954744338989e-02 -1.930975727736949921e-02 7.610457018017768860e-03
-1.730227470397949219e-01 -5.354530811309814453e-01 -2.950780391693115234e-01
-1.093175336718559265e-01 3.511234521865844727e-01 2.701768875122070312e-01
-2.786450088024139404e-01 3.632211387157440186e-01 -3.512480529025197029e-03
-1.978115290403366089e-01 -6.165546774864196777e-01 -3.373086452484130859e-01
-2.432324737310409546e-01 3.669631183147430420e-01 -8.200941234827041626e-02
-1.419111490249633789e-01 -5.406079441308975220e-02 -2.638697326183319092e-01
3.077359870076179504e-03 2.437723278999328613e-01 -1.799314841628074646e-02
-1.034080050885677338e-02 1.366929560899734497e-01 -1.223608385771512985e-02
-1.637945473194122314e-01 -3.905612528324127197e-01 3.174563944339752197e-01
3.331348896026611328e-01 -1.099450737237930298e-01 1.353566255420446396e-02
2.513269148766994476e-02 -1.256565600633621216e-01 1.908247917890548706e-02
-1.022490765899419785e-02 3.417714238166809082e-01 9.882531315088272095e-02
5.083176493644714355e-02 3.417714238166809082e-01 -1.247279047966003418e-01
-8.420581929385662079e-03 2.167828977108001709e-01 2.399686910212039948e-02
2.635645493865013123e-02 -2.277741879224777222e-01 -5.731207318603992462e-03
6.996669620275497437e-02 3.417714238166809082e-01 2.277105487883090973e-02
2.161043463274836540e-03 6.376422941684722900e-03 2.809919789433479309e-02
2.014337480068206787e-01 3.676898479461669922e-01 1.125940009951591492e-01
-7.730193436145782471e-02 -4.994295537471771240e-01 -1.435967683792114258e-01
-1.710426062345504761e-01 -4.672315716743469238e-01 -3.043692708015441895e-01
1.338545791804790497e-02 3.417714238166809082e-01 -1.925186663866043091e-01
-3.100695461034774780e-02 3.417714238166809082e-01 -2.666960060596466064e-01
9.090251475572586060e-02 3.112271986901760101e-02 1.434263540431857109e-03
-1.668794006109237671e-01 -1.452762931585311890e-01 -2.800720334053039551e-01
-4.441249649971723557e-03 -9.445189684629440308e-02 -2.710165828466415405e-02
-1.775544583797454834e-01 -3.325974345207214355e-01 -2.994317114353179932e-01
-6.848821043968200684e-02 3.626526892185211182e-01 -1.019126772880554199e-01
-2.731552347540855408e-02 3.417714238166809082e-01 -2.348254472017288208e-01
1.772924512624740601e-02 -3.437853651121258736e-03 2.505675330758094788e-02
1.040889136493206024e-02 6.895419210195541382e-02 -1.769836060702800751e-02
-1.856076121330261230e-01 -6.043896079063415527e-01 -3.356054127216339111e-01
-1.819448731839656830e-02 2.249153889715671539e-02 3.206498175859451294e-02
-1.175311431288719177e-01 -7.891670465469360352e-01 2.307498604059219360e-01
-7.630710303783416748e-02 -4.142592251300811768e-01 -1.371186226606369019e-01
-1.537158191204071045e-01 -1.657231152057647705e-01 -2.882101833820343018e-01
-1.353780627250671387e-01 -2.369932644069194794e-02 2.648430466651916504e-01
-2.871576324105262756e-02 3.653646409511566162e-01 1.784346699714660645e-01
-5.947317928075790405e-02 3.636409044265747070e-01 -1.288120001554489136e-01
2.452745437622070312e-01 -5.577445030212402344e-01 9.443793445825576782e-02
-1.876727342605590820e-01 -5.564075708389282227e-01 2.909094095230102539e-01
2.697396324947476387e-03 1.249901205301284790e-01 -1.783015020191669464e-02
5.210066214203834534e-03 -1.367262098938226700e-02 -1.894336752593517303e-02
-1.345356106758117676e-01 -8.927315473556518555e-01 2.564104199409484863e-01
-1.062846928834915161e-01 -5.711688995361328125e-01 -2.880417108535766602e-01
-1.405617445707321167e-01 3.633522689342498779e-01 7.848301902413368225e-03
5.557356029748916626e-02 3.417714238166809082e-01 -1.578855812549591064e-01
1.206332221627235413e-01 3.667243421077728271e-01 -2.313567250967025757e-01
2.920022793114185333e-02 2.987138032913208008e-01 9.053125977516174316e-03
-1.267388314008712769e-01 3.637932837009429932e-01 -6.840349733829498291e-02
5.720213800668716431e-02 3.659023940563201904e-01 -1.837717443704605103e-01
-2.359264297410845757e-03 3.417714238166809082e-01 -1.417587399482727051e-01
-2.254567295312881470e-02 8.042923361063003540e-02 2.403005398809909821e-02
-7.692392915487289429e-02 -4.915976524353027344e-01 1.654945164918899536e-01
-9.658323973417282104e-02 3.621493875980377197e-01 2.580536901950836182e-02
2.952689528465270996e-01 -3.991390985902398825e-04 -3.535666503012180328e-03
-2.236090451478958130e-01 3.417714238166809082e-01 4.237629845738410950e-02
-1.661702692508697510e-01 -1.357235461473464966e-01 2.914442121982574463e-01
1.630330383777618408e-01 3.667484521865844727e-01 -2.037182301282882690e-01
-1.562944650650024414e-01 3.670151531696319580e-01 2.041054815053939819e-01
1.076051592826843262e-01 3.417714238166809082e-01 -1.197881698608398438e-01
1.577459461987018585e-02 3.417714238166809082e-01 5.459766089916229248e-02
-1.330023258924484253e-01 -8.175615072250366211e-01 -2.226962447166442871e-01
-9.370862692594528198e-02 -5.566969513893127441e-01 -1.733062416315078735e-01
1.307602971792221069e-01 3.417714238166809082e-01 1.860050857067108154e-01
-3.745491057634353638e-02 -1.330467313528060913e-01 7.726864516735076904e-02
-1.446626931428909302e-01 3.417714238166809082e-01 1.070879921317100525e-01
-1.944731771945953369e-01 -5.982733368873596191e-01 3.570760786533355713e-01
-4.071690887212753296e-02 -1.016340404748916626e-01 7.562182098627090454e-02
-1.880675852298736572e-01 -5.568763613700866699e-01 1.196076497435569763e-01
3.587639033794403076e-01 -5.659596323966979980e-01 1.157544646412134171e-02
-1.420145574957132339e-02 3.417714238166809082e-01 6.620548665523529053e-02
3.531201779842376709e-01 -2.438925951719284058e-01 -8.705612272024154663e-04
-8.877486921846866608e-03 -5.620974898338317871e-01 -2.153800427913665771e-01
-3.015292063355445862e-02 -4.217187687754631042e-02 -6.716823577880859375e-02
2.654164843261241913e-02 -1.044998690485954285e-01 -2.370530925691127777e-02
1.451824605464935303e-01 3.635442256927490234e-01 1.522599998861551285e-02
1.064390037208795547e-02 -2.422367930412292480e-01 2.809670940041542053e-02
-3.402984142303466797e-02 6.617703288793563843e-02 -4.963917285203933716e-02
2.430021166801452637e-01 -7.262192964553833008e-01 5.938603077083826065e-03
-3.145946934819221497e-02 -5.577430129051208496e-01 -2.436675876379013062e-01
2.237581610679626465e-01 -5.574016571044921875e-01 -9.533490985631942749e-02
8.080181479454040527e-02 -1.321984082460403442e-01 -3.396726911887526512e-03
-2.549786493182182312e-02 3.417714238166809082e-01 1.981864124536514282e-02
-4.574938863515853882e-02 3.417714238166809082e-01 -2.032126300036907196e-02
-1.693913936614990234e-01 -5.070732235908508301e-01 -3.171380162239074707e-01
-2.040772140026092529e-01 -7.083495855331420898e-01 -3.623999655246734619e-01
-1.312024146318435669e-01 1.495557744055986404e-02 2.545430660247802734e-01
1.998045146465301514e-01 -5.750764608383178711e-01 8.797627873718738556e-03
3.678097128868103027e-01 -5.651076436042785645e-01 -1.304140035063028336e-02
-8.018607646226882935e-02 -5.251414179801940918e-01 1.617906242609024048e-01
-2.637847959995269775e-01 3.621472120285034180e-01 9.501153975725173950e-02
-2.178114950656890869e-01 -8.652255535125732422e-01 -3.800754845142364502e-01
2.496245652437210083e-01 3.417714238166809082e-01 5.415782332420349121e-02
-1.867299079895019531e-01 -6.105043888092041016e-01 3.503232300281524658e-01
-5.139693245291709900e-02 -3.254739046096801758e-01 -1.026965230703353882e-01
1.912092417478561401e-01 3.662005364894866943e-01 -5.787701532244682312e-02
-1.226504798978567123e-02 3.417714238166809082e-01 -5.472389515489339828e-03
2.600409984588623047e-01 3.667045235633850098e-01 -1.832331903278827667e-02
2.196206003427505493e-01 3.466862738132476807e-01 -1.884074807167053223e-01
2.767354622483253479e-02 -3.405723869800567627e-01 -2.661407226696610451e-03
-8.991389721632003784e-02 -5.376397967338562012e-01 -1.509210169315338135e-01
-1.743567734956741333e-01 -2.764523029327392578e-01 -2.937813997268676758e-01
1.944192498922348022e-02 -5.562515258789062500e-01 -2.099700123071670532e-01
-2.164217978715896606e-01 -7.935829758644104004e-01 3.745918869972229004e-01
4.201644361019134521e-01 -7.467056512832641602e-01 4.940672079101204872e-04
3.182554617524147034e-02 3.612000048160552979e-01 -3.701167553663253784e-02
3.456560075283050537e-01 -2.057618647813796997e-01 -2.663150662556290627e-03
5.209098383784294128e-02 -5.608557462692260742e-01 -1.981924325227737427e-01
1.657837443053722382e-02 3.606769442558288574e-01 6.276054773479700089e-03
-1.690837144851684570e-01 -4.382421970367431641e-01 -3.018352985382080078e-01
-1.364717930555343628e-01 -8.685411810874938965e-01 2.633149027824401855e-01
1.624768972396850586e-02 -5.637889504432678223e-01 2.308289855718612671e-01
1.435832530260086060e-01 7.974645495414733887e-02 1.226670108735561371e-02
1.381219178438186646e-01 3.417714238166809082e-01 2.122831940650939941e-01
