1.666097491979598999e-01 -4.438881576061248779e-01 3.147092461585998535e-01
4.262338206171989441e-02 -1.118559911847114563e-01 -4.836301133036613464e-02
-2.523388564586639404e-01 2.372932434082031250e-01 8.843832649290561676e-03
3.112246990203857422e-01 -7.256600260734558105e-01 -5.460892915725708008e-01
1.065776348114013672e-01 2.372932434082031250e-01 9.826500900089740753e-03
8.221127837896347046e-02 -1.886890232563018799e-01 -1.169307455420494080e-01
-7.320899516344070435e-02 -1.494401693344116211e-01 -7.933137938380241394e-03
6.866419315338134766e-02 2.372932434082031250e-01 4.744852706789970398e-02
-7.777758687734603882e-02 2.372932434082031250e-01 -9.742443449795246124e-03
2.590323090553283691e-01 3.371791541576385498e-01 -1.436947286128997803e-01
-2.577329874038696289e-01 2.531761229038238525e-01 -1.484503597021102905e-01
2.477412819862365723e-01 -7.337672114372253418e-01 5.089201331138610840e-01
2.493777684867382050e-02 -5.836613476276397705e-02 -4.102826490998268127e-02
-3.988425135612487793e-01 -5.234540700912475586e-01 1.156266592442989349e-02
-5.777586698532104492e-01 -7.158135175704956055e-01 3.840931504964828491e-02
-5.787841677665710449e-01 -6.634557843208312988e-01 -2.219358793809078634e-05
-5.322731658816337585e-02 2.372932434082031250e-01 -2.364631742238998413e-01
-1.781632751226425171e-01 -2.494952082633972168e-01 -1.690235920250415802e-02
-1.998897343873977661e-01 2.372932434082031250e-01 4.678714275360107422e-02
-7.914442569017410278e-03 -2.996334433555603027e-01 4.243781417608261108e-02
3.127537295222282410e-02 3.543777763843536377e-01 -1.959701478481292725e-01
7.431701570749282837e-02 3.301188051700592041e-01 -1.125118508934974670e-01
2.488955259323120117e-01 -6.300444602966308594e-01 -4.582844674587249756e-01
2.083865255117416382e-01 3.301188051700592041e-01 9.604821354150772095e-02
5.717020854353904724e-02 -4.901234209537506104e-01 1.132894828915596008e-01
-7.393279578536748886e-03 -1.494401693344116211e-01 5.024568364024162292e-02
-3.755893185734748840e-02 6.572918593883514404e-02 -2.650038222782313824e-04
-2.247345820069313049e-02 3.436420485377311707e-02 3.759928420186042786e-02
1.715794652700424194e-01 3.197634220123291016e-01 2.357566654682159424e-01
2.784311957657337189e-02 3.543777763843536377e-01 1.516720950603485107e-01
-3.497273847460746765e-02 -3.131476044654846191e-01 -3.246316686272621155e-02
9.068564325571060181e-02 3.264991641044616699e-01 -2.829529047012329102e-01
-1.497490704059600830e-01 2.372932434082031250e-01 -2.375640869140625000e-01
3.279890418052673340e-01 -7.192610502243041992e-01 4.836013913154602051e-01
2.490677088499069214e-01 -6.121967434883117676e-01 4.370316565036773682e-01
1.496709287166595459e-01 3.543777763843536377e-01 -1.047043967992067337e-02
9.157018363475799561e-02 -4.901234209537506104e-01 1.996185481548309326e-01
2.961425781250000000e-01 -7.579361796379089355e-01 5.102846622467041016e-01
1.171128749847412109e-01 3.301188051700592041e-01 -2.140098810195922852e-01
-2.104112505912780762e-01 3.301188051700592041e-01 -2.100009024143218994e-01
2.071583718061447144e-01 -5.066546201705932617e-01 -3.333472609519958496e-01
4.819521680474281311e-02 2.372932434082031250e-01 -1.369193494319915771e-01
2.919796705245971680e-01 2.805358767509460449e-01 2.836754359304904938e-02
-1.018247157335281372e-01 3.301188051700592041e-01 -2.039005309343338013e-01
1.630434095859527588e-01 3.301188051700592041e-01 -3.704021871089935303e-02
3.736231848597526550e-02 1.271928381174802780e-02 -3.635670291259884834e-03
2.904033660888671875e-01 3.318764567375183105e-01 -4.568394646048545837e-02
-5.213981121778488159e-02 3.543777763843536377e-01 -4.344836995005607605e-02
1.156500726938247681e-01 3.531275093555450439e-01 2.116585075855255127e-01
2.180616110563278198e-01 -7.141701579093933105e-01 4.435586631298065186e-01
3.253529220819473267e-02 3.543777763843536377e-01 1.773549765348434448e-01
-1.513718813657760620e-01 2.372932434082031250e-01 -4.777605831623077393e-02
-8.554644882678985596e-02 2.507449686527252197e-01 2.798998355865478516e-01
-2.740531265735626221e-01 3.301188051700592041e-01 4.622460110113024712e-04
-6.065793335437774658e-03 2.372932434082031250e-01 -1.458256840705871582e-01
7.476515322923660278e-02 2.372932434082031250e-01 2.181603461503982544e-01
3.331035375595092773e-01 -7.272188663482666016e-01 -4.977999925613403320e-01
1.114666014909744263e-01 2.372932434082031250e-01 2.292304337024688721e-01
1.070515215396881104e-01 -3.214056491851806641e-01 2.115495353937149048e-01
5.138237774372100830e-02 -1.933242976665496826e-01 1.151271387934684753e-01
1.321584284305572510e-01 -3.813710212707519531e-01 2.343700528144836426e-01
2.481709867715835571e-01 -6.132397651672363281e-01 3.990429341793060303e-01
-4.608539938926696777e-01 -6.092391014099121094e-01 1.156266592442989349e-02
1.181939765810966492e-01 -2.972947657108306885e-01 -2.361896634101867676e-01
1.852422207593917847e-01 -4.824459850788116455e-01 -2.776456773281097412e-01
4.576620087027549744e-02 -1.400134563446044922e-01 -1.412832643836736679e-03
-1.619878709316253662e-01 3.301188051700592041e-01 1.273575425148010254e-01
5.478065460920333862e-02 2.372932434082031250e-01 -5.800441280007362366e-02
4.587964713573455811e-02 -2.972537875175476074e-01 -2.274671103805303574e-03
1.362588405609130859e-01 3.543777763843536377e-01 -1.206791698932647705e-01
-1.109131500124931335e-01 2.372932434082031250e-01 1.159583479166030884e-01
-9.769229590892791748e-02 2.372932434082031250e-01 -1.373513340950012207e-01
-5.981945395469665527e-01 -7.579361796379089355e-01 -5.652444087900221348e-04
-9.671708941459655762e-02 3.301188051700592041e-01 -1.277524381875991821e-01
2.070075124502182007e-01 -5.741081833839416504e-01 -3.900202810764312744e-01
-4.490670189261436462e-02 -5.388416647911071777e-01 8.041347377002239227e-03
-1.939112991094589233e-01 2.730062305927276611e-01 2.189169079065322876e-01
-9.245743602514266968e-02 3.301188051700592041e-01 2.224931418895721436e-01
2.612966001033782959e-01 3.301188051700592041e-01 6.614369899034500122e-02
2.814375422894954681e-02 2.372932434082031250e-01 1.473248302936553955e-01
1.428300291299819946e-01 3.543777763843536377e-01 5.244697257876396179e-02
2.729007042944431305e-02 1.040554270148277283e-01 3.388345986604690552e-02
-1.671290099620819092e-01 2.372932434082031250e-01 1.757420748472213745e-01
3.911646082997322083e-02 3.543777763843536377e-01 -5.405560508370399475e-02
2.876347005367279053e-01 -7.579361796379089355e-01 -5.309683084487915039e-01
-1.825760751962661743e-01 3.203134834766387939e-01 -2.329547405242919922e-01
-1.284728944301605225e-01 3.543777763843536377e-01 9.437284618616104126e-02
-1.369701027870178223e-01 3.152530789375305176e-01 2.586000263690948486e-01
3.225514665246009827e-02 3.301188051700592041e-01 -1.118025481700897217e-01
1.327823996543884277e-01 -3.209559321403503418e-01 1.991842836141586304e-01
1.261243522167205811e-01 2.372932434082031250e-01 1.465279012918472290e-01
1.105713993310928345e-01 3.301188051700592041e-01 4.400248080492019653e-02
-1.331622451543807983e-01 3.543777763843536377e-01 -9.687888622283935547e-02
2.221452444791793823e-01 2.372932434082031250e-01 -6.748642772436141968e-02
-3.338894993066787720e-02 3.543777763843536377e-01 6.717741489410400391e-02
-4.846680536866188049e-02 3.543777763843536377e-01 -1.058195233345031738e-01
1.203996092081069946e-01 2.372932434082031250e-01 -1.160850599408149719e-01
-2.012832015752792358e-01 3.301188051700592041e-01 4.640624392777681351e-03
1.936518102884292603e-01 -4.296811819076538086e-01 3.046128451824188232e-01
5.060739815235137939e-02 -1.375023126602172852e-01 9.401476383209228516e-02
-3.130973549559712410e-03 -3.369893431663513184e-01 4.306773468852043152e-02
-2.168163508176803589e-01 -2.358256280422210693e-01 -1.567596383392810822e-02
2.036742866039276123e-02 3.301188051700592041e-01 -2.592006325721740723e-01
2.716177143156528473e-02 -1.153722405433654785e-03 3.398174047470092773e-02
-1.954365670680999756e-01 3.301188051700592041e-01 1.840770244598388672e-01
2.814794518053531647e-02 -3.734109401702880859e-01 -3.856427967548370361e-02
-2.930665761232376099e-02 -2.752359807491302490e-01 3.263153880834579468e-02
-1.059289500117301941e-01 3.192072212696075439e-01 -2.767984867095947266e-01
-7.868117094039916992e-02 3.541529774665832520e-01 -2.214412391185760498e-01
1.343587189912796021e-01 -4.649913907051086426e-01 2.765871882438659668e-01
-5.170465447008609772e-03 3.301188051700592041e-01 1.257644742727279663e-01
4.706623964011669159e-03 -3.036250472068786621e-01 -4.814915359020233154e-02
2.212355732917785645e-01 2.372932434082031250e-01 1.225577294826507568e-01
-2.492654770612716675e-01 3.054423928260803223e-01 -1.605664938688278198e-01
2.428103610873222351e-02 -4.900510311126708984e-01 5.049176886677742004e-02
1.164393723011016846e-01 -2.987910211086273193e-01 1.708775013685226440e-01
-6.767517328262329102e-02 2.429174035787582397e-01 -2.900459766387939453e-01
-1.732060569338500500e-03 -1.147625744342803955e-01 -5.746134743094444275e-02
3.007435500621795654e-01 -6.859426498413085938e-01 -4.436412155628204346e-01
7.927805185317993164e-02 -2.639266848564147949e-01 1.608397662639617920e-01
9.447750449180603027e-02 3.543777763843536377e-01 -3.019315376877784729e-02
1.566870510578155518e-01 2.372932434082031250e-01 1.018392369151115417e-01
-7.168637961149215698e-02 3.543777763843536377e-01 6.086754426360130310e-02
-7.138422131538391113e-02 3.543777763843536377e-01 1.397563368082046509e-01
2.881131470203399658e-01 2.443116754293441772e-01 5.773798376321792603e-02
-2.576674520969390869e-01 3.332630991935729980e-01 1.499700695276260376e-01
1.721737384796142578e-01 3.301188051700592041e-01 -2.036925405263900757e-01
8.226232975721359253e-02 3.521119356155395508e-01 2.319724112749099731e-01
2.029291838407516479e-01 3.301188051700592041e-01 -1.101698428392410278e-01
-2.598022222518920898e-01 -3.091651201248168945e-01 -1.690235920250415802e-02
-4.814978688955307007e-02 3.301188051700592041e-01 -2.744785547256469727e-01
-1.000807806849479675e-01 2.964979708194732666e-01 2.738802433013916016e-01
-6.455208659172058105e-01 -7.553656101226806641e-01 -4.374900460243225098e-02
-1.900462806224822998e-01 2.372932434082031250e-01 1.097726672887802124e-01
-2.999983960762619972e-03 2.268920838832855225e-01 4.478835687041282654e-02
2.019806504249572754e-01 3.198830485343933105e-01 2.124295234680175781e-01
-1.819795556366443634e-02 3.824524581432342529e-02 -3.565101325511932373e-02
-1.529291421175003052e-01 3.543777763843536377e-01 -1.419614553451538086e-01
2.200668305158615112e-02 -2.165508866310119629e-01 3.763303905725479126e-02
3.229171782732009888e-02 1.815763860940933228e-01 -2.170744165778160095e-02
-5.419633984565734863e-01 -6.787200570106506348e-01 -2.631596103310585022e-02
2.681260704994201660e-01 3.454538881778717041e-01 3.288669511675834656e-02
2.501160502433776855e-01 3.512342572212219238e-01 -3.484738618135452271e-02
2.084246277809143066e-01 3.301188051700592041e-01 1.572924703359603882e-01
-2.764050662517547607e-01 -4.580461084842681885e-01 -2.039929851889610291e-02
2.079903483390808105e-01 3.543777763843536377e-01 -6.015085056424140930e-02
4.544019326567649841e-02 3.543777763843536377e-01 1.058436557650566101e-01
-1.471663117408752441e-01 3.301188051700592041e-01 -7.326725125312805176e-02
1.323382090777158737e-02 -5.928038060665130615e-02 4.126581922173500061e-02
2.477740496397018433e-01 -6.537730693817138672e-01 4.089778065681457520e-01
1.563015207648277283e-02 1.155887022614479065e-01 -4.561339691281318665e-02
-2.027879282832145691e-02 3.543777763843536377e-01 1.537566035985946655e-01
-1.467267330735921860e-02 2.662941217422485352e-01 2.916837632656097412e-01
8.181510120630264282e-02 3.499002158641815186e-01 -2.475355267524719238e-01
1.272199302911758423e-01 -3.793712556362152100e-01 -2.518233954906463623e-01
7.091683894395828247e-02 3.301188051700592041e-01 -2.156113684177398682e-01
2.040201872587203979e-01 2.372932434082031250e-01 2.410583011806011200e-02
-1.581457257270812988e-01 3.301188051700592041e-01 1.243623625487089157e-02
-5.134433507919311523e-02 2.372932434082031250e-01 -8.808682113885879517e-02
-4.358172416687011719e-02 -2.025613039731979370e-01 1.207701023668050766e-02
3.280355334281921387e-01 -7.002506852149963379e-01 -5.138695240020751953e-01
1.324867904186248779e-01 3.543777763843536377e-01 -8.056786656379699707e-02
-1.074039656668901443e-02 1.204593926668167114e-01 -3.874057531356811523e-02
-4.875615984201431274e-02 2.372932434082031250e-01 2.178365439176559448e-01
6.507971137762069702e-02 3.301188051700592041e-01 1.725056320428848267e-01
-4.716642796993255615e-01 -5.679506659507751465e-01 -6.231553386896848679e-03
9.594869613647460938e-02 3.301188051700592041e-01 1.125740855932235718e-01
-3.468588888645172119e-01 -4.053006172180175781e-01 2.592469565570354462e-03
-4.138157516717910767e-02 -4.232332110404968262e-01 -2.272942289710044861e-02
2.362963557243347168e-01 -7.212998270988464355e-01 -4.944370687007904053e-01
1.383090466260910034e-01 2.372932434082031250e-01 -2.139149047434329987e-02
4.567782208323478699e-02 -5.601429939270019531e-01 -4.598957020789384842e-03
-6.364483833312988281e-01 -7.386043667793273926e-01 9.746199473738670349e-03
-3.072199784219264984e-02 3.301188051700592041e-01 -7.684479653835296631e-02
2.900376617908477783e-01 -6.571345329284667969e-01 4.922647178173065186e-01
1.808080822229385376e-01 3.543777763843536377e-01 3.879649937152862549e-02
-4.918639361858367920e-02 3.301188051700592041e-01 2.061143219470977783e-01
-1.166477948427200317e-01 2.372932434082031250e-01 -2.260566949844360352e-01
-9.803056716918945312e-02 3.543777763843536377e-01 3.010561503469944000e-02
-1.419573575258255005e-01 2.372932434082031250e-01 8.405474573373794556e-02
-2.445753514766693115e-01 3.527945876121520996e-01 -1.950797811150550842e-02
-3.709723427891731262e-02 2.372932434082031250e-01 -2.782742083072662354e-01
-2.090185694396495819e-02 1.858360767364501953e-01 -3.387141972780227661e-02
5.897471308708190918e-02 3.301188051700592041e-01 -1.395038980990648270e-02
4.445485770702362061e-02 8.904336392879486084e-02 8.547079749405384064e-03
-4.943110942840576172e-01 -6.668758988380432129e-01 -1.690235920250415802e-02
-3.172996267676353455e-02 2.159676281735301018e-03 1.760183833539485931e-02
1.308540850877761841e-01 2.372932434082031250e-01 -1.980737000703811646e-01
3.149822950363159180e-01 -6.584853529930114746e-01 -4.844016432762145996e-01
1.692671775817871094e-01 -4.787493646144866943e-01 3.370505273342132568e-01
2.005826085805892944e-01 3.523321449756622314e-01 -1.469144076108932495e-01
1.224810630083084106e-01 3.543777763843536377e-01 1.407353579998016357e-01
-4.434938430786132812e-01 -5.902013182640075684e-01 -1.690235920250415802e-02
1.466668546199798584e-01 -4.138828217983245850e-01 2.547997832298278809e-01
2.831891477108001709e-01 -7.369556427001953125e-01 -4.285011887550354004e-01
-2.047908902168273926e-01 3.485699892044067383e-01 1.612298488616943359e-01
-2.049036473035812378e-01 3.301188051700592041e-01 8.864733576774597168e-02
3.922693431377410889e-02 1.438247691839933395e-02 -2.641751803457736969e-02
1.658669114112854004e-01 2.372932434082031250e-01 -1.166709437966346741e-01
2.371100336313247681e-01 3.301188051700592041e-01 1.397205293178558350e-01
2.690182328224182129e-01 -7.579361796379089355e-01 -4.734656214714050293e-01
1.997491121292114258e-01 -5.011515617370605469e-01 -3.724559545516967773e-01
1.635911911725997925e-01 3.543777763843536377e-01 9.260071814060211182e-02
2.578102350234985352e-01 2.756910920143127441e-01 -1.473342031240463257e-01
1.805132478475570679e-01 2.372932434082031250e-01 -7.108432054519653320e-02
-1.747500747442245483e-01 3.301188051700592041e-01 -2.031838707625865936e-02
9.304670244455337524e-02 2.372932434082031250e-01 1.153244599699974060e-01
-4.007426202297210693e-01 -4.823957085609436035e-01 1.156266592442989349e-02
4.054746590554714203e-03 2.372932434082031250e-01 2.246164977550506592e-01
9.323640167713165283e-02 -4.629571735858917236e-01 -1.332051903009414673e-01
-2.198890410363674164e-02 3.301188051700592041e-01 2.342687100172042847e-01
-1.698039844632148743e-02 1.297405809164047241e-01 3.081575967371463776e-02
2.246906906366348267e-01 -5.166733264923095703e-01 3.583731949329376221e-01
9.084639698266983032e-02 3.543777763843536377e-01 -7.341307401657104492e-02
8.254955708980560303e-02 -2.223899066448211670e-01 -1.744517087936401367e-01
3.517402568832039833e-03 -6.251455843448638916e-02 2.188484417274594307e-03
2.688551843166351318e-01 -6.602940559387207031e-01 -5.006463527679443359e-01
-4.075058922171592712e-02 -1.185765191912651062e-01 1.891340874135494232e-02
-9.534266591072082520e-02 2.372932434082031250e-01 2.521263659000396729e-01
-5.834575742483139038e-02 3.301188051700592041e-01 -1.948623955249786377e-01
-2.834730222821235657e-02 -5.663332343101501465e-01 2.855732664465904236e-02
-2.514802515506744385e-01 2.372932434082031250e-01 3.660206496715545654e-02
-4.133479297161102295e-02 -4.650995433330535889e-01 -2.995148673653602600e-02
-6.523099541664123535e-02 3.301188051700592041e-01 -2.286229468882083893e-02
1.475110054016113281e-01 3.301188051700592041e-01 1.005905196070671082e-01
-9.566036611795425415e-02 3.301188051700592041e-01 9.282928705215454102e-02
-8.452095836400985718e-02 2.905690073966979980e-01 -2.856667041778564453e-01
2.127886414527893066e-01 3.301188051700592041e-01 -1.845239661633968353e-02
-1.338647007942199707e-01 -1.531108766794204712e-01 1.156266592442989349e-02
-4.972865339368581772e-03 3.301188051700592041e-01 -2.674319446086883545e-01
5.803075060248374939e-02 -1.073472052812576294e-01 -1.053524911403656006e-01
4.575759544968605042e-02 4.895493760704994202e-02 -1.347410259768366814e-03
-4.768099784851074219e-01 -5.948380827903747559e-01 -1.690235920250415802e-02
-6.214907392859458923e-03 3.301188051700592041e-01 -2.387132681906223297e-02
-3.716374561190605164e-02 -3.606807291507720947e-01 2.426841482520103455e-02
-1.097939535975456238e-01 3.301188051700592041e-01 -2.310843020677566528e-01
4.869858920574188232e-02 -9.101255983114242554e-02 -5.888544395565986633e-02
-2.690613269805908203e-01 2.829121649265289307e-01 1.157640665769577026e-01
1.252101063728332520e-01 3.301188051700592041e-01 -6.095980852842330933e-02
-1.723006740212440491e-02 3.301188051700592041e-01 -1.742231398820877075e-01
3.117854297161102295e-01 -7.579361796379089355e-01 5.406149625778198242e-01
-2.918224036693572998e-01 2.831110060214996338e-01 3.249836713075637817e-02
1.825840324163436890e-01 2.372932434082031250e-01 1.864319890737533569e-01
-2.684388756752014160e-01 3.301188051700592041e-01 7.168513536453247070e-02
1.174074248410761356e-03 4.877438396215438843e-02 -4.861420020461082458e-02
-2.921477258205413818e-01 3.310330808162689209e-01 -5.318950116634368896e-02
-1.720857918262481689e-01 2.372932434082031250e-01 -8.250378817319869995e-02
8.766325190663337708e-03 -2.487752288579940796e-01 4.227492585778236389e-02
-4.513686522841453552e-02 -5.021283626556396484e-01 6.293600890785455704e-03
-6.235460564494132996e-02 3.301188051700592041e-01 2.607812881469726562e-01
2.867059707641601562e-01 2.930672466754913330e-01 -7.376307994127273560e-02
-2.173519581556320190e-01 3.301188051700592041e-01 -1.017396673560142517e-01
-1.291235387325286865e-01 3.301188051700592041e-01 -1.798290312290191650e-01
-6.324541755020618439e-03 3.301188051700592041e-01 -1.085889488458633423e-01
5.305226147174835205e-02 3.118200600147247314e-01 -2.919202148914337158e-01
2.240766137838363647e-01 2.372932434082031250e-01 -1.661121994256973267e-01
2.517906725406646729e-01 2.372932434082031250e-01 7.312226295471191406e-02
-4.195747375488281250e-01 -5.499863624572753906e-01 -1.690235920250415802e-02
1.089645735919475555e-02 -5.265122056007385254e-01 -4.733417183160781860e-02
3.018177673220634460e-02 3.301188051700592041e-01 -3.356392681598663330e-02
-5.477319005876779556e-03 3.539587259292602539e-01 -2.387343347072601318e-01
-1.149953063577413559e-02 3.301188051700592041e-01 2.653121650218963623e-01
-1.261796355247497559e-01 3.301188051700592041e-01 -1.436360627412796021e-01
1.411813125014305115e-02 -4.203863739967346191e-01 4.089943319559097290e-02
-1.251373887062072754e-01 3.543777763843536377e-01 -1.246896907687187195e-01
-6.027208641171455383e-02 2.372932434082031250e-01 7.985527813434600830e-02
-7.960609346628189087e-02 2.372932434082031250e-01 -1.055102050304412842e-01
4.296394065022468567e-02 -1.262836754322052002e-01 3.065188042819499969e-02
-5.901910066604614258e-01 -7.579361796379089355e-01 3.395705297589302063e-02
-7.458181679248809814e-02 3.301188051700592041e-01 -6.460531055927276611e-02
-1.609799116849899292e-01 2.428481131792068481e-01 2.441853135824203491e-01
2.664049863815307617e-01 -7.161701321601867676e-01 4.144358932971954346e-01
1.079444214701652527e-02 -1.492260694503784180e-01 -4.734757915139198303e-02
-3.792676329612731934e-02 -3.501169979572296143e-01 -2.861378155648708344e-02
5.014150962233543396e-02 2.372932434082031250e-01 -2.048818320035934448e-01
3.854162618517875671e-02 -2.164358347654342651e-01 -2.731059119105339050e-02
-1.225332990288734436e-01 2.372932434082031250e-01 1.953878402709960938e-01
1.267734766006469727e-01 3.543777763843536377e-01 9.467657655477523804e-03
8.729757368564605713e-02 2.372932434082031250e-01 -2.518416643142700195e-01
-1.363255828619003296e-02 1.999056637287139893e-01 3.220267966389656067e-02
1.759016066789627075e-01 2.372932434082031250e-01 -4.260496795177459717e-02
2.963833212852478027e-01 -7.579361796379089355e-01 4.377790391445159912e-01
5.187660455703735352e-02 -1.907834410667419434e-01 -1.213244795799255371e-01
-5.162409543991088867e-01 -7.442231774330139160e-01 -5.963670555502176285e-04
-1.443923264741897583e-01 -1.502591818571090698e-01 -1.690235920250415802e-02
-5.837714672088623047e-02 3.301188051700592041e-01 5.885504558682441711e-02
-2.365901172161102295e-01 3.326200842857360840e-01 -1.825809329748153687e-01
-1.472646091133356094e-02 3.543777763843536377e-01 -1.167387440800666809e-01
6.599213927984237671e-02 2.602707147598266602e-01 2.848748862743377686e-01
-5.337641388177871704e-02 3.301188051700592041e-01 -2.305144369602203369e-01
-1.430293451994657516e-02 2.372932434082031250e-01 9.516493417322635651e-03
-3.651881217956542969e-01 -4.692495167255401611e-01 -2.577487565577030182e-02
-2.204086035490036011e-01 2.372932434082031250e-01 1.243252754211425781e-01
-1.751935109496116638e-02 -4.866576790809631348e-01 4.345797002315521240e-02
4.524233564734458923e-02 3.467414975166320801e-01 2.610563039779663086e-01
-1.212114393711090088e-01 3.402586281299591064e-01 2.522315084934234619e-01
3.307081386446952820e-02 -2.913735508918762207e-01 -3.443947806954383850e-02
2.400044202804565430e-01 3.536288440227508545e-01 -4.380786325782537460e-03
3.102296590805053711e-02 3.543777763843536377e-01 3.339189291000366211e-02
-3.645580410957336426e-01 -4.415971934795379639e-01 1.156266592442989349e-02
-1.398104149848222733e-02 3.543777763843536377e-01 1.791682541370391846e-01
-5.332468450069427490e-02 2.372932434082031250e-01 -3.759798780083656311e-02
-2.596658468246459961e-01 2.510855197906494141e-01 1.384459137916564941e-01
1.093531306833028793e-02 3.301188051700592041e-01 2.456443160772323608e-01
9.035345911979675293e-02 -1.854746639728546143e-01 1.256928592920303345e-01
-1.810858771204948425e-02 -3.787765502929687500e-01 -4.474653303623199463e-02
-2.152773924171924591e-02 3.031087815761566162e-01 2.907809615135192871e-01
-1.295486688613891602e-01 3.543777763843536377e-01 1.207563932985067368e-02
2.194687873125076294e-01 -5.559062361717224121e-01 3.493289351463317871e-01
1.957827806472778320e-01 -4.589908421039581299e-01 -2.959025502204895020e-01
3.149669989943504333e-02 -4.516608119010925293e-01 -3.599485009908676147e-02
-2.764965221285820007e-02 -5.275880098342895508e-01 -3.924288228154182434e-02
-2.894179224967956543e-01 -4.045237302780151367e-01 6.726601714035496116e-05
2.125265449285507202e-02 3.301188051700592041e-01 8.907856792211532593e-02
-3.535565733909606934e-02 -4.428489506244659424e-01 2.662444487214088440e-02
1.395752876996994019e-01 -3.690482676029205322e-01 2.678835093975067139e-01
-4.144663736224174500e-02 -2.360724508762359619e-01 1.723270863294601440e-02
-1.875960826873779297e-01 3.513295054435729980e-01 -1.723207235336303711e-01
-2.100295573472976685e-01 -2.772983908653259277e-01 1.156266592442989349e-02
-1.206781268119812012e-01 3.543777763843536377e-01 1.784673184156417847e-01
-1.116377208381891251e-02 2.372932434082031250e-01 1.364947408437728882e-01
2.741189897060394287e-01 -7.544491291046142578e-01 -5.599501132965087891e-01
-2.299709320068359375e-01 3.541537523269653320e-01 3.052304498851299286e-02
-3.286401554942131042e-02 -3.656272962689399719e-02 -3.521102666854858398e-02
4.279008135199546814e-02 -4.591013491153717041e-01 9.790948033332824707e-02
-2.322672307491302490e-01 -3.299879133701324463e-01 -1.690235920250415802e-02
-3.226030617952346802e-02 2.383134216070175171e-01 2.893676757812500000e-01
-1.249301899224519730e-02 2.372932434082031250e-01 -1.806724369525909424e-01
2.578498721122741699e-01 3.474149703979492188e-01 -7.351554185152053833e-02
2.113227993249893188e-01 2.883740663528442383e-01 -2.095148116350173950e-01
-6.212474107742309570e-01 -7.579361796379089355e-01 3.201480209827423096e-02
4.820108413696289062e-02 -1.183647215366363525e-01 5.268437787890434265e-02
3.122592903673648834e-02 -1.934812404215335846e-02 -2.309634350240230560e-02
8.626294136047363281e-02 3.301188051700592041e-01 1.557778418064117432e-01
2.772068977355957031e-01 3.371342122554779053e-01 9.676361083984375000e-02
1.722369641065597534e-01 3.348790109157562256e-01 -2.447219192981719971e-01
-8.568282425403594971e-02 -9.306963533163070679e-02 -1.690235920250415802e-02
-1.732438355684280396e-01 3.543777763843536377e-01 5.634809285402297974e-02
-1.254109386354684830e-02 2.372932434082031250e-01 -2.574155628681182861e-01
-2.549620270729064941e-01 -4.901234209537506104e-01 -1.754850707948207855e-02
-2.258941233158111572e-01 2.372932434082031250e-01 -1.785798184573650360e-02
1.103222593665122986e-01 2.537185549736022949e-01 -2.748191058635711670e-01
3.987186402082443237e-02 -1.035949736833572388e-01 9.519185870885848999e-02
9.195493161678314209e-02 -2.315713018178939819e-01 -1.338078379631042480e-01
4.195452854037284851e-02 3.543777763843536377e-01 -1.724182516336441040e-01
1.057730913162231445e-01 3.301188051700592041e-01 -1.278972029685974121e-01
-1.899823173880577087e-02 3.505226671695709229e-01 2.524692118167877197e-01
-1.072134748101234436e-01 -1.400782167911529541e-01 -1.454351190477609634e-02
5.182380974292755127e-02 -1.162809729576110840e-01 1.422938890755176544e-02
-7.334628701210021973e-02 2.372932434082031250e-01 1.557070016860961914e-01
3.146158158779144287e-01 -7.318503260612487793e-01 -4.657775461673736572e-01
-3.671987727284431458e-02 -3.348856046795845032e-02 2.484675683081150055e-02
-4.941213876008987427e-02 3.543777763843536377e-01 -1.461619418114423752e-02
-6.375221535563468933e-03 4.221308976411819458e-03 4.264055192470550537e-02
-4.007708653807640076e-02 -6.754902750253677368e-02 2.047198265790939331e-02
-1.515999902039766312e-03 3.301188051700592041e-01 3.670156747102737427e-02
-5.976764559745788574e-01 -6.880759000778198242e-01 3.600063920021057129e-02
1.462478190660476685e-01 -4.829526543617248535e-01 -2.278448194265365601e-01
2.632675766944885254e-01 2.663778960704803467e-01 1.288195848464965820e-01
-2.291770428419113159e-01 2.576909661293029785e-01 -1.867476403713226318e-01
-4.551925137639045715e-02 -1.616629660129547119e-01 3.391046775504946709e-03
-4.471638798713684082e-02 -9.826031327247619629e-02 -1.467691641300916672e-02
-7.683514803647994995e-02 3.301188051700592041e-01 1.876212805509567261e-01
2.723689675331115723e-01 2.412359565496444702e-01 -1.121850088238716125e-01
1.235316917300224304e-01 3.540212213993072510e-01 -2.025680243968963623e-01
6.845284998416900635e-02 -1.736183315515518188e-01 -9.310150146484375000e-02
-2.004977166652679443e-01 2.372932434082031250e-01 -9.124024212360382080e-02
2.491103708744049072e-01 -6.461863517761230469e-01 4.576046168804168701e-01
7.018101215362548828e-02 3.543777763843536377e-01 8.697883039712905884e-02
-2.690925598144531250e-01 -3.077912926673889160e-01 1.156266592442989349e-02
-5.249270796775817871e-01 -7.285422086715698242e-01 -4.374900460243225098e-02
1.342551112174987793e-01 3.301188051700592041e-01 7.093453407287597656e-02
2.392318844795227051e-01 3.301188051700592041e-01 7.775250077247619629e-02
2.311247438192367554e-01 -5.829055905342102051e-01 -4.267778098583221436e-01
2.559444308280944824e-01 -6.417735815048217773e-01 -4.178470671176910400e-01
-1.681301146745681763e-01 2.372932434082031250e-01 3.111967258155345917e-02
7.426734268665313721e-02 3.543777763843536377e-01 -1.567548215389251709e-01
4.400710389018058777e-02 2.372932434082031250e-01 -2.624477446079254150e-01
-5.028776451945304871e-02 -1.375525891780853271e-01 -2.420761808753013611e-02
-1.753176599740982056e-01 2.372932434082031250e-01 -2.042037695646286011e-01
1.755572408437728882e-01 3.301188051700592041e-01 1.093361005187034607e-01
1.143533512949943542e-01 -2.610559463500976562e-01 -1.726033985614776611e-01
1.692694574594497681e-01 2.372932434082031250e-01 2.282415032386779785e-01
6.436812132596969604e-02 -1.084747985005378723e-01 9.735254198312759399e-02
3.481642901897430420e-02 1.750981807708740234e-01 1.043851673603057861e-02
-5.347834825515747070e-01 -6.842299103736877441e-01 1.720368117094039917e-02
2.632880955934524536e-02 -3.120965957641601562e-01 3.462072834372520447e-02
-3.192066028714179993e-02 6.830202043056488037e-02 3.062559664249420166e-02
-3.832751139998435974e-02 3.543777763843536377e-01 -1.411576718091964722e-01
2.515933215618133545e-01 -7.386523485183715820e-01 -4.482467472553253174e-01
-1.939851790666580200e-01 2.372932434082031250e-01 1.654963642358779907e-01
2.479088902473449707e-01 -6.857018470764160156e-01 4.691653847694396973e-01
-1.200160533189773560e-01 2.372932434082031250e-01 2.305240929126739502e-01
-1.319752335548400879e-01 2.372932434082031250e-01 3.711473196744918823e-02
1.608164310455322266e-01 -4.513423442840576172e-01 -3.100140392780303955e-01
1.955519057810306549e-02 3.301188051700592041e-01 -2.044772803783416748e-01
1.934918314218521118e-01 3.301188051700592041e-01 -1.771944612264633179e-01
-2.331190109252929688e-01 2.500889599323272705e-01 1.762708276510238647e-01
1.098331287503242493e-01 -2.596555948257446289e-01 2.050552964210510254e-01
-2.426241934299468994e-01 -2.754767239093780518e-01 -1.690235920250415802e-02
-5.781739354133605957e-01 -6.626596450805664062e-01 -3.546778112649917603e-02
1.277524828910827637e-01 -4.832291901111602783e-01 -1.780698597431182861e-01
-7.077593356370925903e-02 3.191363811492919922e-01 2.842958569526672363e-01
2.273900210857391357e-01 -5.626716613769531250e-01 -3.683898150920867920e-01
1.289120614528656006e-01 3.434813916683197021e-01 2.417671084403991699e-01
2.776556313037872314e-01 2.569893300533294678e-01 9.408333152532577515e-02
-1.449622064828872681e-01 2.489613890647888184e-01 -2.606298923492431641e-01
-5.191680788993835449e-01 -6.535217165946960449e-01 1.156266592442989349e-02
3.678610920906066895e-02 -5.620543658733367920e-02 -8.014391176402568817e-03
-1.743188686668872833e-02 1.623344421386718750e-01 3.062871843576431274e-02
-2.339563071727752686e-01 3.469250798225402832e-01 1.305124759674072266e-01
2.201948314905166626e-02 -3.803810477256774902e-01 3.762770444154739380e-02
1.850441247224807739e-01 2.372932434082031250e-01 1.055884361267089844e-01
1.041906699538230896e-01 -2.402543872594833374e-01 1.496607363224029541e-01
1.620323807001113892e-01 -4.046458005905151367e-01 -3.087241649627685547e-01
1.589810475707054138e-02 3.301188051700592041e-01 1.471244543790817261e-01
-1.341809052973985672e-02 3.543777763843536377e-01 -3.875147178769111633e-02
1.339846290647983551e-02 1.337375305593013763e-02 -4.653755202889442444e-02
1.759663522243499756e-01 3.543777763843536377e-01 -3.900212794542312622e-02
-3.496900573372840881e-02 2.239794433116912842e-01 1.100169587880373001e-02
2.806319855153560638e-03 2.372932434082031250e-01 2.782084643840789795e-01
8.129093050956726074e-02 -2.235350012779235840e-01 1.669324934482574463e-01
-2.023429982364177704e-02 -1.182397753000259399e-01 4.804546013474464417e-02
1.776600033044815063e-01 3.301188051700592041e-01 2.366618718951940536e-03
7.538150995969772339e-02 2.372932434082031250e-01 -8.924868702888488770e-02
1.127538736909627914e-03 1.974707096815109253e-01 -4.017984122037887573e-02
-1.766090542078018188e-01 3.155410587787628174e-01 2.321933656930923462e-01
1.595875322818756104e-01 -4.076024889945983887e-01 -2.509517669677734375e-01
4.554083943367004395e-02 -4.704586565494537354e-01 2.985263126902282238e-04
-4.201355203986167908e-02 -4.176459014415740967e-01 1.586384326219558716e-02
9.058506786823272705e-02 -1.620484590530395508e-01 -1.350245624780654907e-01
2.139444053173065186e-01 -6.059424877166748047e-01 -4.020358622074127197e-01
2.761722505092620850e-01 -6.843380928039550781e-01 -4.528827369213104248e-01
1.169795468449592590e-01 2.467588037252426147e-01 2.667201161384582520e-01
1.671095341444015503e-01 3.543777763843536377e-01 -1.378290355205535889e-01
-1.227664276957511902e-01 3.512723743915557861e-01 2.195416390895843506e-01
-3.589674457907676697e-02 2.372932434082031250e-01 6.878954172134399414e-02
-9.935928136110305786e-02 -1.568341851234436035e-01 9.961429983377456665e-03
2.257603406906127930e-02 2.372932434082031250e-01 7.132887840270996094e-02
-2.940044105052947998e-01 2.372932434082031250e-01 -3.568868618458509445e-03
-5.730990767478942871e-01 -7.579361796379089355e-01 -2.264561876654624939e-02
-9.171231836080551147e-02 -4.901234209537506104e-01 -1.074509602040052414e-02
-4.395329207181930542e-02 1.127270981669425964e-01 1.117974705994129181e-02
-1.712301969528198242e-01 2.372932434082031250e-01 6.381288915872573853e-02
1.330741941928863525e-01 -4.821953177452087402e-01 2.566214501857757568e-01
1.472298800945281982e-01 3.491520583629608154e-01 -2.175853699445724487e-01
-2.466012164950370789e-02 2.372932434082031250e-01 -2.250152081251144409e-01
8.419215679168701172e-02 2.372932434082031250e-01 -1.603447794914245605e-01
2.347154766321182251e-01 2.647200524806976318e-01 1.736880689859390259e-01
1.629390269517898560e-01 2.984986603260040283e-01 -2.477267533540725708e-01
2.180737704038619995e-01 2.445448189973831177e-01 1.953756511211395264e-01
3.215122967958450317e-02 3.351899087429046631e-01 -2.978483736515045166e-01
1.483985930681228638e-01 3.208962976932525635e-01 2.535434663295745850e-01
1.755259931087493896e-01 2.372932434082031250e-01 6.993891298770904541e-02
-1.607635319232940674e-01 3.540250360965728760e-01 -1.742261946201324463e-01
2.346644252538681030e-01 3.463849127292633057e-01 -1.367867887020111084e-01
-1.916599273681640625e-01 3.301188051700592041e-01 -6.486313790082931519e-02
1.023652106523513794e-01 3.301188051700592041e-01 2.254568487405776978e-01
4.574928805232048035e-02 3.128539323806762695e-01 2.875406742095947266e-01
-2.074010670185089111e-01 2.774830460548400879e-01 -2.139062732458114624e-01
8.231337368488311768e-02 3.301188051700592041e-01 2.582462690770626068e-02
1.949439495801925659e-01 -5.668970346450805664e-01 3.637847900390625000e-01
7.592937350273132324e-02 3.301188051700592041e-01 -1.449990570545196533e-01
-8.040073513984680176e-02 3.344188630580902100e-01 -2.910745143890380859e-01
-4.246038943529129028e-02 3.543777763843536377e-01 3.398943692445755005e-02
3.263868093490600586e-01 -7.579361796379089355e-01 -5.074285864830017090e-01
3.999681398272514343e-02 -5.046996474266052246e-01 1.980343461036682129e-02
-2.641342580318450928e-01 3.475345969200134277e-01 2.396480739116668701e-02
-1.826157048344612122e-02 2.372932434082031250e-01 2.081729024648666382e-01
7.818856835365295410e-02 -4.889593124389648438e-01 1.615574508905410767e-01
-2.838135361671447754e-01 3.269235491752624512e-01 -8.549034595489501953e-02
-1.160169858485460281e-02 3.301188051700592041e-01 1.612031906843185425e-01
-2.537242602556943893e-03 3.543777763843536377e-01 8.194053918123245239e-02
2.955155372619628906e-01 2.681370973587036133e-01 -6.852133199572563171e-03
8.895846456289291382e-02 3.543777763843536377e-01 6.005873903632164001e-02
-1.662627607583999634e-01 3.543777763843536377e-01 1.185837760567665100e-01
1.342741549015045166e-01 2.788178622722625732e-01 -2.648971974849700928e-01
-2.856580317020416260e-01 2.643703520298004150e-01 -8.103793859481811523e-02
-8.025293052196502686e-02 3.301188051700592041e-01 -9.745334088802337646e-02
-1.855245381593704224e-01 -2.096536159515380859e-01 -1.690235920250415802e-02
5.116060003638267517e-02 -4.891969859600067139e-01 -6.548840552568435669e-02
2.158932983875274658e-01 -5.800119638442993164e-01 4.000707268714904785e-01
8.664388209581375122e-02 3.183043897151947021e-01 2.792857587337493896e-01
8.919616788625717163e-02 -4.586792290210723877e-01 1.983622163534164429e-01
1.568181067705154419e-01 -4.695603549480438232e-01 3.154886364936828613e-01
1.915955096483230591e-01 -4.932197034358978271e-01 3.579853773117065430e-01
-2.529293298721313477e-01 -3.463342189788818359e-01 1.156266592442989349e-02
-1.469994634389877319e-01 -1.961630433797836304e-01 -1.690235920250415802e-02
1.303543001413345337e-01 2.372932434082031250e-01 1.139721348881721497e-01
-1.584817171096801758e-01 -2.225818783044815063e-01 -1.690235920250415802e-02
-2.474727630615234375e-01 -4.580461084842681885e-01 -2.084773965179920197e-02
5.011550616472959518e-03 8.506409823894500732e-02 4.276930540800094604e-02
-6.280890852212905884e-02 3.543777763843536377e-01 -7.421699911355972290e-02
2.575375139713287354e-01 -7.145571708679199219e-01 -4.255260527133941650e-01
8.427292108535766602e-02 3.543777763843536377e-01 2.940258942544460297e-03
4.922273568809032440e-03 -4.403576850891113281e-01 -4.812073707580566406e-02
-4.369356334209442139e-01 -5.226906538009643555e-01 -1.282364875078201294e-02
-2.934543490409851074e-01 3.132928013801574707e-01 -2.544399164617061615e-02
1.930171437561511993e-02 -1.077395826578140259e-01 -6.490427255630493164e-02
1.060214359313249588e-02 -5.190641283988952637e-01 4.203318059444427490e-02
1.043400093913078308e-01 3.301188051700592041e-01 -2.529349625110626221e-01
3.351994231343269348e-02 -5.217443704605102539e-01 -3.385427594184875488e-02
1.590724848210811615e-02 7.310187071561813354e-02 -4.549865424633026123e-02
3.698549047112464905e-02 -5.637596249580383301e-01 -2.933832630515098572e-02
-1.408892124891281128e-01 3.301188051700592041e-01 -2.232255637645721436e-01
-4.403565078973770142e-02 -6.819357722997665405e-02 -1.632058992981910706e-02
-6.208596751093864441e-02 3.465723395347595215e-01 -2.646617591381072998e-01
2.668377459049224854e-01 3.345857262611389160e-01 1.290794014930725098e-01
-1.006773263216018677e-01 3.543777763843536377e-01 -9.896720200777053833e-02
1.137133762240409851e-01 2.372932434082031250e-01 4.480702430009841919e-02
2.346141338348388672e-01 2.372932434082031250e-01 -9.829980134963989258e-02
-5.534555912017822266e-01 -7.579361796379089355e-01 -4.009725153446197510e-02
-4.151856154203414917e-02 -2.758226394653320312e-01 -2.239876799285411835e-02
-1.661873310804367065e-01 3.301188051700592041e-01 1.902786940336227417e-01
2.453040331602096558e-01 3.515709936618804932e-01 5.483987554907798767e-02
3.901551291346549988e-02 -2.455692589282989502e-01 2.135332301259040833e-02
-2.610959298908710480e-02 -3.219923675060272217e-01 3.508501499891281128e-02
8.138235658407211304e-02 2.372932434082031250e-01 7.779058814048767090e-02
1.988081820309162140e-02 -9.072458744049072266e-02 3.851338475942611694e-02
2.232957035303115845e-01 2.372932434082031250e-01 4.472352191805839539e-02
2.561059296131134033e-01 -6.867792010307312012e-01 5.234102606773376465e-01
-1.976749598979949951e-01 -4.670210480690002441e-01 -2.577487565577030182e-02
8.540276437997817993e-03 2.672464251518249512e-01 -2.977797985076904297e-01
-6.179949641227722168e-01 -7.145556807518005371e-01 -3.353497385978698730e-02
-1.006323844194412231e-01 3.543777763843536377e-01 1.545291393995285034e-01
-1.360200494527816772e-01 3.543777763843536377e-01 1.428289860486984253e-01
-2.941339612007141113e-01 3.082940876483917236e-01 1.494075357913970947e-02
2.869185209274291992e-01 3.147891163825988770e-01 6.680995970964431763e-02
-1.591674238443374634e-02 -1.864910125732421875e-01 4.031454026699066162e-02
-1.130258366465568542e-01 2.372932434082031250e-01 6.006677169352769852e-03
-4.518867284059524536e-02 -9.681807458400726318e-02 2.825509198009967804e-02
-3.775655627250671387e-01 -5.129058361053466797e-01 1.156266592442989349e-02
2.803671360015869141e-01 -7.579361796379089355e-01 5.502701997756958008e-01
4.118762537837028503e-02 2.127684056758880615e-01 6.410244386643171310e-03
1.430067699402570724e-02 3.543777763843536377e-01 1.223284006118774414e-01
3.356588482856750488e-01 -7.579361796379089355e-01 5.164939165115356445e-01
-1.132208779454231262e-01 3.301188051700592041e-01 1.431631948798894882e-02
-2.486719638109207153e-01 3.301188051700592041e-01 -1.070522367954254150e-01
-4.756382405757904053e-01 -6.472118496894836426e-01 3.716809907928109169e-03
-2.991082519292831421e-02 -8.947729133069515228e-03 -3.750755265355110168e-02
-3.329843580722808838e-01 -4.544470310211181641e-01 -1.690235920250415802e-02
1.647164821624755859e-01 -4.444268345832824707e-01 -2.767824828624725342e-01
1.010311488062143326e-02 -2.711088769137859344e-02 3.350495919585227966e-02
1.023088116198778152e-02 3.543777763843536377e-01 -1.085607632994651794e-01
4.586257785558700562e-02 -1.936260014772415161e-01 -3.195613157004117966e-03
9.220635145902633667e-02 -4.899954497814178467e-01 -1.440429091453552246e-01
-3.791587054729461670e-02 -4.738139212131500244e-01 2.328826114535331726e-02
2.372715622186660767e-01 -6.546964645385742188e-01 -4.424389302730560303e-01
-2.036389410495758057e-01 3.301188051700592041e-01 -1.290080100297927856e-01
8.129169046878814697e-02 3.543777763843536377e-01 -1.283604204654693604e-01
1.132951080799102783e-01 3.543777763843536377e-01 1.716172844171524048e-01
-1.418118327856063843e-01 2.911869287490844727e-01 2.565947771072387695e-01
-4.772841930389404297e-03 -5.663332343101501465e-01 -2.333580143749713898e-02
2.263165414333343506e-01 2.372932434082031250e-01 -1.281478554010391235e-01
2.482791543006896973e-01 -5.942248106002807617e-01 -4.045705795288085938e-01
1.264626383781433105e-01 3.301188051700592041e-01 1.870254725217819214e-01
-9.700965136289596558e-02 3.543777763843536377e-01 7.080600410699844360e-02
-1.973420381546020508e-02 3.301188051700592041e-01 -1.443415582180023193e-01
3.766409680247306824e-02 -1.495361626148223877e-01 8.351229131221771240e-02
1.590564996004104614e-01 -3.471280932426452637e-01 2.446919679641723633e-01
1.524174958467483521e-01 3.301188051700592041e-01 -1.076053604483604431e-01
7.899844646453857422e-02 -1.412492096424102783e-01 -1.113675162196159363e-01
-3.402907773852348328e-02 -1.109021306037902832e-01 -3.369283676147460938e-02
-4.529403895139694214e-02 3.543777763843536377e-01 -2.086790353059768677e-01
-6.530543416738510132e-02 2.372932434082031250e-01 -2.666296958923339844e-01
2.766925990581512451e-01 3.436238467693328857e-01 -5.780018866062164307e-03
2.579161524772644043e-01 -7.191703319549560547e-01 -5.318856239318847656e-01
-5.371818542480468750e-01 -7.209348678588867188e-01 3.840931504964828491e-02
-4.799949470907449722e-03 3.543777763843536377e-01 -2.007361268624663353e-03
2.305205613374710083e-01 -5.895544886589050293e-01 4.254061579704284668e-01
-3.919696509838104248e-01 -4.640893340110778809e-01 -1.548404898494482040e-02
6.202359497547149658e-02 -1.396401226520538330e-01 7.662492245435714722e-02
4.609708487987518311e-02 3.301188051700592041e-01 -8.199562132358551025e-02
2.305647581815719604e-01 -5.693235993385314941e-01 3.685480356216430664e-01
1.877007931470870972e-01 2.372932434082031250e-01 -1.982755959033966064e-01
-2.587592303752899170e-01 2.372932434082031250e-01 -1.177131831645965576e-01
1.354474425315856934e-01 -3.076086640357971191e-01 -2.091392129659652710e-01
2.117913216352462769e-02 3.301188051700592041e-01 2.117080241441726685e-01
2.971215844154357910e-01 -7.315196394920349121e-01 4.301359057426452637e-01
2.043660730123519897e-02 -4.623888134956359863e-01 5.919126793742179871e-02
5.181535333395004272e-02 -1.100084558129310608e-01 -1.958949863910675049e-02
9.271603822708129883e-02 -2.420966178178787231e-01 1.867207288742065430e-01
-1.853310167789459229e-01 2.372932434082031250e-01 1.395277678966522217e-01
1.977598667144775391e-01 2.372932434082031250e-01 -1.494088023900985718e-01
-3.185620009899139404e-01 -3.684236407279968262e-01 -5.171896424144506454e-03
2.543695829808712006e-02 -1.257732063531875610e-01 -5.107026547193527222e-02
-4.455814487300813198e-04 3.543777763843536377e-01 -2.043203413486480713e-01
-4.629263281822204590e-02 -1.324928086251020432e-02 -2.856036880984902382e-03
1.646052449941635132e-01 -4.901234209537506104e-01 -2.508062720298767090e-01
-5.411322787404060364e-02 3.543777763843536377e-01 -1.674424260854721069e-01
1.043064817786216736e-01 3.301188051700592041e-01 -1.857160478830337524e-01
1.039438247680664062e-01 -3.175462484359741211e-01 -2.115086466073989868e-01
-2.562712412327528000e-03 -3.750050961971282959e-01 4.314255341887474060e-02
-4.388532787561416626e-02 2.694619596004486084e-01 -2.931780517101287842e-01
3.541983664035797119e-02 1.887146383523941040e-02 2.603886649012565613e-02
-9.544322639703750610e-02 -8.600398153066635132e-02 8.726273663341999054e-03
-1.250269114971160889e-01 2.372932434082031250e-01 -6.461864709854125977e-02
2.432035095989704132e-02 2.345794588327407837e-01 -3.706779703497886658e-02
6.621376425027847290e-02 -2.010390609502792358e-01 1.408176422119140625e-01
2.216119319200515747e-01 3.304708600044250488e-01 1.931692659854888916e-01
4.710245877504348755e-02 2.372932434082031250e-01 8.998215198516845703e-02
1.837832182645797729e-01 3.301188051700592041e-01 1.397030204534530640e-01
-1.883015781641006470e-01 2.372932434082031250e-01 -3.596360981464385986e-02
2.876674532890319824e-01 2.372932434082031250e-01 -4.543473199009895325e-02
1.330307405441999435e-02 -4.943198561668395996e-01 -4.657709226012229919e-02
-1.389822363853454590e-01 2.372932434082031250e-01 1.710656881332397461e-01
-7.493928819894790649e-02 2.372932434082031250e-01 2.995521761476993561e-02
2.005742341279983521e-01 2.372932434082031250e-01 1.334144771099090576e-01
-2.159180939197540283e-01 2.372932434082031250e-01 1.724832691252231598e-02
-6.570457667112350464e-02 3.543777763843536377e-01 -1.273951232433319092e-01
-3.923604488372802734e-01 -5.386816859245300293e-01 -8.443693630397319794e-03
2.137227058410644531e-01 3.543777763843536377e-01 -3.252251446247100830e-02
-1.780101507902145386e-01 2.372932434082031250e-01 -1.681745946407318115e-01
-2.654698677361011505e-02 2.153610736131668091e-01 -2.953953854739665985e-02
3.508026525378227234e-02 1.041750386357307434e-01 -1.514105033129453659e-02
2.747170254588127136e-02 -3.217750191688537598e-01 -3.908349946141242981e-02
6.737141404300928116e-03 -8.717041462659835815e-02 -4.788180813193321228e-02
-1.438087224960327148e-01 3.529416322708129883e-01 1.942579895257949829e-01
-4.604601487517356873e-02 -3.371327817440032959e-01 -4.729908425360918045e-03
-2.898110449314117432e-01 -3.786901533603668213e-01 -1.690235920250415802e-02
1.806077063083648682e-01 -4.148958325386047363e-01 2.820186018943786621e-01
7.854589074850082397e-02 2.372932434082031250e-01 1.856820285320281982e-02
-2.214683964848518372e-02 3.301188051700592041e-01 9.370772540569305420e-02
2.384288460016250610e-01 2.372932434082031250e-01 -3.724554553627967834e-02
1.415409445762634277e-01 2.372932434082031250e-01 2.151059806346893311e-01
2.024202495813369751e-01 -4.834196865558624268e-01 -3.073992729187011719e-01
-2.843826711177825928e-01 2.523677647113800049e-01 7.877798378467559814e-02
4.251511767506599426e-02 -8.380216360092163086e-02 6.370691210031509399e-02
