3.579540848731994629e-01 3.594126701354980469e-01 3.354378640651702881e-01
-4.289273321628570557e-01 -4.494089782238006592e-01 2.428648173809051514e-01
3.828392922878265381e-01 3.690921962261199951e-01 2.681018412113189697e-01
3.604605495929718018e-01 6.567063331604003906e-01 3.397657871246337891e-01
2.667976021766662598e-01 2.151761204004287720e-02 4.166826140135526657e-03
-2.755382061004638672e-01 1.466736290603876114e-02 -1.858974397182464600e-01
4.271853268146514893e-01 6.608106195926666260e-02 -2.722547762095928192e-02
2.004581689834594727e-01 1.028928323648869991e-03 -1.812634319067001343e-01
3.160370290279388428e-01 6.218728423118591309e-01 3.952648043632507324e-01
3.389169275760650635e-01 -1.712876260280609131e-01 -4.889636635780334473e-01
5.140146613121032715e-02 -1.071964274160563946e-03 -1.341058164834976196e-01
1.316906958818435669e-01 -1.064261607825756073e-02 -1.471148431301116943e-01
3.166072070598602295e-01 3.402926772832870483e-02 7.340199314057826996e-03
1.917024254798889160e-01 -5.136945284903049469e-03 -9.336733818054199219e-02
-1.734900027513504028e-01 -8.886428549885749817e-03 -9.650085121393203735e-02
-3.502712845802307129e-01 -9.323097020387649536e-02 1.457912176847457886e-01
-3.807171285152435303e-01 -1.361693069338798523e-02 2.346708178520202637e-01
-3.460292220115661621e-01 -4.146351814270019531e-01 -4.628849029541015625e-01
-3.897947967052459717e-01 3.535729944705963135e-01 2.632233202457427979e-01
1.248880475759506226e-01 5.460097193717956543e-01 4.195201396942138672e-01
2.163496911525726318e-01 5.516496896743774414e-01 3.872416019439697266e-01
-5.265888292342424393e-03 8.255697786808013916e-03 -3.389132916927337646e-01
3.999868333339691162e-01 -2.086556553840637207e-01 -4.853281080722808838e-01
-4.389978647232055664e-01 -1.883139461278915405e-01 1.430374979972839355e-01
3.645710647106170654e-01 1.007867306470870972e-01 -4.963747560977935791e-01
-4.079781472682952881e-01 -7.166833281517028809e-01 -4.840590357780456543e-01
4.171521067619323730e-01 -4.735057055950164795e-01 3.100533783435821533e-01
-4.023923277854919434e-01 -1.129518300294876099e-01 1.506249308586120605e-01
-3.471639156341552734e-01 2.469421029090881348e-01 2.867638766765594482e-01
-4.666591882705688477e-01 -7.252645492553710938e-01 4.547670483589172363e-01
-3.354986310005187988e-01 1.528324279934167862e-02 2.123377919197082520e-01
-3.498280644416809082e-01 -1.782602071762084961e-01 1.232416853308677673e-01
-1.613572090864181519e-01 2.621244490146636963e-01 3.219566643238067627e-01
3.924992382526397705e-01 2.432193141430616379e-04 -4.665307402610778809e-01
3.635996580123901367e-01 -2.488986402750015259e-01 1.273615211248397827e-01
-4.280081987380981445e-01 -3.221918642520904541e-01 1.777982264757156372e-01
-3.525071144104003906e-01 -2.187075465917587280e-01 5.496477335691452026e-02
-4.003897905349731445e-01 -1.192639395594596863e-01 1.932408958673477173e-01
2.471548169851303101e-01 -9.031588584184646606e-02 1.068415939807891846e-01
-3.696434497833251953e-01 5.660742521286010742e-01 3.637150526046752930e-01
-2.875972986221313477e-01 4.362389817833900452e-02 -3.600659072399139404e-01
5.528672412037849426e-02 -2.760063298046588898e-02 5.983646214008331299e-02
1.354120969772338867e-01 6.267933845520019531e-01 4.289859831333160400e-01
-3.383251130580902100e-01 2.825146615505218506e-01 2.615893781185150146e-01
3.507380485534667969e-01 -3.386591374874114990e-01 -4.546396136283874512e-01
-9.634444117546081543e-02 6.246742010116577148e-01 4.307188689708709717e-01
2.690054178237915039e-01 4.321984946727752686e-02 -4.007222652435302734e-01
3.772712051868438721e-01 2.593277692794799805e-01 3.062806725502014160e-01
2.916109263896942139e-01 -6.005742028355598450e-02 9.350465983152389526e-02
-4.049333035945892334e-01 2.592113800346851349e-02 1.924477368593215942e-01
-4.337461292743682861e-01 -4.895847737789154053e-01 3.274622261524200439e-01
4.188887178897857666e-01 4.640282690525054932e-02 3.558028861880302429e-02
3.938887119293212891e-01 1.225150898098945618e-01 2.556639015674591064e-01
3.115176409482955933e-02 2.835532724857330322e-01 3.569497168064117432e-01
-3.471685945987701416e-01 -1.966105848550796509e-01 -1.857154667377471924e-01
-3.748075067996978760e-01 8.804364502429962158e-02 -4.258417189121246338e-01
3.435864150524139404e-01 5.005710124969482422e-01 3.347510695457458496e-01
-3.946014642715454102e-01 1.528359204530715942e-01 2.127810418605804443e-01
-3.479253649711608887e-01 7.137202471494674683e-02 -4.083918333053588867e-01
3.648013621568679810e-02 7.427063770592212677e-03 -3.084142804145812988e-01
-3.755110800266265869e-01 1.844491362571716309e-01 2.887271940708160400e-01
-3.142368197441101074e-01 3.178785368800163269e-02 -3.284685909748077393e-01
-3.287379443645477295e-01 4.868344217538833618e-02 -2.508567273616790771e-01
-3.700848221778869629e-01 4.791710972785949707e-01 2.920809388160705566e-01
3.264808356761932373e-01 2.196839004755020142e-01 2.840185463428497314e-01
3.245324492454528809e-01 3.067373335361480713e-01 3.079920709133148193e-01
-2.818453609943389893e-01 1.876202411949634552e-02 8.578079938888549805e-02
2.580343782901763916e-01 -7.764559239149093628e-02 -4.967144131660461426e-01
4.500344097614288330e-01 -2.447591722011566162e-01 1.251686364412307739e-01
3.384177088737487793e-01 -2.083150595426559448e-01 8.357866108417510986e-02
-4.178527295589447021e-01 -6.844589114189147949e-01 3.916330039501190186e-01
2.032716125249862671e-01 -4.281836154405027628e-04 -1.438945382833480835e-01
3.424059450626373291e-01 -6.776767373085021973e-01 -5.189578533172607422e-01
3.084841668605804443e-01 4.448706656694412231e-02 -2.324755489826202393e-01
-2.423787564039230347e-01 3.317449986934661865e-02 -3.539603352546691895e-01
-3.375244736671447754e-01 4.014885798096656799e-02 -3.675404489040374756e-01
-2.598136961460113525e-01 3.800240159034729004e-01 3.500677645206451416e-01
3.373156487941741943e-01 -2.194232642650604248e-01 1.691973954439163208e-01
-3.263257741928100586e-01 -5.783138796687126160e-02 7.749732583761215210e-02
3.405938148498535156e-01 -6.282740235328674316e-01 -5.176962018013000488e-01
2.744801938533782959e-01 4.143380746245384216e-02 -3.431516885757446289e-01
-3.774641752243041992e-01 8.961321413516998291e-02 -4.878168404102325439e-01
-4.544050991535186768e-01 -8.417837321758270264e-02 8.841452002525329590e-02
4.802992343902587891e-01 -1.198729053139686584e-01 1.167814880609512329e-01
-3.445268273353576660e-01 -4.891630113124847412e-01 -4.643415510654449463e-01
1.944673508405685425e-01 4.215547442436218262e-01 3.570374250411987305e-01
-6.182643398642539978e-02 2.818287909030914307e-01 3.384239375591278076e-01
3.870347440242767334e-01 -1.903463602066040039e-01 -3.572571277618408203e-01
3.598446547985076904e-01 1.284306123852729797e-02 3.707920387387275696e-02
1.309869252145290375e-02 2.481906563043594360e-01 3.481006622314453125e-01
-1.566513329744338989e-01 1.480080932378768921e-02 -2.738635241985321045e-01
-3.530539274215698242e-01 -5.664376914501190186e-02 -5.207298994064331055e-01
3.621663153171539307e-01 -8.841408789157867432e-02 2.158221602439880371e-01
3.937114179134368896e-01 1.839995756745338440e-02 2.280286997556686401e-01
6.483647972345352173e-02 1.214599702507257462e-02 -3.712972998619079590e-01
-8.313031494617462158e-02 1.482227165251970291e-02 -4.109439849853515625e-01
3.933736085891723633e-01 -3.018529713153839111e-01 -4.677811563014984131e-01
1.318511962890625000e-01 1.661605783738195896e-03 -3.815964758396148682e-01
3.799792230129241943e-01 2.202431112527847290e-02 -3.090824373066425323e-02
1.451539993286132812e-02 -2.828780375421047211e-02 4.874701797962188721e-02
-4.059214890003204346e-01 2.821918129920959473e-01 2.909723520278930664e-01
-2.744380235671997070e-01 3.695282340049743652e-02 -2.922745347023010254e-01
-3.469492793083190918e-01 4.740014374256134033e-01 3.477320671081542969e-01
-4.515935182571411133e-01 1.226917468011379242e-02 -8.412453345954418182e-03
-3.878659904003143311e-01 -5.982313156127929688e-01 -5.219093561172485352e-01
-3.074117600917816162e-01 1.327977608889341354e-02 -9.245194494724273682e-03
3.872083127498626709e-01 -1.955897063016891479e-01 1.305781006813049316e-01
3.370926082134246826e-01 2.658551633358001709e-01 2.925829887390136719e-01
-4.080042541027069092e-01 4.402457475662231445e-01 3.246608972549438477e-01
-1.204125061631202698e-01 5.483318585902452469e-03 -1.736088097095489502e-01
7.527925074100494385e-02 2.515751719474792480e-01 3.458247184753417969e-01
3.336698412895202637e-01 -3.416869416832923889e-02 -5.063537955284118652e-01
4.463027417659759521e-01 -9.576914459466934204e-02 8.714459836483001709e-02
4.132468998432159424e-01 -2.364961653947830200e-01 1.798128932714462280e-01
-3.715648353099822998e-01 -1.608639806509017944e-01 1.965190619230270386e-01
-3.782638907432556152e-01 -2.279849052429199219e-01 8.484737575054168701e-02
4.001641571521759033e-01 -6.573079824447631836e-01 -4.873390495777130127e-01
-1.332843601703643799e-01 3.216378688812255859e-01 3.421126306056976318e-01
-2.887338399887084961e-01 -2.772408910095691681e-02 -4.855921864509582520e-01
3.300715982913970947e-01 -3.792893886566162109e-01 -4.742413759231567383e-01
-1.819032826460897923e-03 3.954818472266197205e-03 -2.564686834812164307e-01
3.339227139949798584e-01 -9.834013879299163818e-02 -4.673463404178619385e-01
-3.953806459903717041e-01 3.644612431526184082e-02 -1.152814030647277832e-01
-2.717151045799255371e-01 1.238233293406665325e-03 5.438416823744773865e-02
-1.944821178913116455e-01 5.276155192404985428e-03 1.076050661504268646e-02
4.463027417659759521e-01 -2.182036340236663818e-01 1.593050807714462280e-01
1.471632421016693115e-01 1.156680518761277199e-03 -1.714075356721878052e-02
-3.847940564155578613e-01 7.704836130142211914e-02 -2.798599302768707275e-01
-3.428368866443634033e-01 4.690019413828849792e-02 1.906896680593490601e-01
-2.823567092418670654e-01 -1.084930598735809326e-01 8.606830239295959473e-02
4.723422825336456299e-01 -3.553755581378936768e-01 1.946956813335418701e-01
3.272152543067932129e-01 -4.519088864326477051e-01 -4.840189218521118164e-01
-3.901101946830749512e-01 5.152673646807670593e-02 1.246656700968742371e-01
1.255440413951873779e-01 1.369595900177955627e-02 -3.055308461189270020e-01
1.854689866304397583e-01 4.847839474678039551e-03 -3.050885200500488281e-01
2.716648876667022705e-01 7.268428802490234375e-03 1.702583879232406616e-01
3.712001442909240723e-01 5.983923003077507019e-02 9.385365247726440430e-02
-3.846709132194519043e-01 9.380584955215454102e-02 2.622631192207336426e-01
3.331920504570007324e-01 4.688476324081420898e-01 3.485168814659118652e-01
-3.671902120113372803e-01 7.176043931394815445e-03 1.464845389127731323e-01
-3.891929090023040771e-01 -1.807583421468734741e-01 1.492681074887514114e-02
1.246696859598159790e-01 3.157608807086944580e-01 3.578446209430694580e-01
4.145980775356292725e-01 -7.434992194175720215e-01 4.042183756828308105e-01
3.422949016094207764e-01 5.338106751441955566e-01 3.441525101661682129e-01
-3.507789373397827148e-01 -1.077740713953971863e-01 8.919808268547058105e-02
1.177111938595771790e-01 4.570059776306152344e-01 3.792995512485504150e-01
-3.352326750755310059e-01 1.321591883897781372e-01 2.414604425430297852e-01
1.458241641521453857e-01 -1.253121439367532730e-02 -7.845189422369003296e-02
-4.636918008327484131e-01 -2.608028352260589600e-01 1.346074342727661133e-01
4.155611097812652588e-01 -6.524351239204406738e-01 4.004773795604705811e-01
-1.597857773303985596e-01 1.998537778854370117e-02 -3.645496964454650879e-01
-2.363907545804977417e-01 2.394797056913375854e-01 3.182128369808197021e-01
-3.314666450023651123e-02 3.667024075984954834e-01 3.794787526130676270e-01
-1.670260876417160034e-01 -5.337933450937271118e-02 -4.633421599864959717e-01
1.769698858261108398e-01 -6.932049989700317383e-02 1.039143055677413940e-01
3.536820039153099060e-02 -1.084920316934585571e-01 7.842114567756652832e-02
-3.570067584514617920e-01 2.199554443359375000e-01 2.257163524627685547e-01
-2.829931378364562988e-01 2.727420628070831299e-02 -3.952997326850891113e-01
3.287624120712280273e-01 -6.051524281501770020e-01 -4.773645997047424316e-01
-4.008451700210571289e-01 5.250655114650726318e-02 -5.112603306770324707e-01
3.406647145748138428e-01 3.433627635240554810e-02 1.343928128480911255e-01
-9.177611209452152252e-03 -4.095352813601493835e-02 -5.116690397262573242e-01
3.976567685604095459e-01 -4.272952079772949219e-01 -4.754954874515533447e-01
-4.893113970756530762e-01 -5.912168025970458984e-01 3.586527109146118164e-01
-2.485095560550689697e-01 4.569705724716186523e-01 3.559027314186096191e-01
4.578038156032562256e-01 -7.612915635108947754e-01 4.242782592773437500e-01
-3.631543517112731934e-01 -4.563158750534057617e-02 -4.534190595149993896e-01
-3.298026919364929199e-01 3.862350881099700928e-01 3.302569985389709473e-01
-3.605816662311553955e-01 1.186605449765920639e-02 9.937733411788940430e-02
-3.908352553844451904e-01 -7.612915635108947754e-01 -4.968982338905334473e-01
1.962020695209503174e-01 2.531774044036865234e-01 3.290401697158813477e-01
1.333377063274383545e-01 -5.828405730426311493e-03 8.162324875593185425e-02
4.253218472003936768e-01 2.113129012286663055e-02 6.197355687618255615e-02
3.983360826969146729e-01 4.865731671452522278e-02 -4.773058295249938965e-01
1.654874831438064575e-01 3.924750387668609619e-01 3.548790812492370605e-01
-3.467934429645538330e-01 4.964737966656684875e-02 -6.090467795729637146e-02
-3.496609926223754883e-01 -6.771604716777801514e-02 2.137543112039566040e-01
-3.809476196765899658e-01 -4.292800426483154297e-01 -5.244904756546020508e-01
-4.511372148990631104e-01 3.083602711558341980e-02 3.502301126718521118e-02
2.463373690843582153e-01 2.746183574199676514e-01 3.055546879768371582e-01
8.402966707944869995e-02 -8.787515573203563690e-03 -2.668844759464263916e-01
3.275838494300842285e-01 1.437936872243881226e-01 2.474913746118545532e-01
-3.683837354183197021e-01 -1.554947346448898315e-01 -4.881546199321746826e-01
-3.755353689193725586e-01 3.804169297218322754e-01 3.051674067974090576e-01
-3.971648216247558594e-01 -1.976976990699768066e-01 -7.309067249298095703e-02
-3.560922741889953613e-01 -5.988144874572753906e-01 -4.559357464313507080e-01
-3.513994514942169189e-01 6.583991050720214844e-01 3.973905146121978760e-01
6.454971432685852051e-02 -5.740577727556228638e-02 8.270943164825439453e-02
4.246238172054290771e-01 -6.829938888549804688e-01 4.271075725555419922e-01
3.892547190189361572e-01 5.688021704554557800e-02 -3.084217607975006104e-01
-4.028794169425964355e-01 -6.152012944221496582e-02 -4.697864949703216553e-01
-4.870018362998962402e-01 4.408487677574157715e-02 3.510214015841484070e-02
4.292541146278381348e-01 -5.283710956573486328e-01 2.769144773483276367e-01
-4.287894070148468018e-02 -3.463339293375611305e-03 -4.173472523689270020e-01
-3.850600123405456543e-01 -4.327028095722198486e-01 -4.548439979553222656e-01
-1.826525926589965820e-01 5.056846141815185547e-01 4.010605812072753906e-01
3.314993083477020264e-01 -1.825549304485321045e-01 1.712344586849212646e-01
3.355715870857238770e-01 3.489119410514831543e-01 3.196806907653808594e-01
-4.176978468894958496e-01 -4.076682925224304199e-01 2.499651610851287842e-01
-3.832609057426452637e-01 -2.909201979637145996e-01 -4.542775452136993408e-01
-1.977238804101943970e-01 3.820218741893768311e-01 3.474409282207489014e-01
-3.530632853507995605e-01 3.713571652770042419e-02 -2.245932519435882568e-01
2.300539016723632812e-01 7.946825586259365082e-03 1.097679510712623596e-01
3.269408941268920898e-01 -7.136711478233337402e-01 -4.904548227787017822e-01
-2.571908198297023773e-02 -5.744039639830589294e-02 8.136037737131118774e-02
1.037774235010147095e-01 1.763104647397994995e-02 -4.214008450508117676e-01
-3.991010785102844238e-01 -2.723841369152069092e-01 -5.134420394897460938e-01
-2.772449254989624023e-01 2.594166807830333710e-02 -7.045602053403854370e-02
3.337846100330352783e-01 4.263940751552581787e-01 2.937736809253692627e-01
3.328691720962524414e-01 2.852462604641914368e-02 -4.689541459083557129e-01
2.721855938434600830e-01 3.079084157943725586e-01 3.071307837963104248e-01
3.678296208381652832e-01 -3.147152066230773926e-02 -4.525642991065979004e-01
2.311811596155166626e-01 1.214226335287094116e-02 -2.889105379581451416e-01
4.617445170879364014e-01 7.972649484872817993e-02 3.510886058211326599e-02
-3.495751619338989258e-01 5.378869175910949707e-02 -8.182058110833168030e-03
2.246724516153335571e-01 3.458661437034606934e-01 3.300293087959289551e-01
3.407216370105743408e-01 5.960283875465393066e-01 3.315428793430328369e-01
-4.080126583576202393e-01 2.192725986242294312e-02 1.270516961812973022e-02
-3.429572582244873047e-01 5.132282376289367676e-01 3.597734272480010986e-01
3.575640618801116943e-01 2.148091197013854980e-01 2.646435797214508057e-01
1.491862982511520386e-01 -2.293080557137727737e-03 -2.649575173854827881e-01
3.156339228153228760e-01 4.046899974346160889e-01 3.372229635715484619e-01
-5.274194851517677307e-02 -1.203908817842602730e-03 -1.391709446907043457e-01
-3.698338270187377930e-01 4.470203518867492676e-01 3.134939372539520264e-01
-5.528403073549270630e-02 -1.457574218511581421e-02 -1.977726966142654419e-01
3.641903400421142578e-01 3.726448863744735718e-02 1.695977151393890381e-01
-3.716739714145660400e-01 -3.336282819509506226e-02 -4.886380136013031006e-01
3.623994439840316772e-02 -6.327911466360092163e-02 -4.655164182186126709e-01
-3.719912767410278320e-01 6.591029465198516846e-02 -3.507250845432281494e-01
-4.070058166980743408e-01 -4.420949518680572510e-01 -4.986786842346191406e-01
3.641492724418640137e-01 8.399099111557006836e-02 -3.442453145980834961e-01
6.754522025585174561e-02 -5.804051179438829422e-03 -3.423109054565429688e-01
3.493775427341461182e-01 3.041301071643829346e-01 2.480055540800094604e-01
3.576629459857940674e-01 8.052153885364532471e-02 -2.918527424335479736e-01
-3.779745995998382568e-01 -1.890586167573928833e-01 -4.899051785469055176e-01
3.604782521724700928e-01 4.067142307758331299e-02 -1.983251124620437622e-01
3.735013008117675781e-01 6.173165887594223022e-02 1.815205514430999756e-01
1.148268431425094604e-01 -3.331672865897417068e-03 -7.161963731050491333e-04
1.858525276184082031e-01 -1.344131678342819214e-02 4.521355405449867249e-02
3.619255721569061279e-01 -2.060895115137100220e-01 -3.484137058258056641e-01
-4.746563136577606201e-01 -1.516579091548919678e-01 1.522644758224487305e-01
-2.130788415670394897e-01 6.274110674858093262e-01 4.111329913139343262e-01
1.608553379774093628e-01 2.409288734197616577e-01 3.150298893451690674e-01
-3.939922526478767395e-02 -7.606670260429382324e-02 -4.775456488132476807e-01
-3.740068674087524414e-01 -1.656154692173004150e-01 -1.439514756202697754e-01
2.298728823661804199e-01 -1.073296070098876953e-01 7.364342361688613892e-02
-2.167815864086151123e-01 -5.897915735840797424e-02 7.331430166959762573e-02
1.805055737495422363e-01 -1.718520373106002808e-02 1.016336902976036072e-01
3.923424780368804932e-01 3.225355446338653564e-01 3.115408420562744141e-01
-3.558151423931121826e-01 2.965650856494903564e-01 2.468008548021316528e-01
3.046358227729797363e-01 6.024689674377441406e-01 3.759029209613800049e-01
-3.887104988098144531e-01 -1.646711379289627075e-01 -2.828179895877838135e-01
-3.607486784458160400e-01 3.907480835914611816e-02 1.151960715651512146e-01
-3.666088581085205078e-01 6.030767410993576050e-02 -2.542440593242645264e-01
4.207214117050170898e-01 -4.364034160971641541e-02 9.146881103515625000e-02
-4.044695198535919189e-01 3.951681256294250488e-01 3.243632316589355469e-01
-3.675438761711120605e-01 4.291506111621856689e-01 2.788759469985961914e-01
-2.984591424465179443e-01 3.835261166095733643e-01 3.220275640487670898e-01
-3.597707450389862061e-01 -9.682718664407730103e-02 -5.237738490104675293e-01
2.652420103549957275e-01 2.391393668949604034e-02 -3.714923262596130371e-01
-2.206888422369956970e-02 2.616031095385551453e-03 -2.250327616930007935e-01
3.749504685401916504e-01 5.134011805057525635e-02 3.254988789558410645e-02
3.731186687946319580e-01 5.733770728111267090e-01 3.186057209968566895e-01
-3.763947784900665283e-01 -1.497068703174591064e-01 -4.530485868453979492e-01
3.881974220275878906e-01 1.002212390303611755e-01 -4.663105010986328125e-01
-3.830873370170593262e-01 -2.147995233535766602e-01 1.458472162485122681e-01
3.583908081054687500e-01 4.895448982715606689e-01 3.703441321849822998e-01
3.633551597595214844e-01 -6.191916465759277344e-01 -4.523132741451263428e-01
-3.723374605178833008e-01 6.163180619478225708e-02 -4.522078335285186768e-01
4.626459479331970215e-01 -2.342463284730911255e-01 1.976640224456787109e-01
3.571264147758483887e-01 -7.612915635108947754e-01 -5.126199126243591309e-01
-4.292324781417846680e-01 -2.148965448141098022e-01 1.625543087720870972e-01
-4.535391330718994141e-01 5.725346878170967102e-02 5.069645494222640991e-02
-3.766019344329833984e-01 2.422187849879264832e-02 1.645223200321197510e-01
-1.635566353797912598e-01 -2.081030048429965973e-02 1.048726513981819153e-01
3.459901809692382812e-01 7.181246578693389893e-02 -2.460229992866516113e-01
-2.282341122627258301e-01 1.165982894599437714e-02 -3.172670602798461914e-01
-3.260355591773986816e-01 5.923321247100830078e-01 3.867199718952178955e-01
9.117788635194301605e-03 -2.649639500305056572e-03 -4.424564242362976074e-01
1.566906869411468506e-01 5.621083974838256836e-01 4.017707109451293945e-01
8.902977220714092255e-03 3.090422153472900391e-01 3.643999993801116943e-01
-3.354566395282745361e-01 -6.467326283454895020e-01 -4.952362477779388428e-01
2.537428438663482666e-01 5.331677198410034180e-01 3.905999958515167236e-01
-3.586873412132263184e-01 -2.268445938825607300e-01 -5.233958959579467773e-01
-3.554698824882507324e-01 5.924525260925292969e-01 3.579342067241668701e-01
-1.123118326067924500e-01 3.841625452041625977e-01 3.614288270473480225e-01
-4.685012698173522949e-01 -2.854500710964202881e-01 2.254588007926940918e-01
5.413549765944480896e-02 -7.679870817810297012e-03 -4.948745016008615494e-03
3.758873343467712402e-01 -1.509892195463180542e-01 -4.801911115646362305e-01
3.419599235057830811e-01 -2.096774727106094360e-01 -5.493588745594024658e-02
-3.368451595306396484e-01 4.477260634303092957e-02 -1.294820755720138550e-01
3.400926887989044189e-01 1.523413509130477905e-01 2.131319046020507812e-01
4.143629372119903564e-01 -3.456782698631286621e-01 2.390902489423751831e-01
-3.352998495101928711e-01 -1.799816787242889404e-01 -4.942517876625061035e-01
-3.511185646057128906e-01 2.453541383147239685e-02 3.419961081817746162e-03
3.850023448467254639e-01 -2.070338577032089233e-01 -1.102862656116485596e-01
4.340719580650329590e-01 -5.279904007911682129e-01 3.523381054401397705e-01
-3.352858424186706543e-01 -6.078706979751586914e-01 -4.930993914604187012e-01
3.890064656734466553e-01 -2.098426371812820435e-01 1.726155132055282593e-01
-3.499997556209564209e-01 4.267029464244842529e-01 3.338897526264190674e-01
4.630565345287322998e-01 -3.108718395233154297e-01 1.637664735317230225e-01
-3.395746350288391113e-01 -3.308048248291015625e-01 -4.711899459362030029e-01
3.185304403305053711e-01 -3.501207381486892700e-02 -4.709445536136627197e-01
3.836492598056793213e-01 1.888638585805892944e-01 2.839168310165405273e-01
2.767701447010040283e-01 3.211724758148193359e-02 -4.504684507846832275e-01
-3.778840899467468262e-01 5.149874463677406311e-02 -4.898352324962615967e-01
-2.369665056467056274e-01 1.242314465343952179e-02 1.938595436513423920e-02
3.552806377410888672e-01 4.259463772177696228e-02 -2.673249244689941406e-01
-3.442151546478271484e-01 -2.490264773368835449e-01 1.278449147939682007e-01
2.694654762744903564e-01 4.696221351623535156e-01 3.512565791606903076e-01
1.392902731895446777e-01 -2.583941072225570679e-02 1.582898199558258057e-01
3.888394534587860107e-01 3.766992092132568359e-01 3.299630582332611084e-01
3.635706901550292969e-01 -2.143693268299102783e-01 1.359642297029495239e-01
-4.178546071052551270e-01 -2.829023078083992004e-02 5.037265270948410034e-02
-1.072243079543113708e-01 -1.086849123239517212e-01 8.060377836227416992e-02
-2.019678503274917603e-01 2.964813634753227234e-02 -4.288641810417175293e-01
-1.545676141977310181e-01 -3.605412319302558899e-02 -5.082359910011291504e-01
-3.478516340255737305e-01 -1.926876157522201538e-01 -2.980143129825592041e-01
9.602669626474380493e-02 5.933089647442102432e-03 -2.127170711755752563e-01
4.524578154087066650e-01 -4.154087603092193604e-01 2.140454500913619995e-01
3.182775378227233887e-01 5.174696445465087891e-02 -3.224563002586364746e-01
-2.945137917995452881e-01 -7.882555574178695679e-02 -4.897502958774566650e-01
-4.581078290939331055e-01 -4.707939326763153076e-01 2.424682527780532837e-01
4.108608365058898926e-01 -1.200303286314010620e-01 9.053836017847061157e-02
-1.143768951296806335e-01 -1.273996289819478989e-02 1.617629975080490112e-01
4.348007738590240479e-01 -3.434312641620635986e-01 1.781770884990692139e-01
-3.756510615348815918e-01 4.426031932234764099e-02 -1.538661718368530273e-01
3.709024786949157715e-01 -1.842930018901824951e-01 -4.896672368049621582e-01
-3.358513414859771729e-01 -4.440013766288757324e-01 -4.810822904109954834e-01
3.918591141700744629e-01 3.996220529079437256e-01 2.843843400478363037e-01
3.373977541923522949e-01 -4.503673315048217773e-01 -5.147773623466491699e-01
3.874331712722778320e-01 6.516188383102416992e-01 4.049434065818786621e-01
4.463027417659759521e-01 5.174417048692703247e-02 1.035428885370492935e-02
1.369107365608215332e-01 3.987821936607360840e-01 3.785698711872100830e-01
1.393443793058395386e-01 -2.468325197696685791e-03 3.145632892847061157e-02
3.837873637676239014e-01 -2.033115178346633911e-01 -2.145422995090484619e-01
-1.745267361402511597e-01 1.074254419654607773e-02 -1.493833214044570923e-01
3.690007030963897705e-01 2.204742580652236938e-01 2.230372726917266846e-01
2.980121783912181854e-02 -4.913922864943742752e-03 -7.540954649448394775e-02
-8.888746052980422974e-02 -2.126959525048732758e-02 -3.235714137554168701e-02
-2.318119816482067108e-02 5.296273827552795410e-01 4.063580930233001709e-01
-3.971732258796691895e-01 -1.868871748447418213e-01 -1.741304397583007812e-01
6.931082904338836670e-02 5.974859595298767090e-01 4.218194186687469482e-01
6.120680645108222961e-02 -1.954849064350128174e-02 1.673469543457031250e-01
1.449918001890182495e-01 -8.932965993881225586e-02 1.071075424551963806e-01
3.388142585754394531e-01 -1.871801912784576416e-01 -5.161919593811035156e-01
-3.978348076343536377e-01 -6.860955953598022461e-01 -5.147083401679992676e-01
4.001296162605285645e-01 -2.505400478839874268e-01 -4.911574721336364746e-01
-9.341351687908172607e-02 -4.117291420698165894e-03 -3.545603454113006592e-01
3.725924193859100342e-01 -1.725274920463562012e-01 -3.994335979223251343e-02
3.485488891601562500e-01 2.790340185165405273e-01 3.109259009361267090e-01
4.422350227832794189e-02 -3.183759748935699463e-02 1.282853484153747559e-01
-1.651821881532669067e-01 1.294197421520948410e-02 -2.159392237663269043e-01
-6.757481396198272705e-02 4.763837456703186035e-01 3.901604712009429932e-01
-1.120244264602661133e-01 -2.381690219044685364e-02 5.223885551095008850e-02
2.616764605045318604e-01 4.206990897655487061e-01 3.404171168804168701e-01
3.686358630657196045e-01 -1.510971784591674805e-01 -4.275512397289276123e-01
2.409969568252563477e-01 4.986882209777832031e-03 -1.115180179476737976e-01
-3.973822295665740967e-01 4.062382504343986511e-02 -2.219851315021514893e-02
-3.776237666606903076e-01 -2.091623544692993164e-01 -2.775737047195434570e-01
3.258435130119323730e-01 4.060143977403640747e-02 -6.660715490579605103e-02
-3.396035432815551758e-01 -4.902603924274444580e-01 -5.070191621780395508e-01
-2.079465240240097046e-01 -1.566790416836738586e-02 1.352559626102447510e-01
4.513286948204040527e-01 -5.723336338996887207e-01 3.772261142730712891e-01
-3.296039104461669922e-01 2.137390337884426117e-02 -5.349454656243324280e-02
-3.452826738357543945e-01 -3.656476736068725586e-01 -4.635334312915802002e-01
4.392229318618774414e-01 -4.459479153156280518e-01 3.112627565860748291e-01
-3.748308420181274414e-01 -2.044546306133270264e-01 -3.770847022533416748e-01
4.123398661613464355e-01 -1.912375092506408691e-01 1.359259784221649170e-01
3.388814628124237061e-01 -1.847568005323410034e-01 -1.341730058193206787e-01
-3.435012996196746826e-01 3.446101248264312744e-01 3.143785297870635986e-01
-6.252330541610717773e-02 2.047096639871597290e-01 3.348816931247711182e-01
-1.916901320219039917e-01 2.090732939541339874e-02 -2.970055937767028809e-01
-2.009135484695434570e-02 6.241720914840698242e-01 4.397470653057098389e-01
-3.495135903358459473e-01 -2.556583583354949951e-01 -4.597775340080261230e-01
-3.437252640724182129e-01 4.937067031860351562e-01 3.091650605201721191e-01
-4.419080447405576706e-03 2.275913953781127930e-01 3.254251778125762939e-01
-4.675438404083251953e-01 -3.820496499538421631e-01 2.761185169219970703e-01
-4.083840847015380859e-01 -2.395027577877044678e-01 -4.894330203533172607e-01
1.041124314069747925e-01 -1.142860297113656998e-02 1.337302625179290771e-01
-8.976341784000396729e-02 -2.578153973445296288e-03 -7.146643102169036865e-02
-1.655666381120681763e-01 5.725001450628042221e-03 -3.961694538593292236e-01
5.009449645876884460e-02 3.449563086032867432e-01 3.726359605789184570e-01
-4.203134477138519287e-01 -3.569105863571166992e-01 2.091389596462249756e-01
-4.548028111457824707e-02 -6.991127878427505493e-02 6.018135696649551392e-02
3.880882859230041504e-01 -5.778411030769348145e-01 -4.617567360401153564e-01
1.865494064986705780e-02 -1.584800146520137787e-02 -1.870676130056381226e-01
3.079270720481872559e-01 -6.972073018550872803e-02 -5.087679028511047363e-01
3.597140014171600342e-01 5.948273539543151855e-01 3.986745476722717285e-01
-1.326955407857894897e-01 -5.594092886894941330e-03 -2.567476928234100342e-01
4.159072935581207275e-01 -6.148964166641235352e-01 3.352390825748443604e-01
4.319369196891784668e-01 -4.166432917118072510e-01 2.934573590755462646e-01
2.695541083812713623e-01 2.464913725852966309e-01 3.092452883720397949e-01
-3.778178393840789795e-01 4.930893890559673309e-03 1.977844089269638062e-01
9.861525148153305054e-02 5.085998177528381348e-01 3.954579830169677734e-01
-4.439193010330200195e-01 -7.010549306869506836e-01 4.427294135093688965e-01
-2.754336893558502197e-01 -7.999217510223388672e-02 1.077112853527069092e-01
-3.582049310207366943e-01 5.644440650939941406e-01 3.881551623344421387e-01
-2.676531076431274414e-01 2.462506294250488281e-01 2.942906618118286133e-01
-4.468167424201965332e-01 -6.007701158523559570e-02 7.096155732870101929e-02
2.565609216690063477e-01 1.252952404320240021e-02 -1.905118674039840698e-01
5.020732525736093521e-03 -2.522101439535617828e-02 -1.331950910389423370e-02
-2.673712968826293945e-01 4.261610656976699829e-02 -4.298234581947326660e-01
3.659268915653228760e-01 5.057573914527893066e-01 3.347659707069396973e-01
3.395598530769348145e-01 5.565496087074279785e-01 3.695369660854339600e-01
-3.134707212448120117e-01 3.250186443328857422e-01 3.013200461864471436e-01
-3.762716054916381836e-01 4.650452733039855957e-02 3.557160869240760803e-02
-3.508927524089813232e-01 -5.192467570304870605e-01 -4.588779807090759277e-01
-3.728068470954895020e-01 5.193738937377929688e-01 3.499828577041625977e-01
-3.773596882820129395e-01 3.428333997726440430e-01 2.999156713485717773e-01
-3.352214694023132324e-01 6.423386335372924805e-01 3.702564239501953125e-01
-2.390352934598922729e-01 -6.908247247338294983e-03 7.376790791749954224e-02
3.632581233978271484e-01 3.629587963223457336e-02 -9.973141551017761230e-02
3.820069134235382080e-01 -1.209403388202190399e-02 2.312620580196380615e-01
3.669449687004089355e-01 5.376748442649841309e-01 3.460038900375366211e-01
2.061167806386947632e-01 -4.430550150573253632e-03 -5.784936994314193726e-02
3.880257308483123779e-01 1.197156533598899841e-01 2.053102403879165649e-01
3.892313838005065918e-01 -1.828779876232147217e-01 -2.877123653888702393e-01
3.470633327960968018e-01 9.590105153620243073e-03 2.076795250177383423e-01
-2.049828469753265381e-01 5.782752037048339844e-01 3.985373675823211670e-01
-3.357934951782226562e-01 -5.479289889335632324e-01 -4.813827574253082275e-01
3.356648981571197510e-01 4.421204030513763428e-01 3.404078185558319092e-01
-4.211308658123016357e-01 -1.171437278389930725e-01 1.174020320177078247e-01
3.575836122035980225e-01 2.480602636933326721e-02 8.549823611974716187e-02
-1.558730900287628174e-01 5.783796906471252441e-01 4.075804948806762695e-01
-1.721052229404449463e-01 -4.354594275355339050e-03 1.323398798704147339e-01
2.081491798162460327e-01 -2.751796133816242218e-02 -4.901842474937438965e-01
-4.711374044418334961e-01 8.059992641210556030e-02 -1.366899930872023106e-03
-2.431598305702209473e-01 4.249691367149353027e-01 3.662392199039459229e-01
-4.825983345508575439e-01 -7.000424861907958984e-01 3.760904669761657715e-01
-3.393263816833496094e-01 4.247053712606430054e-02 -4.014650881290435791e-01
3.658475875854492188e-01 4.331678152084350586e-01 2.798175215721130371e-01
-2.352803051471710205e-01 5.260403156280517578e-01 3.952741324901580811e-01
-2.028403282165527344e-01 -4.911755397915840149e-02 -5.144386291503906250e-01
-2.721975147724151611e-01 3.370991945266723633e-01 3.173114359378814697e-01
-3.217570483684539795e-01 4.631144106388092041e-01 3.355535566806793213e-01
1.446931958198547363e-01 6.216090987436473370e-04 -3.323943316936492920e-01
-3.144896924495697021e-01 6.677744444459676743e-03 1.654069423675537109e-01
2.799708247184753418e-01 3.606126904487609863e-01 3.367955684661865234e-01
3.442461490631103516e-01 4.300056770443916321e-02 -9.654100984334945679e-03
-1.828905493021011353e-01 -7.462283968925476074e-02 -5.031055212020874023e-01
3.764593601226806641e-01 -5.360126495361328125e-01 -4.546816051006317139e-01
-2.680571377277374268e-01 6.285896301269531250e-01 3.967401087284088135e-01
-3.662971854209899902e-01 -2.744967639446258545e-01 -5.253648161888122559e-01
2.080502510070800781e-01 -8.646977692842483521e-02 5.682323127985000610e-02
-2.085493355989456177e-01 1.248846296221017838e-02 -3.999832272529602051e-01
3.689064681529998779e-01 -1.736545711755752563e-01 1.447756891138851643e-03
-1.637199372053146362e-01 3.072197735309600830e-01 3.336471319198608398e-01
-4.176912903785705566e-01 -1.602368205785751343e-01 1.206493899226188660e-01
4.099332690238952637e-01 -5.450521111488342285e-01 3.269863128662109375e-01
-1.833468526601791382e-01 -5.835488438606262207e-02 7.554247230291366577e-02
2.953099310398101807e-01 3.212471306324005127e-02 -6.202390044927597046e-02
-3.454347848892211914e-01 2.124979533255100250e-02 3.872649371623992920e-02
3.346095085144042969e-01 3.974823057651519775e-01 3.105554282665252686e-01
3.609718978404998779e-01 -2.170530706644058228e-01 -1.376396417617797852e-01
-3.734273612499237061e-01 2.512691020965576172e-01 2.649879157543182373e-01
4.657374620437622070e-01 -2.740777730941772461e-01 2.164651155471801758e-01
-4.056265950202941895e-01 -8.588721603155136108e-02 5.676845461130142212e-02
9.418932348489761353e-02 1.373981591314077377e-02 -4.541496932506561279e-01
-3.763434588909149170e-01 -2.236177623271942139e-01 -8.284051902592182159e-03
3.707130253314971924e-01 -8.473474532365798950e-02 -4.530206024646759033e-01
4.212262630462646484e-01 -6.630982160568237305e-01 3.533076345920562744e-01
3.289919495582580566e-01 -6.071136519312858582e-02 1.982323080301284790e-01
2.422389835119247437e-01 -8.498735842294991016e-04 5.022099241614341736e-03
1.022293344140052795e-01 5.874032974243164062e-01 4.333904683589935303e-01
1.576424986124038696e-01 5.015881061553955078e-01 3.854033052921295166e-01
-1.218486279249191284e-01 1.159357186406850815e-02 -2.875024080276489258e-01
3.889430165290832520e-01 4.656425118446350098e-02 -1.950124353170394897e-01
2.907496690750122070e-01 -7.407536357641220093e-02 5.814895406365394592e-02
-3.556723594665527344e-01 1.648420467972755432e-02 6.931547820568084717e-02
4.463027417659759521e-01 -1.901998519897460938e-01 1.416051089763641357e-01
-2.471172958612442017e-01 1.528354128822684288e-03 -5.378111824393272400e-02
4.828215539455413818e-01 -4.664678573608398438e-01 2.779101431369781494e-01
1.155143976211547852e-02 3.991750478744506836e-01 3.714023232460021973e-01
-3.597950339317321777e-01 6.609319895505905151e-02 -5.867791175842285156e-02
-4.659360051155090332e-01 -3.320403099060058594e-01 1.722851693630218506e-01
3.685574531555175781e-01 3.139972388744354248e-01 2.903359532356262207e-01
2.667341530323028564e-01 5.870094895362854004e-01 3.835080862045288086e-01
1.473535895347595215e-01 -5.486929416656494141e-02 -5.146560072898864746e-01
1.870618760585784912e-01 7.449457887560129166e-03 -2.839368954300880432e-02
-3.560213446617126465e-01 1.067442353814840317e-02 2.387104481458663940e-01
9.067415446043014526e-02 4.775688350200653076e-01 3.879489302635192871e-01
3.653035759925842285e-01 -3.697703182697296143e-01 -4.524859189987182617e-01
-3.886367678642272949e-01 -1.861919760704040527e-01 1.292268931865692139e-01
-2.201791703701019287e-01 2.974525094032287598e-01 3.376223444938659668e-01
8.849553018808364868e-02 4.110792279243469238e-01 3.703105449676513672e-01
-2.525549381971359253e-02 -1.731771044433116913e-02 1.565177738666534424e-01
-1.431141346693038940e-01 4.472144842147827148e-01 3.745330274105072021e-01
-6.793986260890960693e-02 -2.695946581661701202e-02 5.270179361104965210e-02
-3.603474497795104980e-01 9.216164052486419678e-02 1.901120543479919434e-01
3.706505298614501953e-01 3.863062709569931030e-02 -4.403167068958282471e-01
3.539042174816131592e-01 -4.920221567153930664e-01 -4.537540674209594727e-01
-3.603530228137969971e-01 4.242014512419700623e-02 -2.823402285575866699e-01
2.728378474712371826e-01 1.607268489897251129e-02 1.332571655511856079e-01
-1.062538251280784607e-01 -6.569074094295501709e-02 -5.115131735801696777e-01
3.436806499958038330e-01 7.749626785516738892e-02 -4.001614451408386230e-01
4.630796983838081360e-02 4.162906669080257416e-03 -2.397009283304214478e-01
2.474534064531326294e-01 -6.735360622406005859e-02 -4.677065312862396240e-01
3.690949678421020508e-01 3.479675948619842529e-01 3.008684217929840088e-01
-3.782050907611846924e-01 2.370117790997028351e-02 -4.529300928115844727e-01
-4.327961504459381104e-01 -6.023816391825675964e-02 1.037146076560020447e-01
-2.930216789245605469e-01 5.795415043830871582e-01 3.762080371379852295e-01
-3.363001942634582520e-01 -1.188586652278900146e-01 1.599284261465072632e-01
-3.632149994373321533e-01 -8.498935401439666748e-02 -4.533584117889404297e-01
4.001977145671844482e-01 -5.729333683848381042e-02 1.885005086660385132e-01
2.439139783382415771e-01 4.516282677650451660e-01 3.711876869201660156e-01
3.358179330825805664e-01 1.902523785829544067e-01 2.774211764335632324e-01
-1.507137119770050049e-01 5.014379024505615234e-01 4.051412642002105713e-01
-3.502395749092102051e-01 2.873343825340270996e-01 2.964144945144653320e-01
-3.880386352539062500e-01 -1.587049514055252075e-01 -3.847337365150451660e-01
-4.619766771793365479e-01 -1.751744747161865234e-01 1.705075353384017944e-01
-4.222237691283226013e-02 2.928054332733154297e-01 3.593077957630157471e-01
3.825332224369049072e-01 5.518842488527297974e-02 2.489078938961029053e-01
1.844789236783981323e-01 2.938533425331115723e-01 3.423338234424591064e-01
2.891418337821960449e-01 3.400407359004020691e-02 -1.285386532545089722e-01
-4.059681296348571777e-01 -2.426288276910781860e-01 1.231184974312782288e-01
-3.895288705825805664e-01 5.337528586387634277e-01 3.113653957843780518e-01
3.961161375045776367e-01 4.844256341457366943e-01 3.139147758483886719e-01
3.606639504432678223e-01 -4.196524620056152344e-02 -5.255813598632812500e-01
2.860531210899353027e-01 2.153814211487770081e-02 9.398718923330307007e-02
4.386509358882904053e-01 -8.743656426668167114e-02 5.691402778029441833e-02
3.612089157104492188e-01 4.394665658473968506e-01 3.299042880535125732e-01
-4.056536853313446045e-01 4.782612621784210205e-01 3.154246211051940918e-01
3.616409599781036377e-01 6.414726972579956055e-01 3.695444166660308838e-01
-3.494351804256439209e-01 -7.208181619644165039e-01 -5.182103514671325684e-01
-2.829446196556091309e-01 4.824679195880889893e-01 3.531331419944763184e-01
-2.331555336713790894e-01 3.333274126052856445e-01 3.265785276889801025e-01
-7.173945754766464233e-02 5.879435539245605469e-01 4.369028210639953613e-01
-2.667806148529052734e-01 3.099187463521957397e-02 -2.104691118001937866e-01
2.966583371162414551e-01 1.156184729188680649e-02 1.042788662016391754e-02
4.285970330238342285e-02 2.237225472927093506e-01 3.232994675636291504e-01
-4.386376738548278809e-01 -1.086160540580749512e-01 8.502979576587677002e-02
-4.037772864103317261e-02 4.229685068130493164e-01 3.942625820636749268e-01
1.655985265970230103e-01 -7.721494138240814209e-02 -4.981318414211273193e-01
3.985759317874908447e-01 6.168814301490783691e-01 3.556181192398071289e-01
3.640540838241577148e-01 6.131058931350708008e-01 3.585584759712219238e-01
4.099902212619781494e-01 -1.520894914865493774e-01 1.244724988937377930e-01
-4.195556938648223877e-01 -5.745713114738464355e-01 3.243772387504577637e-01
-4.007396996021270752e-01 -5.609585046768188477e-01 -4.667257666587829590e-01
-4.902930855751037598e-01 -3.054390549659729004e-01 1.893375515937805176e-01
3.410193324089050293e-01 7.753640413284301758e-02 -4.760040938854217529e-01
3.091336190700531006e-01 3.740537762641906738e-01 3.312097191810607910e-01
4.562286436557769775e-01 -1.491003483533859253e-01 1.562490314245223999e-01
3.547506034374237061e-01 -1.690130829811096191e-01 -1.048292070627212524e-01
1.265313178300857544e-01 9.662890806794166565e-03 -2.267142981290817261e-01
3.874947726726531982e-01 -6.131635904312133789e-01 -5.169459581375122070e-01
1.527630537748336792e-01 -2.749975956976413727e-02 -4.881247282028198242e-01
-3.181999027729034424e-01 2.762600220739841461e-02 -2.294101715087890625e-01
-1.490219235420227051e-01 -1.519348658621311188e-02 -4.055438935756683350e-02
-8.511520922183990479e-02 -3.147329390048980713e-02 1.618591099977493286e-01
3.515442907810211182e-01 -9.214003384113311768e-02 1.063050329685211182e-01
-3.470435142517089844e-01 -1.864280700683593750e-01 -9.811333566904067993e-02
3.621196448802947998e-01 -1.597114354372024536e-01 -2.551268041133880615e-01
-4.684042334556579590e-01 -2.396473884582519531e-01 2.017241567373275757e-01
4.493168294429779053e-01 -6.962315440177917480e-01 4.417794942855834961e-01
-4.578446745872497559e-01 -7.338905930519104004e-01 3.790849447250366211e-01
-3.370112478733062744e-01 -1.489386260509490967e-01 -5.012877583503723145e-01
2.072281688451766968e-01 2.576157078146934509e-02 -3.092961013317108154e-01
3.449170589447021484e-01 2.214282192289829254e-02 6.545868515968322754e-02
-1.529551446437835693e-01 -7.272593211382627487e-04 1.272747293114662170e-02
3.431580662727355957e-01 4.757952317595481873e-02 -1.034957394003868103e-01
-1.424760371446609497e-02 -7.204333692789077759e-02 -5.064461827278137207e-01
-3.419662714004516602e-01 3.852984309196472168e-02 2.342135906219482422e-01
-4.400607347488403320e-01 -6.338337063789367676e-01 3.302691578865051270e-01
-3.442356884479522705e-01 -7.377295494079589844e-01 -4.647054672241210938e-01
-4.911217093467712402e-01 -4.056190848350524902e-01 2.506025135517120361e-01
3.987054899334907532e-02 5.950186848640441895e-01 4.400578141212463379e-01
3.986860215663909912e-01 -4.802710413932800293e-01 -4.786365330219268799e-01
3.449357151985168457e-01 2.422707676887512207e-01 2.650467157363891602e-01
4.785467684268951416e-01 4.964177682995796204e-02 3.305378928780555725e-02
3.509629666805267334e-01 -4.973849654197692871e-01 -5.235713720321655273e-01
-1.008490324020385742e-01 2.223853617906570435e-01 3.365865349769592285e-01
2.346795499324798584e-01 6.060867309570312500e-01 4.148637354373931885e-01
2.613731920719146729e-01 1.124924235045909882e-02 -1.459726691246032715e-01
4.471108615398406982e-01 -7.019778490066528320e-01 3.623395860195159912e-01
1.573271006345748901e-01 3.062577247619628906e-01 3.331180214881896973e-01
-8.146473020315170288e-02 3.407636582851409912e-01 3.698803782463073730e-01
-3.561893105506896973e-01 -2.108560353517532349e-01 -1.592429876327514648e-01
-4.050863087177276611e-01 6.346018910408020020e-01 3.871464133262634277e-01
-4.379592835903167725e-01 -5.622164011001586914e-01 2.940582931041717529e-01
-3.717243671417236328e-01 6.252965927124023438e-01 3.606785833835601807e-01
2.779207229614257812e-01 -9.503630548715591431e-02 1.049734279513359070e-01
3.862303793430328369e-01 -2.178266346454620361e-01 1.343788057565689087e-01
7.801785320043563843e-02 -7.101596333086490631e-03 1.077211461961269379e-02
3.791944086551666260e-01 1.666896604001522064e-02 6.068497523665428162e-02
-1.065982412546873093e-02 -2.207490429282188416e-02 -7.426569610834121704e-02
-2.651644051074981689e-01 7.363608572632074356e-03 -8.986169099807739258e-02
4.402102231979370117e-01 -2.083896994590759277e-01 1.881543099880218506e-01
3.467814922332763672e-01 2.492266893386840820e-02 1.922526769340038300e-02
-3.981810212135314941e-01 -1.921361237764358521e-01 1.578549742698669434e-01
3.783406019210815430e-01 9.143191576004028320e-02 -5.225691795349121094e-01
-4.874898791313171387e-01 -1.823118478059768677e-01 1.515300869941711426e-01
3.646335601806640625e-01 -1.556781828403472900e-01 1.218634247779846191e-01
-3.814757764339447021e-01 -1.508446633815765381e-01 -5.243467688560485840e-01
-3.541848957538604736e-01 -1.795454323291778564e-01 -7.644564844667911530e-03
2.191295325756072998e-01 8.350884541869163513e-03 -2.575193941593170166e-01
-3.698935508728027344e-01 -6.936194002628326416e-02 1.449765712022781372e-01
4.453070759773254395e-01 -6.216729283332824707e-01 3.205392062664031982e-01
3.337491452693939209e-01 5.213773846626281738e-01 3.192729055881500244e-01
-4.452369213104248047e-01 -2.218242734670639038e-01 1.363011002540588379e-01
-6.526209414005279541e-02 -6.748214829713106155e-03 -3.359487056732177734e-01
3.536046743392944336e-01 3.192595764994621277e-02 -5.243020057678222656e-01
-3.425261378288269043e-01 -2.054558843374252319e-01 1.695333272218704224e-01
-4.189165234565734863e-01 -2.915650010108947754e-01 1.797727644443511963e-01
-1.045545712113380432e-01 -5.261863395571708679e-02 -4.633710980415344238e-01
-2.172621488571166992e-01 5.613956134766340256e-03 -2.391783744096755981e-01
-1.425701230764389038e-01 -1.388036087155342102e-02 -8.014228940010070801e-02
4.700747132301330566e-01 -1.405872255563735962e-01 8.059146255254745483e-02
-7.654815912246704102e-02 -6.566040962934494019e-02 -4.666101038455963135e-01
2.160380035638809204e-01 -7.960001006722450256e-03 4.321857541799545288e-02
-3.002517223358154297e-01 3.024722076952457428e-02 -4.204117506742477417e-02
3.996154665946960449e-01 3.312800824642181396e-01 2.830172777175903320e-01
4.801965653896331787e-01 -2.577439546585083008e-01 1.885882169008255005e-01
-3.785876929759979248e-01 7.584179937839508057e-02 -5.251343250274658203e-01
-3.620476424694061279e-01 4.833164438605308533e-02 -3.822095394134521484e-01
-1.132552474737167358e-01 -2.692842390388250351e-03 -3.100090287625789642e-02
-2.027563601732254028e-01 -8.706052787601947784e-03 -1.523414440453052521e-02
-4.311743676662445068e-01 -5.156242847442626953e-01 2.748858332633972168e-01
1.183633040636777878e-02 -1.037765517830848694e-01 9.742052108049392700e-02
-3.756034672260284424e-01 -7.073468714952468872e-02 -5.254917740821838379e-01
-1.898919641971588135e-01 2.525428533554077148e-01 3.318079113960266113e-01
-8.481268584728240967e-02 2.410271903499960899e-03 -1.722062826156616211e-01
4.718821942806243896e-01 -3.099704384803771973e-01 2.296299636363983154e-01
1.678763478994369507e-01 1.793058775365352631e-02 -2.827209830284118652e-01
-2.185237705707550049e-01 -9.165722131729125977e-02 1.064813956618309021e-01
-2.150655239820480347e-01 4.768288731575012207e-01 3.692943751811981201e-01
-1.335316449403762817e-01 3.902215063571929932e-01 3.777067065238952637e-01
-1.727677434682846069e-01 2.189989686012268066e-01 3.258525133132934570e-01
