2.875330448150634766e-01 6.239461898803710938e-01 -2.930628955364227295e-01
-2.401350289583206177e-01 -8.309679627418518066e-01 -4.035300314426422119e-01
-2.638828456401824951e-01 4.759783148765563965e-01 1.336224377155303955e-01
6.701980531215667725e-02 -5.353639721870422363e-01 -5.818371847271919250e-02
1.377734988927841187e-01 -8.427819609642028809e-01 4.963866993784904480e-02
-8.081891387701034546e-02 -8.427819609642028809e-01 -3.522734045982360840e-01
-1.348611619323492050e-02 -8.427819609642028809e-01 1.279441565275192261e-01
-3.127303421497344971e-01 -8.427819609642028809e-01 1.838451251387596130e-02
2.655935585498809814e-01 -4.128786027431488037e-01 -1.007341407239437103e-02
4.310144782066345215e-01 -4.020188152790069580e-01 -1.391928642988204956e-01
2.173223346471786499e-01 -8.427819609642028809e-01 -1.418778598308563232e-01
-1.742173731327056885e-01 4.981622099876403809e-01 2.804005146026611328e-01
2.237231582403182983e-01 -7.987822294235229492e-01 5.194915458559989929e-02
4.827512055635452271e-02 5.370570421218872070e-01 9.400410950183868408e-02
-3.108640909194946289e-01 -8.065800070762634277e-01 -1.509273797273635864e-01
-1.410666257143020630e-01 5.326677560806274414e-01 8.024528622627258301e-02
7.100608199834823608e-02 -7.804013788700103760e-02 1.004715566523373127e-03
-2.501593530178070068e-01 -8.095625042915344238e-01 2.408646196126937866e-01
-2.460763901472091675e-01 5.516591668128967285e-01 -3.067598342895507812e-01
-2.791063860058784485e-02 6.206289529800415039e-01 2.266650199890136719e-01
2.237015515565872192e-01 -8.427819609642028809e-01 -5.347480252385139465e-02
3.281625509262084961e-01 -8.059625029563903809e-01 -6.502758711576461792e-02
-1.931999437510967255e-02 6.888036131858825684e-01 3.061176240444183350e-01
-1.337213963270187378e-01 6.879249215126037598e-01 -3.476416766643524170e-01
1.073804050683975220e-01 -4.173218905925750732e-01 -4.321648478507995605e-01
1.141827479004859924e-01 -8.427819609642028809e-01 2.937538623809814453e-01
-2.591637372970581055e-01 6.879249215126037598e-01 6.221716850996017456e-02
-1.317815184593200684e-01 6.160070300102233887e-01 3.976434767246246338e-01
2.526770234107971191e-01 5.087805390357971191e-01 -2.513436973094940186e-01
-1.089358851313591003e-01 -8.427819609642028809e-01 2.219468802213668823e-01
1.252918839454650879e-01 -4.125035703182220459e-01 1.008103787899017334e-01
-1.216049864888191223e-02 -8.105776309967041016e-01 -3.974620103836059570e-01
-2.367853969335556030e-01 6.879249215126037598e-01 -2.832142710685729980e-01
2.875330448150634766e-01 5.108224749565124512e-01 -7.902133464813232422e-02
-2.481596171855926514e-01 5.943365693092346191e-01 1.972025930881500244e-01
5.501600727438926697e-02 -8.427819609642028809e-01 -3.024599254131317139e-01
-1.026253849267959595e-01 4.108617603778839111e-01 1.810042113065719604e-01
-4.966517537832260132e-02 -2.442896366119384766e-01 2.955904603004455566e-02
1.967857033014297485e-01 8.419343829154968262e-01 3.413496613502502441e-01
-1.974684596061706543e-01 6.205307841300964355e-01 3.693827092647552490e-01
-4.305633157491683960e-02 8.950778841972351074e-01 4.094398319721221924e-01
3.988199681043624878e-02 7.648851722478866577e-02 -8.716039359569549561e-02
5.669995024800300598e-02 -8.427819609642028809e-01 -7.791169732809066772e-02
4.844848811626434326e-02 -5.449945926666259766e-01 3.303188830614089966e-02
1.389545053243637085e-01 6.879249215126037598e-01 -2.755440771579742432e-01
-1.845814138650894165e-01 5.978304743766784668e-01 -2.302572876214981079e-01
-6.880018860101699829e-02 2.645244896411895752e-01 -1.656925072893500328e-03
1.440623998641967773e-01 5.486914515495300293e-01 -1.521977186203002930e-01
3.894700407981872559e-01 -8.367689251899719238e-01 2.017842829227447510e-01
-4.021916091442108154e-01 -3.882423341274261475e-01 -2.603990733623504639e-01
-2.500239014625549316e-01 5.277484059333801270e-01 6.158543005585670471e-02
-1.406326983124017715e-02 -1.613705605268478394e-01 -9.590016305446624756e-02
1.175598800182342529e-02 6.879249215126037598e-01 -2.990896701812744141e-01
-2.545496523380279541e-01 6.879249215126037598e-01 -3.434281051158905029e-01
2.018032968044281006e-01 6.879249215126037598e-01 -1.540305912494659424e-01
-7.166573405265808105e-02 -6.614012122154235840e-01 -3.039784170687198639e-02
2.492204010486602783e-01 -8.060724735260009766e-01 1.954894959926605225e-01
2.875330448150634766e-01 6.856041550636291504e-01 -2.316238582134246826e-01
1.286012679338455200e-01 6.352595686912536621e-01 9.677845239639282227e-02
2.363343387842178345e-01 6.879249215126037598e-01 -3.756346181035041809e-02
1.743985563516616821e-01 4.299051463603973389e-01 -1.922450661659240723e-01
-2.060437947511672974e-01 6.352595686912536621e-01 -2.726061642169952393e-02
-2.650187015533447266e-01 -3.891818523406982422e-01 -3.820588290691375732e-01
-2.303521707653999329e-02 6.480484604835510254e-01 4.342037439346313477e-01
-2.833307385444641113e-01 5.222104787826538086e-01 3.166621178388595581e-02
1.018650978803634644e-01 -7.972792387008666992e-01 -1.988863945007324219e-01
8.064755797386169434e-02 6.879249215126037598e-01 2.731259465217590332e-01
4.126337468624114990e-01 -8.169096708297729492e-01 -1.021875962615013123e-01
-3.350772336125373840e-02 -4.329714477062225342e-01 -8.882980793714523315e-02
-1.175337955355644226e-01 4.176297187805175781e-01 -2.125774919986724854e-01
1.819038093090057373e-01 -8.427819609642028809e-01 -3.885303437709808350e-01
-8.291438966989517212e-02 -4.148125648498535156e-01 -4.255215823650360107e-01
-2.226211279630661011e-01 6.905550360679626465e-01 2.252552658319473267e-01
1.041986513882875443e-02 -8.029790520668029785e-01 -6.127386819571256638e-03
-1.177046149969100952e-01 7.709481120109558105e-01 4.364224374294281006e-01
-1.305671334266662598e-01 5.666402578353881836e-01 -1.865206509828567505e-01
-9.707856178283691406e-02 5.190454125404357910e-01 -1.741538010537624359e-02
-3.317864984273910522e-02 -5.245777964591979980e-01 4.141096770763397217e-02
1.506801843643188477e-01 -7.969856858253479004e-01 9.102753549814224243e-02
1.998005807399749756e-01 7.467800974845886230e-01 4.012208878993988037e-01
1.068139523267745972e-01 3.768450915813446045e-01 -6.257515400648117065e-02
-9.904995560646057129e-02 3.792228698730468750e-01 5.987085774540901184e-02
3.247628509998321533e-01 -8.427819609642028809e-01 -8.751920424401760101e-03
1.400766074657440186e-01 6.846175193786621094e-01 -4.419212043285369873e-01
-1.951574906706809998e-02 -3.369130492210388184e-01 -1.140901669859886169e-01
2.905626296997070312e-01 -4.128775894641876221e-01 -3.747479319572448730e-01
2.540730498731136322e-02 -8.427819609642028809e-01 1.684705764055252075e-01
2.516207098960876465e-01 6.879249215126037598e-01 8.632116019725799561e-02
7.883353531360626221e-02 -8.427819609642028809e-01 -3.964685201644897461e-01
-8.135973475873470306e-03 3.490084111690521240e-01 -9.668062627315521240e-02
-2.839295864105224609e-01 5.389164090156555176e-01 2.150964140892028809e-01
-1.180109083652496338e-01 6.879249215126037598e-01 2.309148907661437988e-01
1.248884126543998718e-01 3.809762001037597656e-01 1.864034868776798248e-02
-3.252894803881645203e-02 -8.427819609642028809e-01 -2.254861295223236084e-01
-7.997227460145950317e-02 4.817891120910644531e-01 3.094044625759124756e-01
-7.238111644983291626e-02 8.162217214703559875e-03 -2.258837223052978516e-02
2.875330448150634766e-01 6.556783914566040039e-01 2.910462915897369385e-01
-1.761287897825241089e-01 -8.116074204444885254e-01 -3.625952303409576416e-01
-6.606826186180114746e-02 -8.427819609642028809e-01 -4.321550428867340088e-01
1.411044746637344360e-01 5.790609717369079590e-01 1.769781708717346191e-01
1.113907396793365479e-01 -7.964300513267517090e-01 -2.490403421688824892e-04
-8.453619480133056641e-02 7.758380770683288574e-01 3.778480887413024902e-01
-4.150845408439636230e-01 -8.427819609642028809e-01 5.157689098268747330e-03
7.526282221078872681e-02 -4.233378767967224121e-01 -1.934939995408058167e-02
2.355813682079315186e-01 -8.427819609642028809e-01 3.483247756958007812e-01
4.029922932386398315e-02 6.879249215126037598e-01 -3.875299692153930664e-01
-1.659493297338485718e-01 5.708498954772949219e-01 1.645652949810028076e-01
1.211843825876712799e-02 2.596296072006225586e-01 -9.659159183502197266e-02
-2.591381967067718506e-01 -8.427819609642028809e-01 -1.361112445592880249e-01
-1.839138418436050415e-01 -8.427819609642028809e-01 2.811552584171295166e-02
-1.179401762783527374e-03 -8.029790520668029785e-01 -9.327052533626556396e-02
-2.711554467678070068e-01 -8.022918701171875000e-01 7.700757682323455811e-02
-1.318816542625427246e-01 -8.427819609642028809e-01 3.964202404022216797e-01
7.366183400154113770e-02 3.797068297863006592e-01 -1.234833747148513794e-01
1.978577524423599243e-01 4.134014248847961426e-01 -9.215391427278518677e-02
-2.486612647771835327e-01 6.491381525993347168e-01 3.394372463226318359e-01
5.404282733798027039e-02 2.623067796230316162e-01 2.873921394348144531e-02
-7.100866734981536865e-02 6.879249215126037598e-01 1.265766173601150513e-01
-4.576254263520240784e-02 1.232918575406074524e-01 3.255368769168853760e-02
-3.826563656330108643e-01 -3.885181546211242676e-01 -9.357662498950958252e-02
6.743585318326950073e-02 9.485818445682525635e-02 -5.717922747135162354e-02
-2.554380893707275391e-01 4.456833899021148682e-01 3.774345293641090393e-02
6.656506657600402832e-02 6.879249215126037598e-01 1.340357512235641479e-01
-2.196249216794967651e-01 6.879249215126037598e-01 -5.924348905682563782e-02
2.300817668437957764e-01 6.352595686912536621e-01 -6.843220442533493042e-02
-2.869994342327117920e-01 6.644215583801269531e-01 -1.101724207401275635e-01
-1.282708626240491867e-02 6.352595686912536621e-01 -7.798228412866592407e-02
-4.089732840657234192e-02 5.255787968635559082e-01 5.155243724584579468e-02
1.844523549079895020e-01 5.455862879753112793e-01 -3.564496636390686035e-01
-1.827161461114883423e-01 5.346655845642089844e-01 -1.155238822102546692e-01
-1.146318316459655762e-01 -8.058015108108520508e-01 2.835567295551300049e-01
-5.552771687507629395e-02 3.505241870880126953e-01 2.253051288425922394e-02
4.207859560847282410e-02 4.614871144294738770e-01 2.932963967323303223e-01
1.455104351043701172e-01 5.582995414733886719e-01 3.558339476585388184e-01
2.494992017745971680e-01 5.800309181213378906e-01 1.783682852983474731e-01
7.526046782732009888e-02 -2.855837345123291016e-01 -1.933156140148639679e-02
-8.720549196004867554e-02 5.874752998352050781e-01 -2.172946631908416748e-01
-2.075556367635726929e-01 9.097290635108947754e-01 3.329264819622039795e-01
-2.453901767730712891e-01 -8.003441095352172852e-01 -1.171877905726432800e-01
4.524052143096923828e-02 5.947537422180175781e-01 -2.265139967203140259e-01
-1.616690307855606079e-01 6.352595686912536621e-01 1.633872240781784058e-01
6.480346620082855225e-02 5.997418761253356934e-01 4.112491607666015625e-01
-2.378967106342315674e-01 5.228112936019897461e-01 -6.464727222919464111e-02
-5.374510958790779114e-02 1.240659505128860474e-01 -7.240846753120422363e-02
7.117316871881484985e-02 6.879249215126037598e-01 1.481075305491685867e-02
9.906454011797904968e-03 -7.572643160820007324e-01 4.932697489857673645e-02
-2.869984507560729980e-01 8.319355845451354980e-01 2.924707531929016113e-01
-1.526558399200439453e-01 4.064685404300689697e-01 1.205066367983818054e-01
7.453546673059463501e-02 -1.396480351686477661e-01 -3.372773155570030212e-02
-2.484217286109924316e-01 6.352595686912536621e-01 3.676448762416839600e-02
-2.411363832652568817e-02 5.691171288490295410e-01 -1.906448602676391602e-01
6.972631067037582397e-02 8.444613218307495117e-01 4.314873516559600830e-01
-1.856338083744049072e-01 -8.427819609642028809e-01 -1.020451486110687256e-01
-9.597324579954147339e-02 6.879249215126037598e-01 -4.387109577655792236e-01
-8.148029446601867676e-02 6.352595686912536621e-01 4.615690186619758606e-02
-4.359961673617362976e-02 4.156240522861480713e-01 -2.434408217668533325e-01
-4.900762066245079041e-02 -8.427819609642028809e-01 1.966173015534877777e-02
-3.267856240272521973e-01 -8.117684721946716309e-01 1.754457056522369385e-01
2.708889245986938477e-01 6.923495531082153320e-01 2.050603032112121582e-01
-2.200117111206054688e-01 -4.112253785133361816e-01 2.278910018503665924e-02
1.327038854360580444e-01 6.352595686912536621e-01 1.175995729863643646e-02
-1.440991759300231934e-01 6.352595686912536621e-01 -1.877909898757934570e-01
-3.529013693332672119e-01 -8.427819609642028809e-01 1.656569689512252808e-01
-1.897128671407699585e-01 5.991155505180358887e-01 -3.931650221347808838e-01
1.563221216201782227e-01 -8.427819609642028809e-01 -2.649915516376495361e-01
4.885757341980934143e-02 -6.036937236785888672e-01 -8.027303218841552734e-02
9.390628337860107422e-02 -3.565631806850433350e-01 -9.192782640457153320e-02
2.514548003673553467e-01 4.480454325675964355e-01 8.396209031343460083e-02
2.606417238712310791e-01 5.226316452026367188e-01 3.473713621497154236e-02
6.517641991376876831e-02 7.377423644065856934e-01 3.621906042098999023e-01
1.837474852800369263e-01 6.879249215126037598e-01 -3.645518124103546143e-01
3.215604424476623535e-01 -8.077630400657653809e-01 -1.571328341960906982e-01
1.264689955860376358e-02 -8.427819609642028809e-01 3.176273703575134277e-01
1.062121540307998657e-01 -8.427819609642028809e-01 1.285155117511749268e-01
1.108694374561309814e-01 5.274047851562500000e-01 -3.775713741779327393e-01
-9.748175740242004395e-02 -3.227340579032897949e-01 -2.223580516874790192e-02
6.693723797798156738e-02 2.075444161891937256e-01 -5.838301405310630798e-02
2.935146540403366089e-02 -4.172727763652801514e-01 1.018981263041496277e-01
1.389230936765670776e-01 8.983273506164550781e-01 3.644082844257354736e-01
-3.378702402114868164e-01 -8.427819609642028809e-01 -2.123526781797409058e-01
-3.683339338749647141e-03 3.931063413619995117e-01 1.649049669504165649e-01
2.654178142547607422e-01 -8.427819609642028809e-01 -3.151172399520874023e-01
5.454006791114807129e-02 -2.857259660959243774e-02 -7.568506151437759399e-02
3.836984634399414062e-01 -8.427819609642028809e-01 -2.485968023538589478e-01
-1.957445591688156128e-01 -8.427819609642028809e-01 1.329185366630554199e-01
-4.252914711833000183e-02 -8.427819609642028809e-01 -8.126623928546905518e-02
2.132285535335540771e-01 6.352595686912536621e-01 7.298438996076583862e-02
-2.262093126773834229e-01 6.879249215126037598e-01 1.563924700021743774e-01
7.068800181150436401e-02 -1.741250753402709961e-01 1.772715593688189983e-03
-1.010202690958976746e-01 -7.966902256011962891e-01 -1.691854298114776611e-01
2.875330448150634766e-01 8.295146226882934570e-01 2.903983294963836670e-01
-1.194069236516952515e-01 -8.427819609642028809e-01 -2.144623994827270508e-01
1.665575355291366577e-01 6.352595686912536621e-01 -4.489279165863990784e-02
2.053276747465133667e-01 6.321730017662048340e-01 3.713176846504211426e-01
4.087932407855987549e-01 -8.161400556564331055e-01 4.258019477128982544e-02
-9.687269479036331177e-02 -7.963455915451049805e-01 9.211527556180953979e-02
-2.277280390262603760e-01 6.352595686912536621e-01 -1.183775439858436584e-01
1.384332180023193359e-01 4.506322443485260010e-01 2.439109236001968384e-01
-7.088428735733032227e-02 -7.524125277996063232e-02 -3.633228689432144165e-02
-6.985671818256378174e-02 6.879249215126037598e-01 -3.258615732192993164e-02
-1.481065601110458374e-01 7.959142327308654785e-01 4.194582998752593994e-01
-4.616023600101470947e-02 2.034251093864440918e-01 -7.980346679687500000e-02
-4.925972968339920044e-02 5.237615704536437988e-01 -7.053160667419433594e-02
-2.412551641464233398e-02 6.249220371246337891e-01 -4.545824527740478516e-01
4.270021989941596985e-02 -4.339041411876678467e-01 -1.241499632596969604e-01
2.661884576082229614e-02 -7.963622808456420898e-01 -1.765316426753997803e-01
2.671868801116943359e-01 4.491341412067413330e-01 -4.354381188750267029e-02
5.110070854425430298e-02 -4.175662994384765625e-01 3.099677525460720062e-02
-1.589427888393402100e-01 -7.987802624702453613e-01 -1.988490968942642212e-01
1.596089303493499756e-01 -8.017470240592956543e-01 2.091737091541290283e-01
-3.568282425403594971e-01 -8.427819609642028809e-01 -5.361862108111381531e-02
1.576003283262252808e-01 -7.964860200881958008e-01 -8.346921205520629883e-02
-2.980270981788635254e-01 -8.132675290107727051e-01 -2.803446948528289795e-01
-2.436486035585403442e-01 5.191121697425842285e-01 -2.204073034226894379e-02
-2.147712744772434235e-02 2.127386927604675293e-01 4.625801742076873779e-02
4.277414456009864807e-02 5.239186882972717285e-01 -7.150645554065704346e-02
4.503524303436279297e-02 3.328315913677215576e-01 3.565111383795738220e-02
1.755540370941162109e-01 5.190689563751220703e-01 -1.905583590269088745e-02
8.996389806270599365e-02 -8.054559230804443359e-01 -3.394894599914550781e-01
-5.569176748394966125e-02 -4.170224666595458984e-01 1.023546159267425537e-01
-1.779803186655044556e-01 3.998360335826873779e-01 -4.608263820409774780e-02
6.246952712535858154e-02 -3.286302685737609863e-01 5.725525319576263428e-02
5.836554244160652161e-02 6.879249215126037598e-01 -3.097099065780639648e-01
2.064988613128662109e-01 -8.102948665618896484e-01 -3.316651284694671631e-01
8.729743957519531250e-02 6.435315608978271484e-01 2.152054011821746826e-01
-4.075390398502349854e-01 -8.427819609642028809e-01 1.326888203620910645e-01
-3.079532980918884277e-01 -8.043259978294372559e-01 -8.012910932302474976e-02
-6.425089389085769653e-02 -8.427819609642028809e-01 1.841447353363037109e-01
1.911123394966125488e-01 5.560121536254882812e-01 1.385958343744277954e-01
-8.840319514274597168e-02 5.388908982276916504e-01 -3.941506743431091309e-01
5.694253742694854736e-02 6.352595686912536621e-01 -1.208883896470069885e-01
9.618702530860900879e-02 8.153582215309143066e-01 3.867424726486206055e-01
-1.393632730469107628e-03 3.695283830165863037e-01 7.349380105733871460e-02
-1.361010968685150146e-01 6.879249215126037598e-01 1.019216775894165039e-01
-1.241181977093219757e-02 -7.975668907165527344e-01 1.830746680498123169e-01
-1.118908673524856567e-01 -3.709954619407653809e-01 -5.664163455367088318e-02
7.384855300188064575e-02 -3.475293815135955811e-01 -8.610258810222148895e-03
-1.286880951374769211e-02 8.360410928726196289e-01 4.420555531978607178e-01
-2.344812899827957153e-01 8.149272799491882324e-01 3.091482222080230713e-01
5.725747346878051758e-02 -6.780403852462768555e-01 2.458888851106166840e-02
-1.323852688074111938e-02 -3.933168053627014160e-01 4.845274984836578369e-02
1.561542600393295288e-01 3.913804888725280762e-01 -4.539788886904716492e-02
3.220346271991729736e-01 -8.109359741210937500e-01 1.716150343418121338e-01
-9.409677982330322266e-02 4.407541453838348389e-01 -2.725684940814971924e-01
-1.366744004189968109e-02 -3.098097145557403564e-01 4.979967325925827026e-02
-2.652209103107452393e-01 -8.427819609642028809e-01 2.767622470855712891e-01
2.049929052591323853e-01 6.352595686912536621e-01 1.177666559815406799e-01
2.073843777179718018e-01 5.431368947029113770e-01 -1.392125040292739868e-01
-1.552034169435501099e-01 7.540478110313415527e-01 3.371655642986297607e-01
1.203548312187194824e-01 3.878089487552642822e-01 7.998513430356979370e-02
9.106243401765823364e-02 -4.348387420177459717e-01 -8.465376496315002441e-02
2.608115673065185547e-01 6.879249215126037598e-01 -1.097011938691139221e-01
-2.466134130954742432e-01 4.805285632610321045e-01 1.745886653661727905e-01
2.044126987457275391e-01 6.623197197914123535e-01 2.475550621747970581e-01
1.652459613978862762e-02 -2.053369283676147461e-01 4.845540598034858704e-02
2.661865055561065674e-01 -8.427819609642028809e-01 -2.298233658075332642e-01
1.237790659070014954e-01 6.962460279464721680e-01 2.968050539493560791e-01
-2.485483884811401367e-01 -8.427819609642028809e-01 5.690634995698928833e-02
4.347470030188560486e-02 -4.676232933998107910e-01 3.663666918873786926e-02
2.933546341955661774e-02 -8.427819609642028809e-01 -2.217978090047836304e-01
-2.485287189483642578e-01 6.269895434379577637e-01 -2.374807894229888916e-01
2.450559437274932861e-01 5.032877922058105469e-01 2.233988493680953979e-01
-2.853540778160095215e-01 5.372818708419799805e-01 -1.234460696578025818e-01
-4.376729018986225128e-03 -4.517989158630371094e-01 -1.237209439277648926e-01
-1.835309565067291260e-01 -8.025588989257812500e-01 -2.525835931301116943e-01
2.097532600164413452e-01 5.775294899940490723e-01 -2.035201191902160645e-01
1.391017585992813110e-01 6.346175670623779297e-01 -2.264423221349716187e-01
-1.460969746112823486e-01 6.879249215126037598e-01 -9.800418466329574585e-02
5.814671143889427185e-02 5.338870882987976074e-01 3.667703270912170410e-01
-1.927807480096817017e-01 -8.427819609642028809e-01 -1.828087717294692993e-01
-2.006688714027404785e-01 6.879249215126037598e-01 4.278950858861207962e-03
9.210414439439773560e-02 6.879249215126037598e-01 -1.304643899202346802e-01
-1.672412753105163574e-01 8.762327432632446289e-01 3.824582099914550781e-01
-3.920661285519599915e-02 6.879249215126037598e-01 -4.375878870487213135e-01
2.796105444431304932e-01 -8.427819609642028809e-01 2.351608276367187500e-01
-1.156312152743339539e-01 -8.427819609642028809e-01 6.158532947301864624e-02
1.485380530357360840e-01 6.879249215126037598e-01 -1.639900542795658112e-02
2.851042747497558594e-01 6.696119308471679688e-01 -3.493469059467315674e-01
-4.331983029842376709e-01 -8.201641440391540527e-01 -9.537287801504135132e-02
2.522009015083312988e-01 8.576831817626953125e-01 3.383151590824127197e-01
-2.648518085479736328e-01 7.395850419998168945e-01 3.474706709384918213e-01
-6.989117711782455444e-02 -5.124918222427368164e-01 -4.290293902158737183e-03
1.380120515823364258e-01 -8.427819609642028809e-01 -1.474766433238983154e-01
-5.933423992246389389e-03 -2.343300729990005493e-01 -9.697062522172927856e-02
-9.259670041501522064e-03 -8.004394173622131348e-01 -2.894305288791656494e-01
-1.674062013626098633e-01 -8.427819609642028809e-01 2.797338962554931641e-01
3.141808882355690002e-02 5.096366405487060547e-01 -3.779689669609069824e-01
-1.125005111098289490e-01 -8.119392395019531250e-01 -3.919241130352020264e-01
-2.451781183481216431e-01 4.430984854698181152e-01 -9.735134243965148926e-02
-2.270202189683914185e-01 -8.026512265205383301e-01 1.621129512786865234e-01
7.805483043193817139e-02 -8.427819609642028809e-01 -2.996061369776725769e-02
-2.282758355140686035e-01 5.037609934806823730e-01 -2.713658511638641357e-01
2.532140314579010010e-01 -8.042995333671569824e-01 -2.088960260152816772e-01
-8.320675045251846313e-02 6.879249215126037598e-01 -1.796918064355850220e-01
2.872709035873413086e-01 5.632435083389282227e-01 -2.711891829967498779e-01
1.504553705453872681e-01 7.926294207572937012e-01 3.569364547729492188e-01
5.024523660540580750e-02 6.238235235214233398e-01 -4.508794248104095459e-01
4.596836864948272705e-02 -2.487906813621520996e-02 3.493504971265792847e-02
1.127121318131685257e-02 4.580687582492828369e-01 -3.227098584175109863e-01
-2.641145586967468262e-01 7.043353915214538574e-01 2.277360856533050537e-01
-4.561243578791618347e-02 -3.462678492069244385e-01 3.266894072294235229e-02
-1.564050279557704926e-02 6.352595686912536621e-01 1.034747734665870667e-01
-7.665336877107620239e-02 6.352595686912536621e-01 -1.345709264278411865e-01
-1.664774864912033081e-01 7.035176157951354980e-01 2.858490645885467529e-01
1.631352752447128296e-01 -7.970063090324401855e-01 -1.251738965511322021e-01
-2.609347403049468994e-01 5.617454051971435547e-01 2.737925350666046143e-01
2.875330448150634766e-01 4.809134304523468018e-01 7.299596816301345825e-02
1.119728982448577881e-01 4.239441454410552979e-01 -2.331042885780334473e-01
9.434738196432590485e-03 6.879249215126037598e-01 1.595761924982070923e-01
-1.159699186682701111e-01 6.352595686912536621e-01 -2.406137250363826752e-02
-8.431491255760192871e-02 -8.081479072570800781e-01 3.185060024261474609e-01
-2.470502629876136780e-02 -8.177176713943481445e-01 3.999053835868835449e-01
3.653638660907745361e-01 -8.427819609642028809e-01 1.434258967638015747e-01
3.031139448285102844e-02 -8.052027225494384766e-01 2.973008155822753906e-01
3.079685270786285400e-01 -8.427819609642028809e-01 7.770165055990219116e-02
1.084337905049324036e-01 -8.025392889976501465e-01 2.477759569883346558e-01
2.225745469331741333e-02 6.879249215126037598e-01 -2.535161972045898438e-01
-1.052259653806686401e-01 -7.964143157005310059e-01 2.012804709374904633e-02
3.310124874114990234e-01 -8.427819609642028809e-01 -2.378931194543838501e-01
-2.403971403837203979e-01 -8.142119050025939941e-01 -3.431561589241027832e-01
-3.547813594341278076e-01 -8.427819609642028809e-01 -1.306528896093368530e-01
-9.032560139894485474e-02 -8.035180568695068359e-01 -3.157789111137390137e-01
1.925348639488220215e-01 6.879249215126037598e-01 -2.609507739543914795e-01
-2.869994342327117920e-01 6.090584397315979004e-01 -2.721777558326721191e-01
3.072744607925415039e-01 -4.166797995567321777e-01 -3.696215897798538208e-02
-8.444724977016448975e-02 -4.603870213031768799e-01 1.860441640019416809e-02
-1.283857375383377075e-01 3.932221829891204834e-01 -1.214689835906028748e-01
3.779024183750152588e-01 -8.111371994018554688e-01 -9.608078747987747192e-03
-1.540911346673965454e-01 6.879249215126037598e-01 -4.154736399650573730e-01
2.445827573537826538e-01 5.538650751113891602e-01 2.839268445968627930e-01
-2.784761190414428711e-01 -8.427819609642028809e-01 -2.435282021760940552e-01
-2.471759170293807983e-02 6.121194362640380859e-01 -2.407842874526977539e-01
-1.560152918100357056e-01 3.923229277133941650e-01 1.361442916095256805e-02
-5.824208259582519531e-02 -7.211605310440063477e-01 -6.654798239469528198e-02
-7.954865694046020508e-02 -8.427819609642028809e-01 -1.555689573287963867e-01
2.875330448150634766e-01 6.393641233444213867e-01 2.526040375232696533e-01
-7.181476801633834839e-02 3.408415019512176514e-01 -2.926540933549404144e-02
2.506154179573059082e-01 6.647160649299621582e-01 3.475364446640014648e-01
3.023266047239303589e-02 -2.927699983119964600e-01 -9.155693650245666504e-02
-6.661193817853927612e-02 6.879249215126037598e-01 5.216179043054580688e-02
2.875330448150634766e-01 5.276168584823608398e-01 1.674721688032150269e-01
1.046738028526306152e-01 5.269001722335815430e-01 5.775878205895423889e-02
7.821878790855407715e-02 -8.195034265518188477e-01 -4.535978138446807861e-01
6.492657959461212158e-02 6.879249215126037598e-01 -4.532934725284576416e-01
2.135858982801437378e-01 8.163232803344726562e-01 3.862064480781555176e-01
-1.680413782596588135e-01 6.352595686912536621e-01 -1.415116935968399048e-01
-8.414075523614883423e-02 -4.447422921657562256e-01 -8.157882094383239746e-02
-2.241604626178741455e-01 4.651420712471008301e-01 -2.073694467544555664e-01
1.308572739362716675e-01 -8.412544727325439453e-01 4.012562036514282227e-01
1.535998098552227020e-02 9.193047881126403809e-01 3.932463526725769043e-01
1.208093669265508652e-02 5.788311958312988281e-01 1.766375154256820679e-01
-1.465279459953308105e-01 -8.427819609642028809e-01 -2.766298651695251465e-01
-5.486476421356201172e-02 -8.027895689010620117e-01 2.664571106433868408e-01
2.204962372779846191e-01 -8.427819609642028809e-01 -2.001606822013854980e-01
1.989602297544479370e-01 -8.010274171829223633e-01 1.640322208404541016e-01
-1.276818513870239258e-01 5.618298053741455078e-01 1.494232267141342163e-01
-1.948992908000946045e-02 -8.427819609642028809e-01 -3.141316175460815430e-01
-2.924764454364776611e-01 -8.427819609642028809e-01 2.147498726844787598e-01
-2.869984507560729980e-01 6.567347645759582520e-01 1.027551665902137756e-01
1.762117892503738403e-01 7.290335893630981445e-01 3.105275332927703857e-01
2.494658380746841431e-01 -8.427819609642028809e-01 2.828852236270904541e-01
1.111875176429748535e-01 -4.317973554134368896e-01 -1.726161316037178040e-02
1.664603501558303833e-02 -3.098097145557403564e-01 -6.419195234775543213e-02
-2.008700510486960411e-03 6.879249215126037598e-01 -3.651066124439239502e-02
2.503474941477179527e-03 -3.795324563980102539e-01 -1.421556919813156128e-01
2.875330448150634766e-01 6.424703598022460938e-01 9.127492457628250122e-02
-3.518823385238647461e-01 -8.205881714820861816e-01 -2.890712320804595947e-01
-2.258774936199188232e-01 4.384078681468963623e-01 9.781416505575180054e-02
-2.870004177093505859e-01 5.449559688568115234e-01 1.459803283214569092e-01
2.999635972082614899e-02 6.352595686912536621e-01 -6.152854487299919128e-02
-7.178167253732681274e-02 7.415584474802017212e-02 -2.951707318425178528e-02
1.447034627199172974e-01 7.131679654121398926e-01 4.238495230674743652e-01
2.997701764106750488e-01 -8.113560676574707031e-01 -2.552293241024017334e-01
1.961918547749519348e-03 -2.773500978946685791e-01 5.037309974431991577e-02
-1.052112430334091187e-01 8.720624446868896484e-01 3.829481005668640137e-01
-9.212970733642578125e-02 6.063361167907714844e-01 2.112029194831848145e-01
2.875330448150634766e-01 6.720996499061584473e-01 -1.671621054410934448e-01
-1.902724504470825195e-01 -7.971094250679016113e-01 1.901732757687568665e-02
2.522853314876556396e-01 -8.014809489250183105e-01 9.544723480939865112e-02
-1.720330566167831421e-01 -7.965939640998840332e-01 -3.514558076858520508e-02
3.036578185856342316e-02 6.879249215126037598e-01 -1.646646112203598022e-01
-2.023063749074935913e-01 -8.105795979499816895e-01 2.881953716278076172e-01
-2.164087891578674316e-01 -8.427819609642028809e-01 -1.599642075598239899e-02
-2.383807003498077393e-01 6.434981226921081543e-01 -3.744141459465026855e-01
4.678535833954811096e-02 6.352595686912536621e-01 -2.144692540168762207e-01
-9.019836783409118652e-02 -4.306948781013488770e-01 3.717307746410369873e-02
-2.869994342327117920e-01 6.605624556541442871e-01 -1.743414252996444702e-01
-7.601260393857955933e-02 5.367134213447570801e-01 9.301552176475524902e-02
-4.291751608252525330e-02 8.291985392570495605e-01 3.957016170024871826e-01
2.796292118728160858e-02 6.352595686912536621e-01 1.287470385432243347e-02
-1.791053563356399536e-01 5.439605116844177246e-01 1.124005690217018127e-01
1.032336205244064331e-01 4.785788953304290771e-01 2.964054644107818604e-01
-2.071973085403442383e-01 -8.072928190231323242e-01 -2.972852885723114014e-01
2.343905419111251831e-01 -8.427819609642028809e-01 1.580368429422378540e-01
1.950726211071014404e-01 9.152070879936218262e-01 3.382062017917633057e-01
9.024643152952194214e-02 -8.427819609642028809e-01 3.473526984453201294e-02
-2.408968470990657806e-02 -8.225663900375366211e-01 -4.685857295989990234e-01
7.452613860368728638e-02 7.502819299697875977e-01 4.465145170688629150e-01
1.592025011777877808e-01 -7.991622090339660645e-01 1.591785997152328491e-01
-2.030976414680480957e-01 -8.176352381706237793e-01 3.495872616767883301e-01
5.201577022671699524e-02 -6.231994628906250000e-01 3.029465116560459137e-02
1.014645546674728394e-01 5.506588220596313477e-01 1.277389824390411377e-01
-1.992502808570861816e-01 -8.269566297531127930e-01 -4.248893558979034424e-01
-2.817197442054748535e-01 7.601158022880554199e-01 2.590932250022888184e-01
1.728631407022476196e-01 6.352595686912536621e-01 -1.654440909624099731e-01
1.291579194366931915e-02 -4.676232933998107910e-01 -5.698866210877895355e-03
3.947241976857185364e-02 7.012174725532531738e-01 3.318985998630523682e-01
-1.704102605581283569e-01 -8.427819609642028809e-01 1.825994998216629028e-01
5.852644145488739014e-02 3.709253668785095215e-01 -2.775776945054531097e-02
-8.082097768783569336e-02 6.879249215126037598e-01 -2.954170405864715576e-01
-1.032448485493659973e-01 4.331330657005310059e-01 2.247172892093658447e-01
2.724106311798095703e-01 6.879249215126037598e-01 1.541726198047399521e-02
-1.889696903526782990e-02 -8.074743747711181641e-01 3.206147253513336182e-01
5.800995975732803345e-02 1.091936603188514709e-01 2.360814996063709259e-02
-8.467137813568115234e-02 6.431359648704528809e-01 2.142089456319808960e-01
-7.178197801113128662e-02 -4.196701645851135254e-01 -2.951443009078502655e-02
2.497721463441848755e-01 5.272467732429504395e-01 -8.812238276004791260e-02
4.072911739349365234e-01 -4.076921641826629639e-01 -2.775173187255859375e-01
-1.935366690158843994e-01 6.879249215126037598e-01 6.203623861074447632e-02
-6.063316017389297485e-02 6.879249215126037598e-01 2.580074369907379150e-01
3.509826585650444031e-02 -8.019089698791503906e-01 -3.068108856678009033e-01
3.398656249046325684e-01 -8.427819609642028809e-01 -1.746840476989746094e-01
4.326667264103889465e-02 6.352595686912536621e-01 5.721461400389671326e-02
2.875330448150634766e-01 5.057882666587829590e-01 -1.934918463230133057e-01
7.370021939277648926e-02 -4.981508553028106689e-01 -7.483732886612415314e-03
3.815180957317352295e-01 -8.427819609642028809e-01 -6.042411178350448608e-02
3.583582937717437744e-01 -8.108044266700744629e-01 -1.361220479011535645e-01
9.246198087930679321e-02 6.352595686912536621e-01 5.224661529064178467e-02
-1.826827526092529297e-01 6.879249215126037598e-01 -2.417709231376647949e-01
-2.815076708793640137e-01 -8.427819609642028809e-01 -1.877370029687881470e-01
1.915394067764282227e-01 4.428079128265380859e-01 1.770409941673278809e-01
3.034644126892089844e-01 -8.382277488708496094e-01 -3.536046147346496582e-01
-1.941688954830169678e-01 4.680832922458648682e-01 2.211104482412338257e-01
1.282674819231033325e-01 6.352595686912536621e-01 -8.905570209026336670e-02
3.642309606075286865e-01 -8.427819609642028809e-01 5.378035455942153931e-02
1.731341034173965454e-01 -8.427819609642028809e-01 3.169715404510498047e-01
-3.307920396327972412e-01 -8.067597150802612305e-01 4.704732075333595276e-02
-2.007660456001758575e-02 -3.381804227828979492e-01 8.015595376491546631e-02
-1.072267144918441772e-01 4.880122542381286621e-01 -3.332928121089935303e-01
1.983986794948577881e-01 6.174649000167846680e-01 2.233153730630874634e-01
-1.123954728245735168e-01 -8.427819609642028809e-01 3.219371140003204346e-01
2.845319211483001709e-01 -8.023605942726135254e-01 -9.458710998296737671e-02
5.622224509716033936e-02 -4.058553874492645264e-01 -7.349277287721633911e-02
2.875330448150634766e-01 6.749427318572998047e-01 -6.387505680322647095e-02
-2.083989381790161133e-01 8.473249673843383789e-01 3.760161697864532471e-01
2.808013930916786194e-02 -3.098097145557403564e-01 1.197662390768527985e-02
6.393612176179885864e-02 -6.768063902854919434e-01 -6.344015151262283325e-02
1.155650168657302856e-01 6.879249215126037598e-01 2.238946259021759033e-01
2.458099741488695145e-03 3.995248079299926758e-01 -2.154578566551208496e-01
3.611395508050918579e-02 -8.121964931488037109e-01 -4.078859388828277588e-01
4.960535094141960144e-02 4.040289521217346191e-01 1.931628137826919556e-01
-1.128549128770828247e-01 5.124757289886474609e-01 3.315452039241790771e-01
-1.732484251260757446e-01 -8.427819609642028809e-01 -3.309831023216247559e-02
7.510957866907119751e-02 -2.515326254069805145e-02 -2.936780266463756561e-02
1.895504295825958252e-01 -8.427819609642028809e-01 -7.597612217068672180e-03
-6.068607419729232788e-02 -5.012697577476501465e-01 -6.336298584938049316e-02
-1.396352946758270264e-01 5.224608182907104492e-01 -6.237056478857994080e-02
2.596541345119476318e-01 -3.883660137653350830e-01 -3.833134472370147705e-01
2.410789877176284790e-01 4.515000879764556885e-01 1.278509050607681274e-01
-1.582192443311214447e-02 4.378836154937744141e-01 2.591619491577148438e-01
4.682227224111557007e-02 6.879249215126037598e-01 -5.899059772491455078e-02
-1.269661784172058105e-01 4.749749600887298584e-01 2.796946465969085693e-01
2.336836904287338257e-01 -8.170058727264404297e-01 -3.741373121738433838e-01
4.531699791550636292e-02 6.352595686912536621e-01 1.815088093280792236e-01
-3.684380948543548584e-01 -4.128982424736022949e-01 -2.838582694530487061e-01
3.665939718484878540e-02 -4.916774034500122070e-01 -8.889489620923995972e-02
2.172987610101699829e-01 4.661346077919006348e-01 -2.238034754991531372e-01
-3.630298078060150146e-01 -8.136779069900512695e-01 -1.805733889341354370e-01
-2.704868614673614502e-01 -8.025451898574829102e-01 -1.355143636465072632e-01
1.815906316041946411e-01 6.879249215126037598e-01 1.127696931362152100e-01
-2.032105326652526855e-01 4.401386082172393799e-01 1.476148962974548340e-01
2.663553655147552490e-01 6.879249215126037598e-01 1.314263194799423218e-01
2.664073705673217773e-01 4.486677944660186768e-01 1.482548005878925323e-02
-4.849359393119812012e-02 -7.803003787994384766e-01 3.045801073312759399e-02
2.875330448150634766e-01 7.011683583259582520e-01 3.250540792942047119e-01
-1.729892492294311523e-01 6.644058823585510254e-01 3.973793983459472656e-01
-6.201807036995887756e-02 -8.427819609642028809e-01 9.083511680364608765e-02
2.141091674566268921e-01 -8.427819609642028809e-01 2.568490207195281982e-01
-1.914387196302413940e-02 5.419312715530395508e-01 -1.361436545848846436e-01
2.530304789543151855e-01 7.686911225318908691e-01 2.850362062454223633e-01
1.363376039080321789e-03 -6.045566201210021973e-01 -9.793154150247573853e-02
-2.664991468191146851e-02 -7.649167776107788086e-01 -9.167081117630004883e-02
-6.604862958192825317e-02 -8.427819609642028809e-01 2.539647221565246582e-01
3.183600604534149170e-01 -8.069089651107788086e-01 9.460394084453582764e-02
-3.024988174438476562e-01 -8.032490611076354980e-01 -2.096421271562576294e-02
-6.184646487236022949e-02 -7.970347404479980469e-01 1.570698618888854980e-01
3.674009814858436584e-02 2.117903530597686768e-01 4.130631312727928162e-02
-6.431481242179870605e-02 -7.995626926422119141e-01 2.186757773160934448e-01
3.343336656689643860e-02 4.907247126102447510e-01 3.275407552719116211e-01
1.568090468645095825e-01 -8.063483834266662598e-01 2.721648216247558594e-01
-4.164677485823631287e-02 5.768226385116577148e-01 -4.271119534969329834e-01
-2.869994342327117920e-01 5.883607864379882812e-01 2.282937020063400269e-01
2.439573854207992554e-01 5.295615792274475098e-01 -2.922951579093933105e-01
7.425861805677413940e-02 -1.982714831829071045e-01 -3.582944720983505249e-02
-4.184911251068115234e-01 -4.167033731937408447e-01 -2.155854701995849609e-01
-3.519481122493743896e-01 -8.089479804039001465e-01 -9.003742039203643799e-02
-7.434593141078948975e-02 6.060287952423095703e-01 4.117459058761596680e-01
-2.347267270088195801e-01 4.296616613864898682e-01 -1.017934270203113556e-02
1.752477437257766724e-01 3.996338248252868652e-01 4.571620374917984009e-02
-2.014208585023880005e-01 6.413599848747253418e-01 2.093896865844726562e-01
2.878589630126953125e-01 -8.020464777946472168e-01 -1.307217869907617569e-02
6.012812256813049316e-02 4.017660915851593018e-01 -2.114907205104827881e-01
-1.546840835362672806e-02 6.352595686912536621e-01 1.475893855094909668e-01
8.540645241737365723e-02 -8.427819609642028809e-01 3.622455894947052002e-01
1.103825047612190247e-01 -8.010755181312561035e-01 -2.742697894573211670e-01
-5.455169454216957092e-02 -6.787599921226501465e-01 2.380233630537986755e-02
-3.396559953689575195e-01 -8.427819609642028809e-01 8.397681266069412231e-02
-1.024054735898971558e-01 -3.889687955379486084e-01 9.786815941333770752e-02
1.681499034166336060e-01 6.602492928504943848e-01 3.995058238506317139e-01
-2.128637162968516350e-03 6.879249215126037598e-01 -3.900146782398223877e-01
-2.869984507560729980e-01 6.651794910430908203e-01 2.493349164724349976e-01
9.081926941871643066e-02 5.335277318954467773e-01 -1.119165420532226562e-01
-2.524614930152893066e-01 6.879249215126037598e-01 -2.625001128762960434e-03
-5.043651536107063293e-02 3.685152232646942139e-01 -6.653355062007904053e-02
-2.039733380079269409e-01 -3.930056393146514893e-01 6.057690829038619995e-02
-9.190557897090911865e-02 6.879249215126037598e-01 1.812545508146286011e-01
1.318065971136093140e-01 6.879249215126037598e-01 -2.134531885385513306e-01
-1.989390701055526733e-01 -7.974696755409240723e-01 -7.858771085739135742e-02
8.192919194698333740e-02 -3.936653137207031250e-01 1.069078445434570312e-01
2.525935880839824677e-02 -4.402430653572082520e-01 7.943144440650939941e-02
-2.341946214437484741e-01 7.126967310905456543e-01 3.719596862792968750e-01
5.567729473114013672e-02 2.823790609836578369e-01 -7.420305162668228149e-02
4.218255877494812012e-01 -8.427819609642028809e-01 -1.477220654487609863e-01
1.190138012170791626e-01 5.200781822204589844e-01 -4.090347513556480408e-02
-7.391751557588577271e-02 9.146543741226196289e-01 3.889110684394836426e-01
8.780282735824584961e-02 6.229467988014221191e-01 -2.396877110004425049e-01
-2.737177312374114990e-01 5.032377839088439941e-01 -2.061747014522552490e-01
-7.963377237319946289e-02 -3.844685554504394531e-01 2.117544598877429962e-02
2.927862405776977539e-01 -8.427819609642028809e-01 -5.380593240261077881e-02
3.921560049057006836e-01 -4.170401394367218018e-01 -1.047702059149742126e-01
-6.730817258358001709e-02 -1.154535189270973206e-01 -4.949903115630149841e-02
4.348029568791389465e-02 -8.108161687850952148e-01 3.465723991394042969e-01
3.193908929824829102e-02 3.709253668785095215e-01 -7.194577902555465698e-02
-1.935347020626068115e-01 -7.985514998435974121e-01 -1.515458673238754272e-01
9.783847630023956299e-02 6.352595686912536621e-01 1.463818699121475220e-01
-4.132241755723953247e-02 -7.973244190216064453e-01 -5.253558978438377380e-02
4.107930064201354980e-01 -8.227705955505371094e-01 1.445804089307785034e-01
-1.572846621274948120e-01 5.662200450897216797e-01 3.548129498958587646e-01
2.648101150989532471e-01 6.026094555854797363e-01 -2.357892990112304688e-01
-4.052231609821319580e-01 -8.427819609642028809e-01 -7.763013988733291626e-02
6.595267355442047119e-02 -7.783712744712829590e-01 -6.076025217771530151e-02
-3.776416927576065063e-02 4.990938901901245117e-01 3.358745872974395752e-01
6.811176985502243042e-02 -8.029790520668029785e-01 -6.552865263074636459e-03
-3.444644808769226074e-01 -4.167043566703796387e-01 -6.051687896251678467e-02
-1.408123672008514404e-01 4.103021621704101562e-01 -1.762302517890930176e-01
1.172722205519676208e-01 -8.131605386734008789e-01 -4.001931548118591309e-01
4.396389126777648926e-01 -3.970365524291992188e-01 -1.885312050580978394e-01
-2.268759012222290039e-01 4.441440403461456299e-01 -1.509872674942016602e-01
1.966590583324432373e-01 -8.427819609642028809e-01 -1.037148535251617432e-01
-5.122749134898185730e-02 -2.541656233370304108e-02 -7.568937540054321289e-02
2.353879511356353760e-01 7.464129924774169922e-01 3.767132163047790527e-01
5.382812395691871643e-02 -7.993192076683044434e-01 2.157698869705200195e-01
-1.864172145724296570e-02 4.431966841220855713e-01 -2.972145974636077881e-01
7.043491303920745850e-02 1.518788784742355347e-01 -4.993805289268493652e-02
8.442463725805282593e-02 6.879249215126037598e-01 8.276046067476272583e-02
1.819666326045989990e-01 -3.910333216190338135e-01 7.856458425521850586e-02
3.458865284919738770e-01 -8.427819609642028809e-01 -9.958966076374053955e-02
-1.139956787228584290e-01 6.297197341918945312e-01 -2.351393997669219971e-01
-1.918431967496871948e-01 8.718356490135192871e-01 3.412936925888061523e-01
9.095562249422073364e-02 -8.427819609642028809e-01 -1.172065436840057373e-01
1.643270701169967651e-01 7.852302193641662598e-01 4.151711165904998779e-01
-3.906652331352233887e-01 -8.139399886131286621e-01 4.988017678260803223e-02
-2.334151417016983032e-01 5.716479420661926270e-01 1.658179610967636108e-01
3.629871010780334473e-01 -8.152535557746887207e-01 -2.130997627973556519e-01
2.156465351581573486e-01 -8.427819609642028809e-01 1.058269664645195007e-01
-1.762681175023317337e-03 8.655359148979187012e-01 4.020396471023559570e-01
-1.414465457201004028e-01 5.430936217308044434e-01 -3.737181127071380615e-01
1.825939565896987915e-01 -8.236384391784667969e-01 -4.302151501178741455e-01
1.920498907566070557e-01 -8.427819609642028809e-01 4.939706623554229736e-02
-1.067947521805763245e-01 6.575033664703369141e-01 2.599031627178192139e-01
-5.602211505174636841e-02 -8.810473978519439697e-02 2.188621088862419128e-02
-2.448914647102355957e-01 6.352595686912536621e-01 1.638938039541244507e-01
-4.986868239939212799e-03 6.879249215126037598e-01 2.488371878862380981e-01
-1.737540066242218018e-01 6.045798063278198242e-01 2.092394828796386719e-01
8.962558954954147339e-02 -3.338814973831176758e-01 -5.259478837251663208e-02
1.623469591140747070e-01 -8.427819609642028809e-01 -1.982050985097885132e-01
2.939750850200653076e-01 -8.427819609642028809e-01 2.076322212815284729e-02
5.270768702030181885e-02 -8.427819609642028809e-01 2.628512680530548096e-01
1.982435733079910278e-01 6.835828423500061035e-01 -4.165191650390625000e-01
1.912654936313629150e-02 -7.965714335441589355e-01 1.460402160882949829e-01
-6.185756251215934753e-02 -5.786598324775695801e-01 1.428131200373172760e-02
3.789195045828819275e-02 -7.987213730812072754e-01 4.082929715514183044e-02
4.448341578245162964e-02 3.269923329353332520e-01 -8.362943679094314575e-02
-1.071648597717285156e-01 -3.572592139244079590e-01 1.404609158635139465e-02
7.963343709707260132e-02 6.879249215126037598e-01 1.807941198348999023e-01
-6.967844069004058838e-02 3.736083805561065674e-01 -9.900161623954772949e-02
-1.089741736650466919e-01 5.803116559982299805e-01 3.873079121112823486e-01
-2.869984507560729980e-01 6.747561693191528320e-01 -2.956271469593048096e-01
-1.677272319793701172e-01 6.879249215126037598e-01 2.147891372442245483e-01
9.567642956972122192e-02 5.515315532684326172e-01 3.734990358352661133e-01
-3.292221808806061745e-03 -8.029790520668029785e-01 -4.963342472910881042e-02
5.905736237764358521e-03 -8.427819609642028809e-01 1.912689022719860077e-02
-2.502359747886657715e-01 6.879249215126037598e-01 -1.589990854263305664e-01
-2.129040509462356567e-01 -7.993673086166381836e-01 1.015250682830810547e-01
-5.692834034562110901e-02 3.934293389320373535e-01 1.532372236251831055e-01
-1.670252978801727295e-01 4.390969872474670410e-01 -2.195084244012832642e-01
1.436746120452880859e-01 4.936257004737854004e-01 -3.249570131301879883e-01
2.875330448150634766e-01 4.996033906936645508e-01 -2.460956387221813202e-02
2.091681584715843201e-02 -3.495075404644012451e-01 -9.541558474302291870e-02
1.817565560340881348e-01 8.818963170051574707e-01 3.738867938518524170e-01
4.308348521590232849e-02 6.471020579338073730e-01 4.314362704753875732e-01
-7.157708704471588135e-02 7.202687859535217285e-01 4.449339509010314941e-01
6.903547048568725586e-02 -8.161752671003341675e-02 -5.331713333725929260e-02
3.335443511605262756e-02 3.735897243022918701e-01 1.881794072687625885e-02
5.342002213001251221e-02 -1.622825711965560913e-01 -7.677201926708221436e-02
-4.788993299007415771e-02 7.317224740982055664e-01 3.600759804248809814e-01
-1.778860688209533691e-01 6.352595686912536621e-01 -8.714939653873443604e-02
-1.485326141119003296e-01 -8.427819609642028809e-01 -1.829354166984558105e-01
1.412075459957122803e-01 3.921511471271514893e-01 -1.013905331492424011e-01
1.928264200687408447e-01 4.220543503761291504e-01 -1.425140351057052612e-01
-3.248123452067375183e-02 -3.707961440086364746e-01 -1.095465719699859619e-01
-2.828624844551086426e-01 -8.427819609642028809e-01 -2.960630059242248535e-01
-1.702590733766555786e-01 -8.051683306694030762e-01 2.510873079299926758e-01
1.503100693225860596e-01 -7.976384758949279785e-01 -1.729797869920730591e-01
-2.127155661582946777e-01 6.879249215126037598e-01 1.030909121036529541e-01
-2.001554369926452637e-01 6.879249215126037598e-01 -3.509274721145629883e-01
1.143388450145721436e-01 -3.564374744892120361e-01 -1.587222679518163204e-03
-6.454639881849288940e-02 -3.017841279506683350e-01 -5.616628751158714294e-02
-2.014827132225036621e-01 5.436778068542480469e-01 -3.375986516475677490e-01
-4.582713916897773743e-02 -1.908054947853088379e-01 3.250411152839660645e-02
7.864435762166976929e-02 -8.427819609642028809e-01 8.674526214599609375e-02
-2.869994342327117920e-01 6.668091416358947754e-01 2.291250415146350861e-02
-7.059998810291290283e-02 2.250367254018783569e-01 -3.849089518189430237e-02
-2.673424482345581055e-01 6.352595686912536621e-01 -6.281489133834838867e-02
7.523032836616039276e-03 -4.232513532042503357e-02 -9.719681739807128906e-02
-2.001043707132339478e-01 -8.427819609642028809e-01 -3.546108603477478027e-01
-2.869994342327117920e-01 5.170495510101318359e-01 1.011853963136672974e-01
