5.629845261573791504e-01 1.420280933380126953e-01 -3.450439497828483582e-02
-8.320152014493942261e-02 9.115161001682281494e-02 -3.081531226634979248e-01
-1.312238425016403198e-01 2.190765552222728729e-02 -3.709675967693328857e-01
-3.025317788124084473e-01 3.254748284816741943e-01 -2.083225399255752563e-01
5.269996523857116699e-01 -9.041860699653625488e-02 -2.158451080322265625e-01
3.494001924991607666e-01 4.809506610035896301e-02 3.511698544025421143e-02
-2.523456513881683350e-01 -4.674103111028671265e-02 7.262974977493286133e-02
1.790027916431427002e-01 6.856075674295425415e-02 -3.653954267501831055e-01
1.168965399265289307e-01 -1.107985526323318481e-01 5.078102275729179382e-02
-1.640369296073913574e-01 -1.650467365980148315e-01 1.874793767929077148e-01
9.400683641433715820e-01 -1.745952963829040527e-01 1.109010502696037292e-01
-3.049813807010650635e-01 -6.440879404544830322e-02 -1.178896203637123108e-01
9.536711126565933228e-02 -1.720366030931472778e-01 -3.772574290633201599e-02
9.216448068618774414e-01 -1.745952963829040527e-01 6.312096863985061646e-02
2.576802074909210205e-01 -1.390819698572158813e-01 5.445318296551704407e-02
1.735001653432846069e-01 -6.424480676651000977e-02 -3.216572105884552002e-01
-2.958463430404663086e-01 -1.645456105470657349e-01 -1.749455928802490234e-01
4.604601860046386719e-02 1.311695724725723267e-01 -3.244167566299438477e-01
-3.413766026496887207e-01 -1.715596169233322144e-01 4.237643256783485413e-02
3.403791189193725586e-01 -1.138268932700157166e-01 -3.648267388343811035e-01
4.869005382061004639e-01 -2.172858864068984985e-01 2.773513495922088623e-01
6.059415936470031738e-01 -7.587552815675735474e-02 3.199405670166015625e-01
5.825396776199340820e-01 -1.014340296387672424e-01 -2.912126183509826660e-01
-8.897288441658020020e-01 -3.640603274106979370e-02 2.742548286914825439e-01
5.633456707000732422e-01 -2.720081508159637451e-01 -3.322144746780395508e-01
5.534701794385910034e-02 3.326652348041534424e-01 -3.215223178267478943e-02
2.717820107936859131e-01 -1.780838072299957275e-01 -3.368722796440124512e-01
-5.774165987968444824e-01 -1.498723328113555908e-01 2.637178599834442139e-01
8.335186243057250977e-01 4.220331832766532898e-02 2.990751266479492188e-01
2.085542678833007812e-01 -1.664628833532333374e-01 1.595365107059478760e-01
-4.977465867996215820e-01 -2.793240845203399658e-01 2.668491005897521973e-01
3.499476909637451172e-01 -1.188147962093353271e-01 3.220483362674713135e-01
5.128467082977294922e-01 -2.127487957477569580e-01 -3.341156542301177979e-01
3.271357119083404541e-01 1.279601007699966431e-01 -3.659689724445343018e-01
2.667698562145233154e-01 1.332976371049880981e-01 3.330256342887878418e-01
3.640793859958648682e-01 3.230455145239830017e-02 -1.930312216281890869e-01
9.695609807968139648e-01 -5.794193223118782043e-02 -1.938046067953109741e-01
8.618748188018798828e-02 2.703122794628143311e-01 2.720147669315338135e-01
7.711685299873352051e-01 -1.332805901765823364e-01 3.677996993064880371e-01
-1.369533836841583252e-01 3.397205173969268799e-01 -1.297786273062229156e-02
-5.944526791572570801e-01 1.440769433975219727e-02 -3.653404116630554199e-01
1.836490035057067871e-01 3.003552258014678955e-01 1.059141359291970730e-03
-4.832981824874877930e-01 -1.642931252717971802e-01 -2.176023870706558228e-01
-2.166504412889480591e-01 -3.636074811220169067e-02 1.708150357007980347e-01
1.702935844659805298e-01 -1.663174927234649658e-01 2.769911885261535645e-01
-4.375854432582855225e-01 3.004266917705535889e-01 -2.083379924297332764e-01
-8.542054891586303711e-01 6.647711247205734253e-02 -2.933233082294464111e-01
-2.688091695308685303e-01 -4.391652345657348633e-02 -3.681916594505310059e-01
-1.930525153875350952e-01 2.415129542350769043e-02 3.743229210376739502e-01
-6.957219243049621582e-01 1.584191918373107910e-01 1.790269911289215088e-01
5.159239172935485840e-01 1.285597085952758789e-01 -3.411340992897748947e-03
-8.301323652267456055e-02 -1.653547435998916626e-01 2.986831367015838623e-01
3.729527294635772705e-01 2.211332619190216064e-01 -7.238599658012390137e-02
9.832340478897094727e-01 -9.839980304241180420e-02 1.398384422063827515e-01
5.670098662376403809e-01 -1.704733818769454956e-01 3.304341137409210205e-01
1.685459464788436890e-01 -1.389608979225158691e-01 -4.830453917384147644e-02
-9.592740237712860107e-02 1.669005304574966431e-01 -3.152846097946166992e-01
-2.012934535741806030e-01 2.630745768547058105e-01 -2.733780741691589355e-01
1.936916410923004150e-01 7.701700925827026367e-02 3.677224516868591309e-01
9.375174045562744141e-01 -1.434623077511787415e-02 1.699981838464736938e-01
6.232625246047973633e-01 1.304869353771209717e-01 6.217010319232940674e-02
-1.607164293527603149e-01 -5.649979412555694580e-02 1.752833276987075806e-02
-2.056663781404495239e-01 3.385000526905059814e-01 7.204077392816543579e-02
1.950068213045597076e-02 7.262569665908813477e-02 -6.712619960308074951e-02
1.182978302240371704e-01 -1.720617115497589111e-01 -2.444889545440673828e-01
2.546252310276031494e-01 -1.666380465030670166e-01 2.667149007320404053e-01
3.404969274997711182e-01 2.384039610624313354e-01 1.238052034750580788e-03
-5.803924202919006348e-01 2.134175747632980347e-01 2.736291587352752686e-01
4.213844835758209229e-01 1.713970601558685303e-01 2.929612994194030762e-01
8.908159136772155762e-01 -1.414571106433868408e-01 -3.064141571521759033e-01
3.444170355796813965e-01 9.742958098649978638e-02 8.195547014474868774e-02
-4.490841031074523926e-01 -1.068083420395851135e-01 -2.594413757324218750e-01
8.702720403671264648e-01 -1.845935359597206116e-02 -3.062973320484161377e-01
7.812131047248840332e-01 -1.745952963829040527e-01 1.864414215087890625e-01
3.390263915061950684e-01 -1.780838072299957275e-01 3.516934514045715332e-01
4.905165135860443115e-01 -1.342334896326065063e-01 -2.475593835115432739e-01
-6.734564304351806641e-01 1.596154868602752686e-01 -1.144320070743560791e-01
-7.061923146247863770e-01 1.702751070261001587e-01 5.072801187634468079e-02
-6.001822352409362793e-01 -2.260279208421707153e-01 -3.567827641963958740e-01
-7.102986425161361694e-02 3.411804139614105225e-01 7.215918507426977158e-03
-2.875529928132891655e-03 5.942284315824508667e-02 3.726409375667572021e-01
-3.631409704685211182e-01 -2.355936169624328613e-02 -3.203904330730438232e-01
-5.579473376274108887e-01 -2.287758737802505493e-01 3.323516845703125000e-01
1.629148870706558228e-01 -9.843948483467102051e-02 1.267813593149185181e-01
-5.119854807853698730e-01 1.922586262226104736e-01 1.085267886519432068e-01
8.693373799324035645e-01 6.088081002235412598e-02 -1.785393506288528442e-01
5.915424227714538574e-01 -1.287668645381927490e-01 -3.185124397277832031e-01
2.995471954345703125e-01 1.018430888652801514e-01 -3.109609186649322510e-01
-7.463134825229644775e-02 9.815856814384460449e-02 2.024597972631454468e-01
-4.790497720241546631e-01 -2.036408036947250366e-01 -3.101952373981475830e-01
8.346511721611022949e-01 7.848270237445831299e-02 -1.197299435734748840e-01
3.453710079193115234e-01 -1.723098456859588623e-01 1.973269581794738770e-01
2.171514779329299927e-01 2.678830027580261230e-01 2.619566917419433594e-01
-2.656904757022857666e-01 3.398788571357727051e-01 -4.090972244739532471e-02
-6.383975148200988770e-01 -1.009288504719734192e-01 -3.587978780269622803e-01
7.695909589529037476e-02 -3.289608284831047058e-02 3.763718307018280029e-01
3.544847667217254639e-01 -1.723195016384124756e-01 2.773433364927768707e-02
8.447122573852539062e-02 -5.829396843910217285e-02 1.204087734222412109e-01
1.263360083103179932e-01 -8.905757963657379150e-02 2.450876533985137939e-01
-8.610877394676208496e-02 -1.658680140972137451e-01 -3.138575553894042969e-01
3.605735003948211670e-01 5.353591218590736389e-02 -3.124333918094635010e-01
8.372339606285095215e-01 8.201176673173904419e-02 1.122505404055118561e-02
-8.767258524894714355e-01 -1.756718754768371582e-01 -1.189430356025695801e-01
-6.066600680351257324e-01 -1.589265316724777222e-01 -1.866837143898010254e-01
1.806577444076538086e-01 -1.284550875425338745e-01 5.307370796799659729e-02
-7.339931279420852661e-02 -1.143865212798118591e-01 3.683037161827087402e-01
-5.377867817878723145e-01 -1.097817420959472656e-01 -3.478099703788757324e-01
2.772622741758823395e-02 -2.341240830719470978e-02 -3.556938841938972473e-02
-4.507516324520111084e-01 2.811215259134769440e-02 3.705949783325195312e-01
-4.622463881969451904e-01 1.707849204540252686e-01 1.782922148704528809e-01
4.744170308113098145e-01 1.449179649353027344e-01 -2.961311340332031250e-01
1.451479047536849976e-01 -8.677338808774948120e-02 -5.148108676075935364e-02
4.387526810169219971e-01 -2.032391428947448730e-01 3.378736078739166260e-01
-9.071814827620983124e-03 8.124318718910217285e-02 9.387618303298950195e-02
-6.267289519309997559e-01 -9.382621198892593384e-02 -2.740239799022674561e-01
-1.936212331056594849e-01 -1.717208623886108398e-01 -1.660210639238357544e-01
-8.488659858703613281e-01 1.591076105833053589e-01 2.073587290942668915e-02
1.023144051432609558e-01 3.274629116058349609e-01 9.743112325668334961e-02
5.533126592636108398e-01 -2.264093160629272461e-01 3.512184023857116699e-01
9.390960931777954102e-01 -1.814671233296394348e-02 -1.667114198207855225e-01
-1.408590227365493774e-01 -1.651346981525421143e-01 -1.258515119552612305e-01
-7.456068396568298340e-01 -2.022224217653274536e-01 -1.728928387165069580e-01
-6.975979804992675781e-01 -4.127884656190872192e-02 3.634576499462127686e-01
-8.207271695137023926e-01 -1.491311788558959961e-01 1.442217547446489334e-02
-3.108469210565090179e-02 -1.718985140323638916e-01 3.033445030450820923e-02
1.778055131435394287e-01 2.964949905872344971e-01 -1.966307759284973145e-01
6.155670881271362305e-01 4.098671022802591324e-03 3.543120324611663818e-01
-4.933099448680877686e-01 -1.315274536609649658e-01 -2.594413757324218750e-01
3.828524649143218994e-01 2.166183590888977051e-01 5.826466903090476990e-02
6.424749493598937988e-01 -2.183287218213081360e-02 -2.694791853427886963e-01
5.271116495132446289e-01 -1.803605556488037109e-01 -2.835848033428192139e-01
6.411240696907043457e-01 -5.429522600024938583e-03 -3.684938848018646240e-01
-8.128811120986938477e-01 1.624773740768432617e-01 1.165359839797019958e-01
3.891420364379882812e-01 -1.168606355786323547e-01 -2.119018286466598511e-01
5.511672496795654297e-01 -1.745952963829040527e-01 -1.437314748764038086e-01
5.957329273223876953e-01 -3.942818939685821533e-02 3.534604310989379883e-01
2.932924032211303711e-01 -1.667850017547607422e-01 -1.957038342952728271e-01
6.333688497543334961e-01 -1.745952963829040527e-01 9.058097749948501587e-02
-6.105290055274963379e-01 2.215127199888229370e-01 2.205850183963775635e-01
-2.175628542900085449e-01 -4.143806546926498413e-02 -3.209620118141174316e-01
-5.874137207865715027e-02 5.479015037417411804e-02 -1.383427530527114868e-01
2.287090569734573364e-01 -4.703851789236068726e-02 1.674308031797409058e-01
-6.235426068305969238e-01 -1.581921279430389404e-01 1.423285603523254395e-01
-5.464380979537963867e-01 1.432900726795196533e-01 -2.876825928688049316e-01
-3.210229575634002686e-01 -2.583331800997257233e-02 3.243395686149597168e-01
5.952790975570678711e-01 -1.123639941215515137e-01 -2.158451080322265625e-01
3.817971348762512207e-01 8.841525763273239136e-02 -3.535974323749542236e-01
3.963054120540618896e-01 1.240805536508560181e-01 3.394851088523864746e-01
-3.750567734241485596e-01 9.562691301107406616e-02 -3.616993129253387451e-01
-5.317444205284118652e-01 -2.990810275077819824e-01 -3.292406201362609863e-01
5.179533958435058594e-01 -4.971152916550636292e-02 2.201205790042877197e-01
-2.698036730289459229e-01 -1.716378331184387207e-01 -2.258993238210678101e-01
5.321546196937561035e-01 -2.683023810386657715e-01 2.864110469818115234e-01
6.076670289039611816e-01 -1.895622014999389648e-01 3.350628912448883057e-01
-4.412998855113983154e-01 3.100734353065490723e-01 -1.310490369796752930e-01
3.817633390426635742e-01 -1.539943367242813110e-01 9.881533682346343994e-02
8.239336013793945312e-01 8.547807484865188599e-02 -4.026348143815994263e-02
2.248092144727706909e-01 -5.673220008611679077e-02 -3.730917870998382568e-01
-5.077185854315757751e-02 -1.179327741265296936e-01 -3.598136007785797119e-01
-4.250015020370483398e-01 1.311193853616714478e-01 -3.376775383949279785e-01
-1.154872868210077286e-02 -6.577807664871215820e-02 -1.723222136497497559e-01
-4.568287134170532227e-01 -1.927408203482627869e-02 -3.220878243446350098e-01
-4.825808107852935791e-01 1.613756865262985229e-01 -4.535064846277236938e-02
5.872718095779418945e-01 9.374216198921203613e-02 -3.390833735466003418e-01
-2.105462402105331421e-01 9.462177008390426636e-02 -3.071836829185485840e-01
7.251950502395629883e-01 -1.745952963829040527e-01 -1.186552941799163818e-01
-2.976479008793830872e-02 1.911337822675704956e-01 -1.875179558992385864e-01
-3.553567528724670410e-01 -1.715451329946517944e-01 2.864950597286224365e-01
-2.964517772197723389e-01 -4.091618955135345459e-02 -3.196450173854827881e-01
6.032969951629638672e-01 -1.782991141080856323e-01 -3.206404745578765869e-01
-5.070019979029893875e-03 -1.408727765083312988e-01 -3.164480924606323242e-01
8.242184519767761230e-01 -1.507844775915145874e-01 -3.412432968616485596e-01
-6.774518489837646484e-01 1.748228371143341064e-01 2.680203020572662354e-01
8.719665408134460449e-01 -8.256252855062484741e-03 2.334064841270446777e-01
6.693470478057861328e-01 1.213354989886283875e-01 -9.082239866256713867e-02
3.397321999073028564e-01 -1.669615060091018677e-01 2.919677793979644775e-01
-8.084753751754760742e-01 1.486671864986419678e-01 -2.689182162284851074e-01
-5.623985528945922852e-01 -1.819855570793151855e-01 -3.451846539974212646e-01
2.476259917020797729e-01 5.892558768391609192e-02 -1.750788390636444092e-01
-7.564710974693298340e-01 -1.385803669691085815e-01 3.377538919448852539e-01
6.609284281730651855e-01 -2.119464278221130371e-01 -3.283194899559020996e-01
-8.532988429069519043e-01 -1.005976344458758831e-03 -2.961668372154235840e-01
-2.592395432293415070e-02 8.050164580345153809e-02 -3.092519044876098633e-01
1.240745931863784790e-01 -4.767384380102157593e-02 -4.833466559648513794e-02
-5.191488862037658691e-01 -1.274267733097076416e-01 3.186254799365997314e-01
-2.198087275028228760e-01 -1.716928631067276001e-01 5.430854111909866333e-02
-3.898218572139739990e-01 3.290338218212127686e-01 4.947622306644916534e-03
4.169304072856903076e-01 -1.723880469799041748e-01 2.129835076630115509e-03
-6.474514007568359375e-01 1.596357822418212891e-01 7.315153628587722778e-02
-8.758539557456970215e-01 1.212447434663772583e-01 1.665019541978836060e-01
9.402450919151306152e-01 -9.981519728899002075e-02 -2.631799876689910889e-01
3.804917335510253906e-01 6.591706536710262299e-03 2.795296013355255127e-01
8.955993503332138062e-02 4.703007265925407410e-02 3.169164657592773438e-01
1.530296504497528076e-01 -5.495047941803932190e-02 -2.510160207748413086e-01
8.059556595981121063e-03 3.499359264969825745e-02 2.012721747159957886e-01
-4.527667164802551270e-01 -1.932303160429000854e-01 2.761540710926055908e-01
1.998962312936782837e-01 -2.453514188528060913e-02 3.765649497509002686e-01
5.272583961486816406e-01 1.320772022008895874e-01 3.103758692741394043e-01
9.024884104728698730e-01 -1.564004719257354736e-01 2.983509898185729980e-01
-5.100389719009399414e-01 1.978974044322967529e-01 -1.871471852064132690e-01
-1.400431394577026367e-01 -1.381563097238540649e-01 3.604210317134857178e-01
-6.337175369262695312e-01 -1.577495336532592773e-01 -1.305230520665645599e-02
-1.429243385791778564e-01 3.135301172733306885e-01 -2.499664723873138428e-01
-3.126004934310913086e-01 8.512757718563079834e-02 3.118434846401214600e-01
-5.021939277648925781e-01 2.719044983386993408e-01 2.182464599609375000e-01
-8.869538903236389160e-01 5.352142453193664551e-02 7.284700870513916016e-02
5.786399543285369873e-02 -9.843948483467102051e-02 2.018466889858245850e-01
-2.113959193229675293e-01 -1.648665517568588257e-01 -8.904348313808441162e-02
-5.733410120010375977e-01 1.355830878019332886e-01 -3.300149738788604736e-01
-7.571489214897155762e-01 -1.522215902805328369e-01 2.597175836563110352e-01
-4.139933288097381592e-01 -1.673081368207931519e-01 -4.283453524112701416e-02
4.273322224617004395e-01 1.335255056619644165e-01 -1.217237934470176697e-01
7.018163800239562988e-01 -2.540451288223266602e-01 -3.174435794353485107e-01
-1.816745400428771973e-01 -1.777178645133972168e-01 -3.440993726253509521e-01
-5.444181561470031738e-01 -3.699105605483055115e-02 2.637178599834442139e-01
-1.669123172760009766e-01 6.342985481023788452e-02 3.146010935306549072e-01
-4.551554918289184570e-01 6.781439483165740967e-02 3.143973648548126221e-01
1.179919466376304626e-01 3.258436620235443115e-01 -2.308437600731849670e-03
3.843548595905303955e-01 -1.395079791545867920e-01 -3.498958051204681396e-02
2.350748777389526367e-01 -1.277589350938796997e-01 -3.631099760532379150e-01
3.989915549755096436e-01 -2.359248138964176178e-02 5.306607857346534729e-02
2.344279587268829346e-01 2.876467704772949219e-01 1.151339430361986160e-02
-9.311173111200332642e-03 -6.377787142992019653e-02 2.631623856723308563e-02
-5.532934665679931641e-01 -1.847161203622817993e-01 2.972898483276367188e-01
5.166723206639289856e-02 -7.943408936262130737e-02 -3.690712451934814453e-01
-2.655475735664367676e-01 3.346185684204101562e-01 -1.026108339428901672e-01
-4.154677093029022217e-01 -1.810316145420074463e-01 -2.740056514739990234e-01
-3.509065508842468262e-01 3.216030299663543701e-01 -1.798978745937347412e-01
-1.584251821041107178e-01 -8.529272675514221191e-02 8.205424249172210693e-02
2.739593088626861572e-01 2.596150636672973633e-01 -1.855743080377578735e-01
-1.071383431553840637e-01 -1.652629226446151733e-01 -2.800791896879673004e-02
-1.257743239402770996e-01 9.783028066158294678e-02 3.116667866706848145e-01
-2.331900782883167267e-02 1.163600459694862366e-01 1.347442120313644409e-01
-2.529047131538391113e-01 5.674153193831443787e-02 -3.102029561996459961e-01
-4.257971048355102539e-01 -3.934505581855773926e-02 3.245973885059356689e-01
-6.569070219993591309e-01 -2.155807316303253174e-01 -3.302708268165588379e-01
3.932262957096099854e-01 -1.599885709583759308e-02 -2.922341823577880859e-01
9.164501428604125977e-01 -1.414432972669601440e-01 -2.626276612281799316e-01
1.995158046483993530e-01 1.267541348934173584e-01 3.318727612495422363e-01
3.355755507946014404e-01 -6.753247976303100586e-02 3.256787955760955811e-01
-6.400563716888427734e-01 1.553902775049209595e-01 1.853049695491790771e-01
3.483767807483673096e-02 -1.658026576042175293e-01 1.744242459535598755e-01
-6.587771326303482056e-02 7.429706305265426636e-02 5.655391886830329895e-02
-6.553583145141601562e-01 1.586866527795791626e-01 1.214341893792152405e-01
-8.861100077629089355e-01 -1.681764051318168640e-02 2.131396979093551636e-01
5.082728862762451172e-01 1.226457506418228149e-01 -3.133013844490051270e-01
3.571042716503143311e-01 -1.670275479555130005e-01 -2.955064177513122559e-01
2.871909551322460175e-02 -1.322137191891670227e-02 2.102343738079071045e-01
-7.733256816864013672e-01 -1.215985137969255447e-02 -3.444160819053649902e-01
-5.932911634445190430e-01 -5.942636355757713318e-02 2.637178599834442139e-01
-5.902661085128784180e-01 8.957584947347640991e-02 3.587264716625213623e-01
6.414746642112731934e-01 -1.426230072975158691e-01 -3.094778358936309814e-01
-3.680488467216491699e-01 2.640739381313323975e-01 -2.763268351554870605e-01
2.252601236104965210e-01 -4.493275657296180725e-02 -4.452095553278923035e-02
-1.559823602437973022e-01 4.695089533925056458e-02 -3.119998574256896973e-01
-3.771365284919738770e-01 3.237079083919525146e-01 1.257936060428619385e-01
7.117054462432861328e-01 -6.623603403568267822e-02 -2.818941771984100342e-01
-4.281009137630462646e-01 8.122773468494415283e-02 2.309346944093704224e-01
-4.047221541404724121e-01 -2.131794244050979614e-01 2.834700047969818115e-01
7.350098490715026855e-01 -1.721466779708862305e-01 3.523017466068267822e-01
-7.277953624725341797e-01 6.381993740797042847e-02 3.480852246284484863e-01
-6.555938720703125000e-01 9.636265784502029419e-02 -3.463365435600280762e-01
-1.337989717721939087e-01 1.555302739143371582e-01 3.243608176708221436e-01
-7.341892123222351074e-01 -1.080582514405250549e-01 -3.488614261150360107e-01
1.257177591323852539e-01 -1.304897814989089966e-01 -3.173480033874511719e-01
2.161386162042617798e-01 -9.045192599296569824e-02 5.952239036560058594e-02
1.867464631795883179e-01 -1.585903167724609375e-01 -3.130049705505371094e-01
-6.276635527610778809e-01 -1.228782981634140015e-01 2.687946856021881104e-01
-6.464598178863525391e-01 -1.819894313812255859e-01 2.675220668315887451e-01
-5.191739797592163086e-01 2.825650572776794434e-01 8.644487708806991577e-02
-1.598928123712539673e-01 -9.646890312433242798e-02 -8.790683746337890625e-02
-5.637474060058593750e-01 -1.482144892215728760e-01 3.103179335594177246e-01
3.056388199329376221e-01 2.035873830318450928e-01 3.021967411041259766e-01
-1.903557479381561279e-01 3.126002848148345947e-01 2.558206319808959961e-01
-7.043094635009765625e-01 -1.546412408351898193e-01 1.441621333360671997e-01
-1.686280965805053711e-01 -1.217835620045661926e-01 2.201592177152633667e-01
2.834940552711486816e-01 1.548495590686798096e-01 -1.997137516736984253e-01
1.147128641605377197e-01 -1.720578521490097046e-01 -6.586392968893051147e-02
4.863270521163940430e-01 1.613293439149856567e-01 1.279776692390441895e-01
6.012780070304870605e-01 -1.883379556238651276e-02 -3.250385522842407227e-01
1.291497796773910522e-01 -1.661611646413803101e-01 3.093224465847015381e-01
9.261076897382736206e-02 -1.255453228950500488e-01 -3.635492920875549316e-01
-7.393973469734191895e-01 3.355299681425094604e-02 -3.463182151317596436e-01
-1.518882997334003448e-02 -4.708437994122505188e-02 -3.713595867156982422e-01
3.933711051940917969e-01 -9.168193489313125610e-02 4.249606654047966003e-02
3.318600952625274658e-01 -9.525460191071033478e-03 3.760058879852294922e-01
-8.390057832002639771e-02 -2.148894071578979492e-01 -2.856221199035644531e-01
-5.279718711972236633e-02 2.377715259790420532e-01 -9.813360124826431274e-02
-1.503445357084274292e-01 1.180343031883239746e-01 -3.460864722728729248e-01
-4.049643874168395996e-02 2.435840815305709839e-01 1.442809104919433594e-01
5.509364604949951172e-01 1.366316676139831543e-01 -1.750788390636444092e-01
-5.098719596862792969e-01 1.672568172216415405e-01 -1.285917311906814575e-01
-6.983636617660522461e-01 -2.007808685302734375e-01 -1.316891908645629883e-01
3.470201492309570312e-01 1.279552876949310303e-01 -1.268421411514282227e-01
-4.673840999603271484e-01 9.441129118204116821e-02 -3.073961138725280762e-01
-6.992616057395935059e-01 -1.548801213502883911e-01 -2.511212527751922607e-01
4.389361441135406494e-01 1.764700412750244141e-01 -2.388694882392883301e-01
-2.613918781280517578e-01 1.114734262228012085e-01 3.560731709003448486e-01
-2.279202789068222046e-01 1.007722988724708557e-01 3.109136819839477539e-01
3.500229716300964355e-01 8.522702008485794067e-02 -2.452324181795120239e-01
6.924090385437011719e-01 -1.521287602372467518e-03 -3.652042746543884277e-01
5.155676007270812988e-01 -1.745952963829040527e-01 3.238507360219955444e-02
-2.479427903890609741e-01 3.326334059238433838e-01 1.746028661727905273e-01
-2.344531416893005371e-01 -9.125063661485910416e-04 3.223794996738433838e-01
5.874484777450561523e-01 -1.745952963829040527e-01 1.136885881423950195e-01
-6.700063496828079224e-02 3.339600861072540283e-01 -1.344950646162033081e-01
-4.925587177276611328e-01 -2.204162441194057465e-02 3.036180138587951660e-01
-5.873422697186470032e-02 1.546825170516967773e-01 -6.222469732165336609e-02
-7.957175970077514648e-01 -1.504507809877395630e-01 -2.831609547138214111e-01
6.461160182952880859e-01 7.644250243902206421e-02 3.447328507900238037e-01
4.918519780039787292e-02 -9.843948483467102051e-02 -1.727982312440872192e-01
-6.009758726577274501e-05 5.322404578328132629e-02 -1.943105608224868774e-01
1.813056319952011108e-01 -4.803293198347091675e-02 3.270556628704071045e-01
3.073284775018692017e-02 4.804679006338119507e-02 5.048459768295288086e-02
-8.868891596794128418e-01 -4.579083994030952454e-02 -5.778561159968376160e-02
1.434330940246582031e-01 -3.649293258786201477e-02 3.764326572418212891e-01
-3.785615041851997375e-02 9.220598638057708740e-02 3.657826781272888184e-01
-3.782488405704498291e-01 3.079820871353149414e-01 2.387382090091705322e-01
1.172896102070808411e-01 -1.661159694194793701e-01 1.817092895507812500e-01
7.429687976837158203e-01 -1.704511642456054688e-01 -2.733336389064788818e-01
1.565519571304321289e-01 2.098073251545429230e-02 -3.718018233776092529e-01
-4.427577555179595947e-02 -1.655018925666809082e-01 1.098254397511482239e-01
8.700103759765625000e-01 -1.060503721237182617e-02 -2.364623844623565674e-01
7.162212729454040527e-01 1.124457344412803650e-01 7.102810591459274292e-02
-6.668250560760498047e-01 -1.563092321157455444e-01 -1.838266700506210327e-01
-5.474779605865478516e-01 2.725118398666381836e-01 2.281044237315654755e-02
8.680669218301773071e-02 -1.804368346929550171e-01 -3.465760052204132080e-01
8.488359451293945312e-01 -1.745952963829040527e-01 1.215616315603256226e-01
-3.317124843597412109e-01 -1.715702414512634277e-01 -1.227533165365457535e-02
3.061341345310211182e-01 -1.668338626623153687e-01 1.668369919061660767e-01
9.130311608314514160e-01 -5.575796216726303101e-02 3.017902374267578125e-01
-1.199443638324737549e-01 3.315201401710510254e-01 -1.706556826829910278e-01
1.052096784114837646e-01 -1.720472127199172974e-01 2.448240667581558228e-01
5.436524152755737305e-01 -1.087794080376625061e-01 3.173055946826934814e-01
-1.214351654052734375e-01 -6.638151407241821289e-02 -3.312095999717712402e-02
3.029304742813110352e-01 3.577278926968574524e-02 -3.693889379501342773e-01
4.370851814746856689e-01 1.336181908845901489e-01 5.461017787456512451e-02
-1.843268871307373047e-01 3.341782689094543457e-01 -1.655315309762954712e-01
2.298358380794525146e-01 2.812248766422271729e-01 -1.484114527702331543e-01
-6.322151422500610352e-01 -3.569780662655830383e-02 -3.505617678165435791e-01
6.399635076522827148e-01 -1.746541857719421387e-01 3.121032416820526123e-01
-4.460764527320861816e-01 3.091059625148773193e-01 1.298942714929580688e-01
-5.224336385726928711e-01 2.555530071258544922e-01 -2.461178153753280640e-01
6.737537384033203125e-01 -1.817287355661392212e-01 -2.158451080322265625e-01
-4.303663969039916992e-03 -7.728515565395355225e-02 -3.208220303058624268e-01
-6.990318298339843750e-01 1.866526752710342407e-01 -1.484394520521163940e-01
-8.535525921615771949e-06 -2.050205767154693604e-01 -3.300333321094512939e-01
-2.159021347761154175e-01 -1.370134949684143066e-01 3.590846955776214600e-01
3.506611883640289307e-01 -4.560960829257965088e-02 -3.228882849216461182e-01
-7.674425840377807617e-01 -7.216462492942810059e-02 3.516557812690734863e-01
4.429334998130798340e-01 1.315625458955764771e-01 -1.746385544538497925e-01
8.092080950736999512e-01 -1.982115507125854492e-01 3.378359675407409668e-01
-2.669823765754699707e-01 3.760056570172309875e-02 3.724632859230041504e-01
6.512507796287536621e-01 -1.745952963829040527e-01 -1.350823603570461273e-02
-3.934098482131958008e-01 1.076317974366247654e-03 3.710931837558746338e-01
-3.472162485122680664e-01 -7.628417015075683594e-02 -1.371129043400287628e-02
-5.210711434483528137e-02 -1.718753576278686523e-01 3.288187384605407715e-01
5.586192607879638672e-01 -1.968472301959991455e-01 3.297649621963500977e-01
-4.606011211872100830e-01 1.941906958818435669e-01 -3.045767247676849365e-01
-2.837239503860473633e-01 3.203729391098022461e-01 2.435601651668548584e-01
6.683882474899291992e-01 -2.145620882511138916e-01 3.506188094615936279e-01
3.432941138744354248e-01 9.804077446460723877e-02 2.925786748528480530e-02
-2.318529337644577026e-01 1.900378763675689697e-01 -3.063687682151794434e-01
-6.597136706113815308e-02 -1.129170581698417664e-01 3.240325450897216797e-01
6.585937738418579102e-01 -2.378964126110076904e-01 2.682423889636993408e-01
3.727335631847381592e-01 1.976164430379867554e-01 -2.777142822742462158e-01
-4.990558624267578125e-01 -1.494959443807601929e-01 3.315492868423461914e-01
-6.654897332191467285e-01 -1.363251507282257080e-01 -3.139348030090332031e-01
-3.584001660346984863e-01 -1.697260588407516479e-01 -5.173010006546974182e-02
-7.165033817291259766e-01 1.627322733402252197e-01 -7.260634005069732666e-02
-6.882206201553344727e-01 1.981957852840423584e-01 -7.826114445924758911e-02
5.896858498454093933e-02 3.227317035198211670e-01 2.167344242334365845e-01
-5.995662212371826172e-01 -1.470135897397994995e-02 3.546557426452636719e-01
-3.947962075471878052e-02 2.377184033393859863e-01 -2.815977334976196289e-01
9.864763021469116211e-01 -5.178822576999664307e-02 2.136690542101860046e-03
-5.154653191566467285e-01 -4.823473095893859863e-02 -2.742335200309753418e-01
9.889077395200729370e-02 -1.660460829734802246e-01 -1.080352738499641418e-01
-3.109436035156250000e-01 -6.641014665365219116e-02 -1.808788776397705078e-01
7.706702947616577148e-01 -9.384050220251083374e-02 -3.645167946815490723e-01
-6.833938360214233398e-01 -1.255939900875091553e-01 3.559872508049011230e-01
-9.122250676155090332e-01 -8.592177927494049072e-02 1.020566672086715698e-01
-4.832644164562225342e-01 -2.379524111747741699e-01 3.520574569702148438e-01
-2.956801652908325195e-02 -2.262394316494464874e-02 -5.969266220927238464e-02
4.514505565166473389e-01 3.072491660714149475e-02 -3.682128787040710449e-01
-7.170767337083816528e-02 3.339716494083404541e-01 1.405683755874633789e-01
-4.262517765164375305e-02 -3.286074846982955933e-02 3.275113701820373535e-01
8.344947099685668945e-01 -1.745952963829040527e-01 2.994871512055397034e-02
-7.308840751647949219e-02 1.737983822822570801e-01 3.187538981437683105e-01
7.042272686958312988e-01 -1.058878898620605469e-01 2.687396705150604248e-01
-4.129090011119842529e-01 -1.673552393913269043e-01 1.000135764479637146e-01
-4.570962190628051758e-01 -1.654329597949981689e-01 -8.330205827951431274e-02
-2.126057595014572144e-01 2.661894559860229492e-01 2.764302194118499756e-01
9.919876456260681152e-01 -7.155022770166397095e-02 1.024843975901603699e-01
9.670408964157104492e-01 -1.306245774030685425e-01 2.095372527837753296e-01
-5.731286406517028809e-01 -1.507008671760559082e-01 -2.594413757324218750e-01
6.863069534301757812e-02 -9.843948483467102051e-02 7.744695246219635010e-02
-6.758962571620941162e-02 -1.654132455587387085e-01 -6.505239009857177734e-02
8.542691469192504883e-01 6.669340282678604126e-02 1.842959672212600708e-01
-8.987258076667785645e-01 -3.284182026982307434e-02 -2.326600700616836548e-01
-8.420550823211669922e-01 6.820867420174181461e-04 3.218764960765838623e-01
7.079687714576721191e-01 -1.337126791477203369e-01 -2.158451080322265625e-01
-5.035128593444824219e-01 1.913896352052688599e-01 2.026818841695785522e-01
-4.767073988914489746e-01 2.761567533016204834e-01 -2.403525710105895996e-01
3.804627656936645508e-01 6.777862552553415298e-03 2.306334376335144043e-01
-2.053506523370742798e-01 3.417316973209381104e-01 1.333391014486551285e-02
-5.302111506462097168e-01 2.714613080024719238e-01 -1.444256901741027832e-01
-1.407866030931472778e-01 3.383407592773437500e-01 -6.635095924139022827e-02
-8.809230327606201172e-01 9.808422625064849854e-02 1.098167449235916138e-01
3.785036504268646240e-01 -1.723455786705017090e-01 2.251539677381515503e-01
5.140846222639083862e-02 -4.154804348945617676e-02 -2.224204689264297485e-01
-5.650345087051391602e-01 -4.753509536385536194e-02 -2.594413757324218750e-01
-6.637054085731506348e-01 -1.564448773860931396e-01 5.535953864455223083e-02
1.710582971572875977e-01 3.084773719310760498e-01 1.038342267274856567e-01
2.609611153602600098e-01 -8.289171010255813599e-02 3.730310201644897461e-01
4.492481648921966553e-01 1.336404085159301758e-01 6.750419735908508301e-03
8.643842488527297974e-02 -9.843948483467102051e-02 1.560045480728149414e-01
-3.568919897079467773e-01 2.150387316942214966e-01 3.004848062992095947e-01
3.156418800354003906e-01 1.828571259975433350e-01 4.151249229907989502e-01
6.542102992534637451e-02 -1.594435721635818481e-01 3.177584111690521240e-01
-7.256161570549011230e-01 -1.693388670682907104e-01 -8.905506879091262817e-02
2.309751808643341064e-01 -1.665481477975845337e-01 1.952742189168930054e-01
5.952742695808410645e-01 -7.034211605787277222e-02 2.201205790042877197e-01
-1.598107367753982544e-01 3.363218009471893311e-01 1.451035439968109131e-01
3.294450417160987854e-02 -1.657954156398773193e-01 9.418548084795475006e-03
2.021227627992630005e-01 1.760007888078689575e-01 3.155154585838317871e-01
-8.679712414741516113e-01 1.520089358091354370e-01 -1.832106560468673706e-01
2.691547274589538574e-01 9.013585746288299561e-02 3.593956232070922852e-01
1.371435374021530151e-01 -8.585168421268463135e-02 3.247335255146026611e-01
-8.467784523963928223e-02 1.563538908958435059e-01 1.226893886923789978e-01
6.754733920097351074e-01 -1.437361836433410645e-01 3.463173210620880127e-01
3.475733995437622070e-01 -4.613940045237541199e-02 4.620974510908126831e-02
-5.354492068290710449e-01 -1.969611644744873047e-01 -3.183260858058929443e-01
4.912107586860656738e-01 -1.745952963829040527e-01 -2.100721150636672974e-01
-1.051975935697555542e-01 -9.583870321512222290e-02 -3.659969866275787354e-01
-2.701617777347564697e-02 -8.457378298044204712e-02 3.725781738758087158e-01
-2.819637656211853027e-01 3.140118718147277832e-01 -2.493021935224533081e-01
2.868927419185638428e-01 -1.667606532573699951e-01 -4.459704086184501648e-02
-5.800639465451240540e-02 5.304058641195297241e-02 1.943926811218261719e-01
-2.705229073762893677e-02 -2.927336283028125763e-02 1.099799200892448425e-01
-1.631003469228744507e-01 -2.106178402900695801e-01 3.110556006431579590e-01
-1.339572966098785400e-01 -1.896172314882278442e-01 3.447705209255218506e-01
5.043953061103820801e-01 1.534109115600585938e-01 5.467680096626281738e-02
8.923106193542480469e-01 5.955705419182777405e-02 9.480803459882736206e-02
-5.662239789962768555e-01 1.548061221837997437e-01 -1.032558232545852661e-01
-9.096836298704147339e-02 2.713454365730285645e-01 -2.675548493862152100e-01
-9.042641520500183105e-01 -4.581227153539657593e-02 7.075235247611999512e-02
-4.711312428116798401e-02 1.844319254159927368e-01 -3.100542724132537842e-01
3.552388548851013184e-01 1.954188011586666107e-02 -2.966720797121524811e-02
5.265380740165710449e-01 1.452626734972000122e-01 -9.982427954673767090e-02
3.604885041713714600e-01 1.097933389246463776e-02 -3.166827261447906494e-01
-4.858771562576293945e-01 1.629900783300399780e-01 2.584807276725769043e-01
-6.874896883964538574e-01 1.627081334590911865e-01 -3.383610397577285767e-03
1.618421822786331177e-01 -1.308722198009490967e-01 3.667694926261901855e-01
-2.037399820983409882e-02 3.298864662647247314e-01 -1.675359904766082764e-01
8.272454142570495605e-01 -4.701021127402782440e-03 3.297504782676696777e-01
9.524109363555908203e-01 -1.606736779212951660e-01 -4.256514832377433777e-02
-6.897683739662170410e-01 1.992704272270202637e-01 3.418137505650520325e-02
4.238166511058807373e-01 1.958958357572555542e-01 -5.059867352247238159e-02
-4.659819975495338440e-02 2.770875394344329834e-01 2.687010169029235840e-01
3.576306998729705811e-02 5.127364397048950195e-02 -2.273688912391662598e-01
7.663881182670593262e-01 -1.745952963829040527e-01 -6.538170855492353439e-03
-1.548304557800292969e-01 -1.449213922023773193e-01 -4.908305779099464417e-02
5.861489176750183105e-01 -9.878660738468170166e-02 -3.203402161598205566e-01
-3.808876872062683105e-01 -9.756470471620559692e-02 -3.435152173042297363e-01
-7.526214718818664551e-01 -6.180825829505920410e-02 -3.509064912796020508e-01
-7.808732986450195312e-01 -1.510174423456192017e-01 -1.054360270500183105e-01
-3.901211917400360107e-01 7.266038563102483749e-03 -2.065179497003555298e-01
4.001627564430236816e-01 -6.360061466693878174e-02 -3.214013278484344482e-01
-2.684702575206756592e-01 -1.206881552934646606e-01 3.636063635349273682e-01
-9.078103303909301758e-02 1.295493990182876587e-01 3.316072225570678711e-01
-9.152907133102416992e-01 -5.799783393740653992e-02 4.341327585279941559e-03
7.982009053230285645e-01 8.356436342000961304e-02 -1.926729977130889893e-01
-4.151394069194793701e-01 1.946454644203186035e-01 3.083916604518890381e-01
-8.603318929672241211e-01 -4.547964408993721008e-02 1.634566336870193481e-01
4.957681000232696533e-01 1.472796946763992310e-01 2.446290254592895508e-01
1.820510178804397583e-01 -2.111199200153350830e-01 3.083308339118957520e-01
3.157306909561157227e-01 -1.527848988771438599e-01 -3.549009263515472412e-01
-3.427013456821441650e-01 3.186050355434417725e-01 -2.268494218587875366e-01
6.756008863449096680e-01 -1.745952963829040527e-01 -9.243650734424591064e-02
2.548347413539886475e-01 1.061513423919677734e-01 -1.063243299722671509e-01
3.910199999809265137e-01 -1.291548833250999451e-02 -5.600205808877944946e-02
8.770704865455627441e-01 3.512587398290634155e-02 -2.172123193740844727e-01
-1.149718016386032104e-01 -1.652331650257110596e-01 1.943424642086029053e-01
3.920782506465911865e-01 2.063459455966949463e-01 -1.744985431432723999e-01
8.651567250490188599e-02 1.310150921344757080e-01 3.299735188484191895e-01
2.564462423324584961e-01 -1.976042240858078003e-01 3.436658978462219238e-01
3.188484311103820801e-01 -3.620858117938041687e-02 -3.714030385017395020e-01
2.171727120876312256e-01 -1.721698492765426636e-01 -1.521065980195999146e-01
3.000994920730590820e-01 -5.670516565442085266e-02 2.662839926779270172e-02
-3.452494144439697266e-01 -7.792545109987258911e-02 3.062095344066619873e-01
-3.514009118080139160e-01 3.306047916412353516e-01 5.874985456466674805e-02
4.442958831787109375e-01 -1.481546163558959961e-01 3.600598871707916260e-01
2.182184010744094849e-01 -9.704495221376419067e-02 -1.218300089240074158e-01
-8.838109970092773438e-01 8.308061957359313965e-02 -5.636220425367355347e-02
6.932085156440734863e-01 -4.590071737766265869e-02 3.393518626689910889e-01
-3.907796740531921387e-01 -8.074530214071273804e-02 -2.891241610050201416e-01
-2.840310037136077881e-01 -2.888791449368000031e-02 3.720259070396423340e-01
-7.803915143013000488e-01 1.662362366914749146e-01 -8.672018349170684814e-02
-2.447246164083480835e-01 2.786217927932739258e-01 -2.667051851749420166e-01
-5.371794700622558594e-01 -2.509129047393798828e-01 3.517552614212036133e-01
-6.185044050216674805e-01 1.467438191175460815e-01 2.999412119388580322e-01
2.234931737184524536e-01 -1.172954216599464417e-01 3.689419329166412354e-01
-4.382613301277160645e-01 -1.662523895502090454e-01 -1.798727661371231079e-01
-2.857226133346557617e-01 -1.716204434633255005e-01 -1.202889904379844666e-01
7.011020183563232422e-02 1.757999658584594727e-01 3.160696625709533691e-01
3.681221306324005127e-01 -6.620424240827560425e-02 -4.308866709470748901e-02
3.131208121776580811e-01 -1.668604016304016113e-01 5.518983118236064911e-03
6.451996564865112305e-01 1.220741495490074158e-01 -1.889894455671310425e-01
-4.825006425380706787e-01 2.323335707187652588e-01 -1.682669222354888916e-01
-1.041953563690185547e-01 2.793352864682674408e-02 3.751417100429534912e-01
1.619638353586196899e-01 -1.662857979536056519e-01 -2.422430813312530518e-01
-2.385682910680770874e-01 -1.647633463144302368e-01 -1.727093905210494995e-01
-2.598604857921600342e-01 5.443572066724300385e-03 -3.168893456459045410e-01
-3.372402191162109375e-01 -1.178710758686065674e-01 -3.546614646911621094e-01
3.904406726360321045e-01 1.529358476400375366e-01 -3.202677965164184570e-01
3.623433113098144531e-01 1.296546310186386108e-01 -2.486803829669952393e-01
6.838263273239135742e-01 9.343029558658599854e-02 -3.168449401855468750e-01
2.151479721069335938e-01 -1.721679121255874634e-01 5.770339816808700562e-02
6.632302999496459961e-01 -6.001234799623489380e-02 -2.158451080322265625e-01
1.498087216168642044e-02 2.858623676002025604e-02 3.190580308437347412e-01
-4.546649754047393799e-01 -1.345985680818557739e-01 2.637178599834442139e-01
9.343726038932800293e-01 -1.745952963829040527e-01 2.985538681969046593e-03
2.925006859004497528e-02 3.239589333534240723e-01 -2.129146754741668701e-01
-6.404531598091125488e-01 -1.574564874172210693e-01 -5.876631289720535278e-02
-1.858524531126022339e-01 1.342467665672302246e-01 -3.269522786140441895e-01
1.993922144174575806e-01 -3.978515043854713440e-02 1.251505613327026367e-01
2.498380541801452637e-01 2.447099387645721436e-01 2.846112549304962158e-01
-7.400663197040557861e-02 -3.881333023309707642e-02 -3.227569758892059326e-01
3.715897351503372192e-02 -5.242905765771865845e-02 1.157374754548072815e-01
2.013792991638183594e-01 -1.664356738328933716e-01 -4.141292534768581390e-03
2.359776645898818970e-01 2.540554106235504150e-01 -2.722947001457214355e-01
-3.811560869216918945e-01 1.365148425102233887e-01 -3.334407508373260498e-01
-1.552446782588958740e-01 -1.650800406932830811e-01 -3.088203072547912598e-01
8.464830368757247925e-02 3.037597537040710449e-01 -2.541163861751556396e-01
1.356432121247053146e-02 3.259344398975372314e-01 2.049219459295272827e-01
4.756809175014495850e-01 -1.880482286214828491e-01 3.154372572898864746e-01
1.554608792066574097e-01 2.159356512129306793e-02 -3.155636489391326904e-01
7.253138422966003418e-01 -4.332619160413742065e-02 -3.686077892780303955e-01
8.577228784561157227e-01 -1.745952963829040527e-01 -3.899157047271728516e-02
-3.593327477574348450e-02 -5.394373554736375809e-03 2.366043627262115479e-01
-8.683825731277465820e-01 -8.607124537229537964e-02 3.115538358688354492e-01
-4.550926983356475830e-01 2.004928141832351685e-01 -1.033745780587196350e-01
7.690087705850601196e-02 1.081693395972251892e-01 -3.489347994327545166e-01
6.640530377626419067e-02 -8.564051240682601929e-02 -4.139645397663116455e-02
-2.420471757650375366e-01 -1.716687232255935669e-01 9.414190053939819336e-02
-5.692229866981506348e-01 -2.081914246082305908e-01 -3.205536305904388428e-01
4.719930235296487808e-03 -1.636084467172622681e-01 3.176599144935607910e-01
-3.838258385658264160e-01 -4.992228932678699493e-03 2.792341709136962891e-01
-2.523254156112670898e-01 -1.647110879421234131e-01 3.076144158840179443e-01
-6.532369852066040039e-01 -2.229700535535812378e-01 -2.810676395893096924e-01
1.609327644109725952e-02 3.340508341789245605e-01 1.209301725029945374e-01
-1.578641980886459351e-01 -1.650701016187667847e-01 -2.448548823595046997e-01
7.140439748764038086e-01 -3.398686274886131287e-02 2.702767848968505859e-01
4.778109192848205566e-01 -2.029272764921188354e-01 -2.893964350223541260e-01
6.401122212409973145e-01 -6.001557339914143085e-04 -3.100851476192474365e-01
-2.515384852886199951e-01 -1.716580986976623535e-01 -7.374375313520431519e-02
3.079551756381988525e-01 -1.722683310508728027e-01 -1.237495169043540955e-01
-2.218576222658157349e-01 3.402254879474639893e-01 -5.981374159455299377e-02
1.981051415205001831e-01 -3.995141759514808655e-02 2.153343856334686279e-01
-3.963364064693450928e-01 1.937068812549114227e-02 1.804463416337966919e-01
-6.364239454269409180e-01 -7.464133203029632568e-02 -3.137928545475006104e-01
3.557679951190948486e-01 -1.999562978744506836e-01 -3.375799953937530518e-01
7.520487904548645020e-01 -1.190321445465087891e-01 -2.158451080322265625e-01
-3.161421120166778564e-01 -1.715876311063766479e-01 -2.712770104408264160e-01
6.421263217926025391e-01 -1.066911295056343079e-01 3.161025047302246094e-01
1.867233067750930786e-01 2.721458673477172852e-01 -2.685744464397430420e-01
-4.394450783729553223e-01 7.335951179265975952e-02 3.668573200702667236e-01
6.193771362304687500e-01 -1.521999686956405640e-01 -3.014078140258789062e-01
-3.014223873615264893e-01 -6.321425735950469971e-02 1.674395054578781128e-01
4.721470475196838379e-01 1.703417152166366577e-01 -7.085376977920532227e-02
1.122203096747398376e-01 1.041179075837135315e-01 3.554706871509552002e-01
3.015198111534118652e-01 1.450821161270141602e-01 -3.236066699028015137e-01
4.400803148746490479e-01 -1.693987399339675903e-01 2.580211460590362549e-01
3.586935698986053467e-01 4.413633793592453003e-02 2.673946321010589600e-01
-3.147864937782287598e-01 2.534712851047515869e-01 2.835453152656555176e-01
9.488210082054138184e-01 -9.655518457293510437e-03 1.262087970972061157e-01
-2.109653055667877197e-01 -3.632106631994247437e-02 8.702892810106277466e-02
2.441683858633041382e-01 -1.721988022327423096e-01 -2.365454137325286865e-01
-4.173572957515716553e-01 -1.671617627143859863e-01 4.551513493061065674e-02
4.560272395610809326e-01 -1.018818467855453491e-01 3.517706990242004395e-01
3.750354796648025513e-02 -1.278107762336730957e-01 3.672367930412292480e-01
-8.657070398330688477e-01 8.003046363592147827e-02 -2.490173429250717163e-01
-1.372575461864471436e-01 3.330659568309783936e-01 1.838981658220291138e-01
-5.050557851791381836e-01 2.894290983676910400e-01 -7.537735253572463989e-02
9.552447795867919922e-01 -1.414606869220733643e-01 -1.979738324880599976e-01
-5.233500003814697266e-01 1.440808475017547607e-01 -8.589628338813781738e-02
3.107156455516815186e-01 -5.739620327949523926e-02 -3.244189545512199402e-02
-4.544699490070343018e-01 -1.315043866634368896e-01 -3.130938112735748291e-01
1.803893297910690308e-01 3.075755536556243896e-01 -9.878341108560562134e-02
-6.541320681571960449e-01 1.685941070318222046e-01 -2.927343249320983887e-01
4.353993535041809082e-01 1.888241767883300781e-01 1.069085225462913513e-01
4.601356387138366699e-01 1.054127067327499390e-01 3.480716943740844727e-01
-3.672107458114624023e-01 -3.734714910387992859e-02 2.932999469339847565e-02
-3.396261036396026611e-01 -7.603780925273895264e-02 2.307879179716110229e-01
5.632683634757995605e-01 -1.468939036130905151e-01 -2.900230586528778076e-01
-3.351749181747436523e-01 1.686462461948394775e-01 -3.147158920764923096e-01
3.932562172412872314e-01 -9.404104948043823242e-02 1.638360768556594849e-01
-1.579501330852508545e-01 -4.106806963682174683e-02 3.740487396717071533e-01
3.585989475250244141e-01 3.733986616134643555e-02 1.313194185495376587e-01
-3.244815170764923096e-01 -6.465100497007369995e-02 3.710912764072418213e-01
9.145905375480651855e-01 -2.463391609489917755e-02 -2.420210242271423340e-01
7.701122164726257324e-01 -1.692365109920501709e-01 -3.233324289321899414e-01
9.879064559936523438e-02 -1.278722882270812988e-01 3.220715224742889404e-01
-1.547705978155136108e-01 1.707858741283416748e-01 -3.139106631278991699e-01
6.201158165931701660e-01 1.312535852193832397e-01 1.826881058514118195e-02
-2.367917001247406006e-01 -9.942472726106643677e-02 -3.629187941551208496e-01
7.894366383552551270e-01 -3.732503950595855713e-02 3.550236225128173828e-01
-5.382068157196044922e-01 1.484673023223876953e-01 -2.131869643926620483e-01
2.704157531261444092e-01 -1.443579047918319702e-01 3.612948358058929443e-01
3.545938730239868164e-01 -1.670180857181549072e-01 -9.183304011821746826e-02
-6.295579671859741211e-01 1.587214022874832153e-01 -5.878436937928199768e-02
-4.890103638172149658e-01 -2.580502331256866455e-01 -2.750503718852996826e-01
-4.793906509876251221e-01 -2.282255142927169800e-01 2.693855762481689453e-01
-6.315267086029052734e-01 -2.014181315898895264e-01 -1.847506910562515259e-01
5.446565747261047363e-01 3.899963572621345520e-02 3.707504272460937500e-01
6.295810341835021973e-01 -1.745952963829040527e-01 -6.965456902980804443e-02
-7.625212073326110840e-01 1.481786221265792847e-01 2.775849997997283936e-01
-4.974260330200195312e-01 -1.636785417795181274e-01 2.630641758441925049e-01
-4.752252995967864990e-01 -1.587018519639968872e-01 3.143172264099121094e-01
-3.079948425292968750e-01 3.378444314002990723e-01 -2.744964137673377991e-02
-6.473065167665481567e-02 -7.964630424976348877e-02 4.677931964397430420e-02
-8.567545413970947266e-01 1.577848196029663086e-01 -3.709514439105987549e-02
-8.542343974113464355e-01 1.294122934341430664e-01 2.700392603874206543e-01
2.881016433238983154e-01 2.601567506790161133e-01 1.010631173849105835e-01
-1.986014991998672485e-01 3.278935253620147705e-01 -2.165528535842895508e-01
4.856212437152862549e-01 -8.941029757261276245e-02 -3.209803998470306396e-01
