1.449809223413467407e-01 2.495849877595901489e-02 3.997970819473266602e-01
-2.772541940212249756e-01 3.460456058382987976e-02 5.299280881881713867e-01
3.508754372596740723e-01 -2.391064763069152832e-01 -7.377347350120544434e-01
2.586938738822937012e-01 2.495849877595901489e-02 5.280115604400634766e-01
-3.577934503555297852e-01 -8.957725018262863159e-02 7.284708619117736816e-01
-3.346846699714660645e-01 3.460456058382987976e-02 4.506951570510864258e-01
-2.728954255580902100e-01 3.460456058382987976e-02 -5.227537155151367188e-01
-3.302393555641174316e-01 3.460456058382987976e-02 -5.733046531677246094e-01
6.063401699066162109e-02 3.460456058382987976e-02 -2.297472655773162842e-01
3.643547594547271729e-01 -5.062583684921264648e-01 -7.377347350120544434e-01
1.674601584672927856e-01 3.460456058382987976e-02 1.988830119371414185e-01
-1.356959939002990723e-01 3.460456058382987976e-02 -1.582804769277572632e-01
3.658936619758605957e-01 2.495849877595901489e-02 2.653256654739379883e-01
2.311873435974121094e-02 3.460456058382987976e-02 -6.114133000373840332e-01
-7.193984836339950562e-02 3.460456058382987976e-02 -3.932015001773834229e-01
1.961902678012847900e-01 3.460456058382987976e-02 1.167593672871589661e-01
-3.594495058059692383e-01 -1.978295389562845230e-03 4.546658601611852646e-03
3.020636439323425293e-01 3.460456058382987976e-02 5.223596096038818359e-01
-3.581869304180145264e-01 2.495849877595901489e-02 1.898647397756576538e-01
-2.130901515483856201e-01 2.495849877595901489e-02 -1.379198431968688965e-01
3.335943520069122314e-01 3.460456058382987976e-02 5.555725693702697754e-01
-3.417364954948425293e-01 -3.810124397277832031e-01 7.284708619117736816e-01
-3.337587118148803711e-01 3.460456058382987976e-02 -6.404538154602050781e-01
3.810914233326911926e-02 2.495849877595901489e-02 -2.538580894470214844e-01
3.242202103137969971e-01 2.495849877595901489e-02 4.602310359477996826e-01
3.366774022579193115e-01 2.495849877595901489e-02 -1.330784410238265991e-01
1.949198096990585327e-01 3.460456058382987976e-02 2.014466673135757446e-01
-3.177542388439178467e-01 -6.432712823152542114e-02 -7.354000806808471680e-01
2.293613404035568237e-01 2.495849877595901489e-02 -1.939906924962997437e-01
-8.026972413063049316e-02 3.460456058382987976e-02 6.751341819763183594e-01
-2.475482821464538574e-01 3.460456058382987976e-02 6.257872581481933594e-01
1.300685107707977295e-01 3.460456058382987976e-02 -2.442906945943832397e-01
-3.296649158000946045e-01 6.457667797803878784e-03 1.202192530035972595e-01
4.424373805522918701e-02 2.495849877595901489e-02 1.392324864864349365e-01
-3.374870419502258301e-01 2.495849877595901489e-02 4.919637143611907959e-01
7.747791707515716553e-02 3.460456058382987976e-02 -3.379105925559997559e-01
1.637869179248809814e-01 2.495849877595901489e-02 6.029853820800781250e-01
-3.406531512737274170e-01 -1.780103594064712524e-01 7.284708619117736816e-01
-2.178791016340255737e-01 3.460456058382987976e-02 3.904666602611541748e-01
-2.179560512304306030e-01 3.460456058382987976e-02 -8.937506377696990967e-02
1.918324083089828491e-01 3.460456058382987976e-02 5.521389245986938477e-01
3.292329609394073486e-01 2.495849877595901489e-02 6.082998514175415039e-01
1.418253183364868164e-01 2.495849877595901489e-02 5.640767812728881836e-01
8.399924635887145996e-02 2.495849877595901489e-02 6.841070055961608887e-01
-2.426893860101699829e-01 3.460456058382987976e-02 -3.642510473728179932e-01
3.794677183032035828e-02 2.495849877595901489e-02 2.339356988668441772e-01
3.477469384670257568e-01 6.457667797803878784e-03 2.702544927597045898e-01
3.107557594776153564e-01 3.460456058382987976e-02 -7.077637910842895508e-01
3.343008458614349365e-01 2.495849877595901489e-02 -4.111444950103759766e-01
-2.369159162044525146e-01 2.495849877595901489e-02 -5.823228955268859863e-01
-5.569479987025260925e-02 2.495849877595901489e-02 7.096351981163024902e-01
2.395801097154617310e-01 2.495849877595901489e-02 -6.497667431831359863e-01
2.174343541264533997e-02 2.495849877595901489e-02 1.045837402343750000e-01
2.373338639736175537e-01 3.460456058382987976e-02 5.372422337532043457e-01
3.450433909893035889e-01 6.457667797803878784e-03 -5.704366564750671387e-01
3.503097295761108398e-01 6.457667797803878784e-03 7.667194306850433350e-02
5.136855691671371460e-02 2.495849877595901489e-02 4.765345752239227295e-01
-1.809071451425552368e-01 3.460456058382987976e-02 6.364607214927673340e-01
-3.273076117038726807e-01 2.495849877595901489e-02 3.377018272876739502e-01
1.563267707824707031e-01 2.495849877595901489e-02 2.371988743543624878e-01
-1.082870587706565857e-01 2.495849877595901489e-02 -7.394229993224143982e-03
1.586613506078720093e-01 3.460456058382987976e-02 -2.693327069282531738e-01
-2.508609183132648468e-02 2.495849877595901489e-02 -3.814123570919036865e-01
-2.288375645875930786e-01 3.460456058382987976e-02 -2.205436229705810547e-01
-3.479576706886291504e-01 -2.084092004224658012e-03 -6.552988886833190918e-01
-3.231840729713439941e-01 3.460456058382987976e-02 5.734307765960693359e-01
2.669517882168292999e-02 2.495849877595901489e-02 -4.709672927856445312e-01
-1.759415864944458008e-01 3.460456058382987976e-02 -1.086178943514823914e-01
-2.043044567108154297e-01 3.460456058382987976e-02 6.424553990364074707e-01
3.524912595748901367e-01 3.460456058382987976e-02 2.148542851209640503e-01
-9.628716856241226196e-02 2.495849877595901489e-02 2.787026762962341309e-01
-3.173686265945434570e-01 3.460456058382987976e-02 1.380267292261123657e-01
2.307087481021881104e-01 2.495849877595901489e-02 -4.569563567638397217e-01
3.685255050659179688e-01 1.495129801332950592e-02 -7.102785110473632812e-01
2.225162088871002197e-02 3.460456058382987976e-02 -4.312559068202972412e-01
9.237459301948547363e-02 3.460456058382987976e-02 7.032207846641540527e-01
-2.826586663722991943e-01 3.460456058382987976e-02 -1.398277282714843750e-01
-2.030077725648880005e-01 2.495849877595901489e-02 5.840473771095275879e-01
1.162245720624923706e-01 3.460456058382987976e-02 -6.783525943756103516e-01
3.346969187259674072e-01 3.460456058382987976e-02 -1.569435596466064453e-01
-1.223749369382858276e-01 3.460456058382987976e-02 -5.669208765029907227e-01
-1.137553825974464417e-01 3.460456058382987976e-02 4.492130577564239502e-01
-3.177542388439178467e-01 -1.410401612520217896e-01 7.190827727317810059e-01
2.370313256978988647e-01 2.495849877595901489e-02 5.601481199264526367e-01
-3.428495824337005615e-01 2.495849877595901489e-02 6.650999784469604492e-01
3.276914656162261963e-01 2.495849877595901489e-02 5.060101393610239029e-04
5.957339424639940262e-03 2.495849877595901489e-02 3.862041234970092773e-01
-3.128769695758819580e-01 3.460456058382987976e-02 9.291261434555053711e-02
-3.035299181938171387e-01 3.460456058382987976e-02 -1.087271869182586670e-01
3.377318978309631348e-01 3.460456058382987976e-02 -7.243603467941284180e-01
2.991921901702880859e-01 3.460456058382987976e-02 -4.720891416072845459e-01
-3.372763395309448242e-01 -3.818702101707458496e-01 -7.291902899742126465e-01
-3.382617235183715820e-01 6.457667797803878784e-03 5.991285443305969238e-01
-1.309682726860046387e-01 3.460456058382987976e-02 -2.124521881341934204e-01
-3.369108438491821289e-01 -2.084092004224658012e-03 2.455797344446182251e-01
2.775444686412811279e-01 2.495849877595901489e-02 7.028203010559082031e-01
1.235421970486640930e-01 2.495849877595901489e-02 -6.496644616127014160e-01
9.679165482521057129e-02 2.495849877595901489e-02 -3.659071028232574463e-02
2.844047844409942627e-01 2.495849877595901489e-02 -5.902534723281860352e-01
-8.305530250072479248e-02 2.495849877595901489e-02 -4.778992757201194763e-02
3.241712450981140137e-01 2.495849877595901489e-02 -3.310878574848175049e-01
2.997596561908721924e-01 2.495849877595901489e-02 -6.193578243255615234e-01
2.929072082042694092e-01 3.460456058382987976e-02 1.196220591664314270e-01
1.772496253252029419e-01 2.495849877595901489e-02 -5.842911601066589355e-01
4.142117872834205627e-02 2.495849877595901489e-02 -6.973544359207153320e-01
-3.348298370838165283e-01 -2.853434681892395020e-01 7.284708619117736816e-01
1.999352127313613892e-01 2.495849877595901489e-02 -9.942824393510818481e-02
1.831612437963485718e-01 3.460456058382987976e-02 7.435276359319686890e-02
-1.445988565683364868e-01 3.460456058382987976e-02 2.571774125099182129e-01
-3.453939855098724365e-01 -2.084092004224658012e-03 -5.271465182304382324e-01
-3.424088954925537109e-01 6.457667797803878784e-03 -4.347621500492095947e-01
3.693666756153106689e-01 6.455922033637762070e-03 -5.457435846328735352e-01
1.163656171411275864e-02 3.460456058382987976e-02 -9.695901721715927124e-02
1.781747043132781982e-01 3.460456058382987976e-02 -1.213391348719596863e-01
3.495411574840545654e-01 6.457667797803878784e-03 -6.144805550575256348e-01
2.478228211402893066e-01 3.460456058382987976e-02 -1.449917703866958618e-01
1.594788879156112671e-01 2.495849877595901489e-02 -4.190006852149963379e-02
-2.284962497651576996e-02 2.495849877595901489e-02 6.497101187705993652e-01
9.568995237350463867e-02 2.495849877595901489e-02 -6.388974189758300781e-01
-1.972269453108310699e-02 2.495849877595901489e-02 3.244489431381225586e-01
-2.635999917984008789e-01 2.495849877595901489e-02 -7.184749245643615723e-01
-3.335873484611511230e-01 3.460456058382987976e-02 -6.754636764526367188e-01
-1.756731569766998291e-01 2.495849877595901489e-02 3.565156757831573486e-01
-3.594495058059692383e-01 2.656775759533047676e-03 4.347746074199676514e-01
4.024369118269532919e-04 3.460456058382987976e-02 5.321070551872253418e-01
2.781390547752380371e-01 3.460456058382987976e-02 -4.498547315597534180e-01
-8.253067731857299805e-02 2.495849877595901489e-02 -1.886850148439407349e-01
3.140635192394256592e-01 2.495849877595901489e-02 -5.078412890434265137e-01
9.415018558502197266e-02 3.460456058382987976e-02 -2.375903725624084473e-01
6.852277368307113647e-02 2.495849877595901489e-02 1.716200858354568481e-01
-3.204298019409179688e-01 -2.387852370738983154e-01 -7.377347350120544434e-01
2.956146001815795898e-02 2.495849877595901489e-02 -1.658691465854644775e-01
3.517227172851562500e-01 3.460456058382987976e-02 -3.745835125446319580e-01
-3.344521224498748779e-01 -8.116228878498077393e-02 7.284708619117736816e-01
-2.314149029552936554e-02 3.460456058382987976e-02 4.407351613044738770e-01
-6.710386276245117188e-02 3.460456058382987976e-02 -2.300401590764522552e-02
-4.648469015955924988e-02 2.495849877595901489e-02 -3.526498973369598389e-01
-1.560583710670471191e-01 3.460456058382987976e-02 6.535530090332031250e-01
1.005951762199401855e-01 2.495849877595901489e-02 -4.631189405918121338e-01
3.435263335704803467e-01 3.460456058382987976e-02 -5.305592417716979980e-01
-1.568484678864479065e-02 2.495849877595901489e-02 -4.088833630084991455e-01
-2.166187763214111328e-02 3.460456058382987976e-02 -5.953677296638488770e-01
2.268938571214675903e-01 2.495849877595901489e-02 3.793796300888061523e-01
3.691157102584838867e-01 3.460456058382987976e-02 -1.940186768770217896e-01
3.618776500225067139e-01 2.495849877595901489e-02 3.582714200019836426e-01
-1.881216019392013550e-01 2.495849877595901489e-02 5.009950995445251465e-01
-2.819827795028686523e-01 3.460456058382987976e-02 8.089874684810638428e-02
3.410169184207916260e-01 2.495849877595901489e-02 -2.800499089062213898e-02
1.497322618961334229e-01 2.495849877595901489e-02 4.784573912620544434e-01
3.670696616172790527e-01 -5.342679619789123535e-01 7.113821506500244141e-01
-1.342043131589889526e-01 2.495849877595901489e-02 -2.740735709667205811e-01
-3.375683724880218506e-01 -5.086812973022460938e-01 7.113821506500244141e-01
2.443410754203796387e-01 2.495849877595901489e-02 -5.035288929939270020e-01
-3.498812615871429443e-01 -1.426577419042587280e-01 7.284708619117736816e-01
1.677076071500778198e-01 3.460456058382987976e-02 -8.778760209679603577e-03
2.989132702350616455e-01 2.495849877595901489e-02 5.744135975837707520e-01
3.489666879177093506e-01 -2.084092004224658012e-03 4.598550796508789062e-01
-1.034430265426635742e-01 2.495849877595901489e-02 6.428795456886291504e-01
-2.872622609138488770e-01 2.495849877595901489e-02 6.893463134765625000e-01
-2.627850770950317383e-01 3.460456058382987976e-02 3.895783126354217529e-01
3.530727326869964600e-01 3.460456058382987976e-02 3.113211393356323242e-01
-1.893736869096755981e-01 2.495849877595901489e-02 1.513092964887619019e-01
2.315123081207275391e-01 3.460456058382987976e-02 -2.815966606140136719e-01
-1.631888598203659058e-01 3.460456058382987976e-02 4.066486656665802002e-01
9.294362738728523254e-03 2.495849877595901489e-02 -4.015832245349884033e-01
2.994588613510131836e-01 2.495849877595901489e-02 -3.846370279788970947e-01
-1.641926467418670654e-01 2.495849877595901489e-02 5.170442461967468262e-01
-3.566935062408447266e-01 1.486298628151416779e-02 -7.063788175582885742e-01
-2.480265498161315918e-01 2.495849877595901489e-02 -2.528656721115112305e-01
2.921386063098907471e-01 3.460456058382987976e-02 -2.057676166296005249e-01
2.229154556989669800e-01 3.460456058382987976e-02 -3.184697926044464111e-01
1.885027885437011719e-01 2.495849877595901489e-02 -1.974637061357498169e-01
3.428172171115875244e-01 -2.084092004224658012e-03 -7.169280648231506348e-01
-3.196035027503967285e-01 -2.339166589081287384e-02 -7.291902899742126465e-01
-6.261615455150604248e-02 2.495849877595901489e-02 -5.096871256828308105e-01
-3.594495058059692383e-01 2.510101161897182465e-02 -2.625388503074645996e-01
-1.769252568483352661e-01 3.460456058382987976e-02 2.577282488346099854e-01
-3.463042080402374268e-01 -4.664141237735748291e-01 7.113821506500244141e-01
-2.478995360434055328e-03 3.460456058382987976e-02 5.914996266365051270e-01
3.004804626107215881e-02 2.495849877595901489e-02 4.026536643505096436e-02
3.638283908367156982e-01 -3.002071678638458252e-01 -7.462790012359619141e-01
-3.025480210781097412e-01 2.495849877595901489e-02 -3.492057323455810547e-01
1.149759814143180847e-01 3.460456058382987976e-02 -1.951780915260314941e-01
1.865398287773132324e-01 2.495849877595901489e-02 4.663228690624237061e-01
3.392847478389739990e-01 6.457667797803878784e-03 -5.221223831176757812e-01
-3.370153903961181641e-02 3.460456058382987976e-02 -2.688273191452026367e-01
2.918054759502410889e-01 3.460456058382987976e-02 4.518895745277404785e-01
-1.412167847156524658e-01 3.460456058382987976e-02 3.333561718463897705e-01
3.693666756153106689e-01 -2.969273924827575684e-01 7.125747799873352051e-01
-1.849196404218673706e-01 3.460456058382987976e-02 -7.001523673534393311e-02
1.471257656812667847e-01 2.495849877595901489e-02 -3.782969415187835693e-01
-1.541697233915328979e-01 3.460456058382987976e-02 6.625782698392868042e-02
-1.220566630363464355e-01 3.460456058382987976e-02 6.983295083045959473e-01
3.233021199703216553e-01 3.460456058382987976e-02 1.371785700321197510e-01
2.345691025257110596e-01 2.495849877595901489e-02 4.076891541481018066e-01
-3.579237461090087891e-01 3.460456058382987976e-02 -4.287123680114746094e-01
1.204853951930999756e-01 2.495849877595901489e-02 4.046900570392608643e-01
-1.807821094989776611e-01 2.495849877595901489e-02 7.327282428741455078e-02
1.318574845790863037e-01 3.460456058382987976e-02 -4.957601130008697510e-01
-3.068341910839080811e-01 3.460456058382987976e-02 -4.870251417160034180e-01
1.565287560224533081e-01 3.460456058382987976e-02 -3.056305050849914551e-01
6.555349379777908325e-02 2.495849877595901489e-02 5.786734819412231445e-01
3.661772608757019043e-02 2.495849877595901489e-02 2.589593827724456787e-01
-1.859120428562164307e-01 2.495849877595901489e-02 5.424797534942626953e-01
1.805188953876495361e-01 3.460456058382987976e-02 -3.239652216434478760e-01
3.685945868492126465e-01 -2.084092004224658012e-03 2.559690177440643311e-01
1.871064156293869019e-01 2.495849877595901489e-02 3.070472180843353271e-01
7.882891222834587097e-03 3.460456058382987976e-02 8.101942948997020721e-03
3.203907981514930725e-02 3.460456058382987976e-02 4.401581287384033203e-01
-1.684770733118057251e-01 2.495849877595901489e-02 -1.298467665910720825e-01
-1.160156279802322388e-01 2.495849877595901489e-02 -1.233746632933616638e-01
3.411314189434051514e-01 2.495849877595901489e-02 3.825588524341583252e-01
-2.867690920829772949e-01 2.495849877595901489e-02 2.361557334661483765e-01
-3.491188287734985352e-01 -8.780140429735183716e-02 -7.377347350120544434e-01
-9.169846773147583008e-02 2.495849877595901489e-02 6.932346224784851074e-01
8.781841397285461426e-02 2.495849877595901489e-02 -6.971533894538879395e-01
3.199506700038909912e-01 3.460456058382987976e-02 6.953496932983398438e-01
-3.157597780227661133e-01 2.495849877595901489e-02 5.491983890533447266e-01
2.908209562301635742e-01 2.495849877595901489e-02 -1.249686554074287415e-01
-1.394033282995223999e-01 3.460456058382987976e-02 -4.662115275859832764e-01
-1.210353970527648926e-01 3.460456058382987976e-02 -4.510691463947296143e-01
9.633348882198333740e-02 3.460456058382987976e-02 -5.430995225906372070e-01
2.669138610363006592e-01 3.460456058382987976e-02 -2.914744317531585693e-01
3.381524384021759033e-01 2.495849877595901489e-02 2.978444099426269531e-01
2.085101753473281860e-01 2.495849877595901489e-02 2.998021803796291351e-02
-1.283057928085327148e-01 3.460456058382987976e-02 1.665670871734619141e-01
-3.024107515811920166e-01 2.495849877595901489e-02 3.761042356491088867e-01
-3.427577614784240723e-01 6.457667797803878784e-03 7.198268175125122070e-01
3.337936997413635254e-01 -2.084092004224658012e-03 -3.626771867275238037e-01
-1.599073559045791626e-01 2.495849877595901489e-02 1.459616422653198242e-01
-1.638245284557342529e-01 3.460456058382987976e-02 -6.409557163715362549e-02
1.822011917829513550e-01 3.460456058382987976e-02 -2.160423696041107178e-01
-3.307552635669708252e-01 -4.287225306034088135e-01 7.284708619117736816e-01
-7.975462824106216431e-02 2.495849877595901489e-02 3.093013167381286621e-01
-3.062055110931396484e-01 2.495849877595901489e-02 6.123490929603576660e-01
2.875638902187347412e-01 3.460456058382987976e-02 -5.710644721984863281e-01
-3.177830874919891357e-01 -2.084092004224658012e-03 -1.975782215595245361e-02
-3.190718889236450195e-01 -2.084092004224658012e-03 1.900422424077987671e-01
3.462368845939636230e-01 -2.084092004224658012e-03 1.157267484813928604e-02
-3.350939154624938965e-01 2.495849877595901489e-02 4.206989407539367676e-01
-1.369323581457138062e-01 2.495849877595901489e-02 -5.021831020712852478e-03
-2.619998753070831299e-01 3.460456058382987976e-02 -3.930108845233917236e-01
2.884164154529571533e-01 2.495849877595901489e-02 7.624541968107223511e-02
1.514346599578857422e-01 2.495849877595901489e-02 -5.682088136672973633e-01
-3.500762581825256348e-01 6.457667797803878784e-03 1.831757873296737671e-01
7.209720462560653687e-02 3.460456058382987976e-02 5.736502632498741150e-02
2.556405961513519287e-01 3.460456058382987976e-02 1.863515079021453857e-01
2.487435489892959595e-01 3.460456058382987976e-02 3.789783120155334473e-01
7.867020554840564728e-03 2.495849877595901489e-02 -5.515668988227844238e-01
2.007369995117187500e-01 3.460456058382987976e-02 6.608373522758483887e-01
6.812065094709396362e-02 2.495849877595901489e-02 -1.798083931207656860e-01
-2.398240715265274048e-01 2.495849877595901489e-02 3.066895902156829834e-01
-2.201008647680282593e-01 3.460456058382987976e-02 -6.604131460189819336e-01
-3.462368845939636230e-01 2.495849877595901489e-02 -3.299712836742401123e-01
-2.862925529479980469e-01 2.495849877595901489e-02 5.883904173970222473e-02
-2.695920765399932861e-01 3.460456058382987976e-02 -2.938238978385925293e-01
-3.313891887664794922e-01 2.495849877595901489e-02 -3.041493296623229980e-01
3.693666756153106689e-01 3.160634264349937439e-02 6.465229988098144531e-01
3.928123787045478821e-02 2.495849877595901489e-02 -6.238249540328979492e-01
3.098804950714111328e-01 3.460456058382987976e-02 6.131639480590820312e-01
-9.290248155593872070e-02 3.460456058382987976e-02 -1.601122766733169556e-01
-3.467737734317779541e-01 6.457667797803878784e-03 -5.703641176223754883e-01
-2.571331262588500977e-01 3.460456058382987976e-02 -4.785209596157073975e-01
1.152837499976158142e-01 2.495849877595901489e-02 1.061165183782577515e-01
1.033275946974754333e-01 3.460456058382987976e-02 -4.052363634109497070e-01
3.443386256694793701e-01 2.495849877595901489e-02 -2.812678813934326172e-01
1.930766403675079346e-01 2.495849877595901489e-02 -2.581809759140014648e-01
-1.000259816646575928e-01 3.460456058382987976e-02 7.162506580352783203e-01
-1.464726328849792480e-01 2.495849877595901489e-02 -4.006170332431793213e-01
-3.317441940307617188e-01 2.495849877595901489e-02 2.670481801033020020e-01
1.720759719610214233e-01 2.495849877595901489e-02 4.398441612720489502e-01
3.037327826023101807e-01 3.460456058382987976e-02 -4.419048726558685303e-01
-1.788698583841323853e-01 2.495849877595901489e-02 6.130878925323486328e-01
3.517340719699859619e-01 -5.023324489593505859e-01 7.199273705482482910e-01
3.635547161102294922e-01 2.495849877595901489e-02 5.955470800399780273e-01
-3.594495058059692383e-01 2.032809279626235366e-04 3.010087907314300537e-01
-6.375686079263687134e-02 3.460456058382987976e-02 1.961768269538879395e-01
-2.361587136983871460e-01 2.495849877595901489e-02 -5.034204125404357910e-01
-2.702754735946655273e-02 2.495849877595901489e-02 2.962530553340911865e-01
4.873739928007125854e-02 2.495849877595901489e-02 -7.316849231719970703e-01
-2.402350157499313354e-01 3.460456058382987976e-02 -6.683541089296340942e-02
-6.718955934047698975e-02 3.460456058382987976e-02 -2.716935276985168457e-01
3.578293025493621826e-01 3.460456058382987976e-02 -1.762556284666061401e-02
-3.232409060001373291e-01 6.457667797803878784e-03 3.714919388294219971e-01
2.441224902868270874e-01 2.495849877595901489e-02 -1.182179618626832962e-02
-2.579200565814971924e-01 3.460456058382987976e-02 2.972717285156250000e-01
-2.475374378263950348e-02 3.460456058382987976e-02 6.651873886585235596e-02
2.988861501216888428e-01 2.495849877595901489e-02 -2.132732234895229340e-02
3.556678891181945801e-01 -5.625364184379577637e-01 7.113821506500244141e-01
3.082489371299743652e-01 2.495849877595901489e-02 -5.446304678916931152e-01
-1.970891505479812622e-01 2.495849877595901489e-02 4.596050083637237549e-01
-6.030300259590148926e-02 3.460456058382987976e-02 -6.742124259471893311e-02
-1.929516196250915527e-01 2.495849877595901489e-02 1.257400363683700562e-01
7.310631871223449707e-02 2.495849877595901489e-02 6.474944353103637695e-01
-1.847680285573005676e-02 3.460456058382987976e-02 -7.015872597694396973e-01
2.536837458610534668e-01 2.495849877595901489e-02 -5.972764492034912109e-01
1.539138518273830414e-02 2.495849877595901489e-02 1.837624907493591309e-01
-1.420194506645202637e-01 3.460456058382987976e-02 -3.431174755096435547e-01
-2.132143229246139526e-01 3.460456058382987976e-02 2.951146364212036133e-01
1.174250915646553040e-01 2.495849877595901489e-02 4.637320339679718018e-02
1.093625053763389587e-01 3.460456058382987976e-02 6.159977912902832031e-01
2.904362380504608154e-01 3.460456058382987976e-02 -7.984186708927154541e-02
9.613325446844100952e-02 2.495849877595901489e-02 -9.644051641225814819e-02
-2.437779754400253296e-01 3.460456058382987976e-02 -3.219795227050781250e-01
-2.362846285104751587e-01 2.495849877595901489e-02 -1.317328680306673050e-02
-2.717867195606231689e-01 2.495849877595901489e-02 -5.953326821327209473e-01
3.171433508396148682e-02 2.495849877595901489e-02 6.090098619461059570e-01
3.479943871498107910e-01 -2.084092004224658012e-03 -6.424456238746643066e-01
6.506402045488357544e-02 3.460456058382987976e-02 3.962025344371795654e-01
-2.456080317497253418e-01 2.495849877595901489e-02 6.846430152654647827e-02
7.086600363254547119e-02 3.460456058382987976e-02 -4.662106931209564209e-01
-1.581437438726425171e-01 3.460456058382987976e-02 -2.150630652904510498e-01
-2.509195171296596527e-02 2.495849877595901489e-02 -1.299840509891510010e-01
-1.890903860330581665e-01 2.495849877595901489e-02 -2.629139423370361328e-01
-3.371757864952087402e-01 -2.613808512687683105e-01 -7.291902899742126465e-01
-3.366135358810424805e-01 2.495849877595901489e-02 -1.674552708864212036e-01
1.868825703859329224e-01 3.460456058382987976e-02 -7.729167491197586060e-02
-8.050318062305450439e-02 2.495849877595901489e-02 6.329422444105148315e-02
2.126424610614776611e-01 2.495849877595901489e-02 2.560870349407196045e-01
-7.906431704759597778e-02 3.460456058382987976e-02 -1.202076897025108337e-01
2.832550108432769775e-01 3.460456058382987976e-02 3.920221924781799316e-01
3.537180125713348389e-01 2.495849877595901489e-02 6.806960701942443848e-01
2.440577894449234009e-01 2.495849877595901489e-02 -4.068889319896697998e-01
1.782533973455429077e-01 2.495849877595901489e-02 -4.182933568954467773e-01
-1.504218112677335739e-02 2.495849877595901489e-02 -3.387027680873870850e-01
-9.321288019418716431e-02 3.460456058382987976e-02 2.540586516261100769e-03
5.361604318022727966e-02 3.460456058382987976e-02 -2.984746694564819336e-01
1.483498811721801758e-01 2.495849877595901489e-02 1.635994762182235718e-01
-9.706798940896987915e-02 2.495849877595901489e-02 5.081440806388854980e-01
3.463418185710906982e-01 -2.084092004224658012e-03 -4.330929815769195557e-01
3.497982323169708252e-01 -3.881674110889434814e-01 7.113821506500244141e-01
3.432325422763824463e-01 3.460456058382987976e-02 -4.745688438415527344e-01
1.927601099014282227e-01 3.460456058382987976e-02 5.852068662643432617e-01
-3.569846749305725098e-01 3.460456058382987976e-02 -3.508451208472251892e-02
-2.230466008186340332e-01 3.460456058382987976e-02 7.050228714942932129e-01
-3.494327366352081299e-01 -5.527793765068054199e-01 7.284708619117736816e-01
1.976714581251144409e-01 2.495849877595901489e-02 4.145669639110565186e-01
2.910920083522796631e-01 2.495849877595901489e-02 -4.072727859020233154e-01
-3.997184336185455322e-02 2.495849877595901489e-02 -3.100032508373260498e-01
-2.704699337482452393e-01 3.460456058382987976e-02 6.831373572349548340e-01
-3.472202271223068237e-02 3.460456058382987976e-02 1.061506196856498718e-02
-3.414208590984344482e-01 6.457667797803878784e-03 -7.343963384628295898e-01
3.472686707973480225e-01 -1.314377933740615845e-01 7.199273705482482910e-01
3.466810584068298340e-01 6.457667797803878784e-03 3.655916452407836914e-01
2.772611975669860840e-01 3.460456058382987976e-02 -6.732087135314941406e-01
3.482103645801544189e-01 6.457667797803878784e-03 1.514334678649902344e-01
-1.450124233961105347e-01 2.495849877595901489e-02 5.859220027923583984e-01
1.532437354326248169e-01 3.460456058382987976e-02 -6.029686331748962402e-01
4.327632859349250793e-02 2.495849877595901489e-02 -3.630348145961761475e-01
3.487026095390319824e-01 -1.364925503730773926e-01 -7.377347350120544434e-01
1.639014631509780884e-01 2.495849877595901489e-02 -6.513580679893493652e-01
2.517496347427368164e-01 3.460456058382987976e-02 6.931646466255187988e-01
-3.567031323909759521e-01 3.460456058382987976e-02 -1.044637486338615417e-01
8.488682657480239868e-02 2.495849877595901489e-02 -4.502551853656768799e-01
5.151037871837615967e-02 3.460456058382987976e-02 8.036189712584018707e-03
2.125850878655910492e-02 2.495849877595901489e-02 -3.627104163169860840e-01
-3.594495058059692383e-01 2.781068719923496246e-02 -4.557330608367919922e-01
3.507670164108276367e-01 -3.148525655269622803e-01 7.199273705482482910e-01
3.276713490486145020e-01 3.960447385907173157e-03 5.997336506843566895e-01
3.693666756153106689e-01 2.530650794506072998e-02 -1.203126162290573120e-01
-3.569715619087219238e-01 2.495849877595901489e-02 -6.795513629913330078e-01
-3.194802403450012207e-01 1.779738813638687134e-02 -7.038798332214355469e-01
2.962079644203186035e-01 2.495849877595901489e-02 -5.266420245170593262e-01
2.630783244967460632e-02 3.460456058382987976e-02 3.227255642414093018e-01
6.562677025794982910e-02 3.460456058382987976e-02 -4.149305224418640137e-01
1.062033995985984802e-01 3.460456058382987976e-02 1.919579803943634033e-01
4.250032827258110046e-02 3.460456058382987976e-02 4.221635162830352783e-01
3.693666756153106689e-01 3.122424706816673279e-02 -4.728498458862304688e-01
-1.896840929985046387e-01 3.460456058382987976e-02 -3.172666430473327637e-01
5.908576771616935730e-02 2.495849877595901489e-02 4.978945851325988770e-01
2.077223658561706543e-01 3.460456058382987976e-02 6.609746068716049194e-02
-3.386823236942291260e-01 -2.084092004224658012e-03 -5.920940637588500977e-01
3.618181943893432617e-01 6.457667797803878784e-03 -4.159822594374418259e-03
-3.424937129020690918e-01 6.457667797803878784e-03 -3.373894691467285156e-01
-3.456248342990875244e-01 -1.683036237955093384e-02 -7.291902899742126465e-01
-2.472515217959880829e-02 3.460456058382987976e-02 5.654766559600830078e-01
-3.278400897979736328e-01 3.460456058382987976e-02 -1.964861601591110229e-01
2.104437537491321564e-02 3.460456058382987976e-02 4.667914807796478271e-01
-2.637145519256591797e-01 3.460456058382987976e-02 -1.874031871557235718e-01
3.550584316253662109e-01 -2.386381477117538452e-02 7.113821506500244141e-01
-1.155487149953842163e-01 2.495849877595901489e-02 -4.095828533172607422e-01
2.750979959964752197e-01 2.495849877595901489e-02 -3.780792281031608582e-02
1.925502568483352661e-01 2.495849877595901489e-02 -7.113618254661560059e-01
-1.555858552455902100e-02 3.460456058382987976e-02 -8.396488428115844727e-02
1.131065636873245239e-01 3.460456058382987976e-02 -6.990166008472442627e-02
-1.241131797432899475e-01 3.460456058382987976e-02 -7.108853459358215332e-01
-3.177542388439178467e-01 -3.828005194664001465e-01 7.241051793098449707e-01
-2.519795894622802734e-01 3.460456058382987976e-02 -1.157877370715141296e-01
2.735083699226379395e-01 3.460456058382987976e-02 4.163821637630462646e-01
1.456716656684875488e-01 2.495849877595901489e-02 -2.058874070644378662e-01
2.232040017843246460e-01 2.495849877595901489e-02 -3.700988367199897766e-02
6.349373608827590942e-02 3.460456058382987976e-02 6.857210397720336914e-01
-1.743427565088495612e-04 2.495849877595901489e-02 -1.216967403888702393e-01
-1.829886808991432190e-02 3.460456058382987976e-02 -4.341894388198852539e-01
-1.191572397947311401e-01 3.460456058382987976e-02 -4.891157448291778564e-01
-2.014102935791015625e-01 2.495849877595901489e-02 4.283881783485412598e-01
-3.235198259353637695e-01 3.460456058382987976e-02 -7.346690893173217773e-01
1.367224752902984619e-01 3.460456058382987976e-02 -6.211764812469482422e-01
5.867839977145195007e-02 3.460456058382987976e-02 -3.947972357273101807e-01
1.134528145194053650e-01 2.495849877595901489e-02 5.435761809349060059e-01
-1.323961019515991211e-01 2.495849877595901489e-02 -4.362363517284393311e-01
-1.858496293425559998e-02 3.460456058382987976e-02 9.872107207775115967e-02
-3.439005613327026367e-01 -3.986511230468750000e-01 -7.377347350120544434e-01
-2.531765997409820557e-01 2.495849877595901489e-02 -1.649108380079269409e-01
3.433925509452819824e-01 -2.084092004224658012e-03 6.619679927825927734e-01
-5.973579734563827515e-02 3.460456058382987976e-02 -4.089839160442352295e-01
1.036860793828964233e-01 2.495849877595901489e-02 4.761385023593902588e-01
-3.431136310100555420e-01 -1.195419654250144958e-01 7.113821506500244141e-01
2.696903236210346222e-02 2.495849877595901489e-02 3.572825193405151367e-01
5.798843130469322205e-02 2.495849877595901489e-02 5.524764657020568848e-01
3.350292146205902100e-01 2.495849877595901489e-02 3.253032267093658447e-01
-3.452261090278625488e-01 -4.377906620502471924e-01 -7.291902899742126465e-01
-1.775116100907325745e-02 2.495849877595901489e-02 -2.838945090770721436e-01
8.916538208723068237e-02 2.495849877595901489e-02 -6.612306237220764160e-01
9.657830744981765747e-02 3.460456058382987976e-02 4.419610500335693359e-01
1.161157153546810150e-02 2.495849877595901489e-02 -3.249838650226593018e-01
-5.657896399497985840e-02 2.495849877595901489e-02 -9.118185937404632568e-02
3.312239348888397217e-01 -2.084092004224658012e-03 -4.848558306694030762e-01
-2.808469831943511963e-01 3.460456058382987976e-02 -2.748499810695648193e-01
-2.852441966533660889e-01 3.460456058382987976e-02 -2.653235802426934242e-03
-5.522307753562927246e-02 2.495849877595901489e-02 5.035439133644104004e-01
9.353877248940989375e-05 2.495849877595901489e-02 -6.940720081329345703e-01
-3.594495058059692383e-01 3.134489804506301880e-02 2.249410450458526611e-01
-3.313550949096679688e-01 6.457667797803878784e-03 -6.763590574264526367e-01
-2.397340089082717896e-01 3.460456058382987976e-02 6.672421693801879883e-01
1.913028769195079803e-02 2.495849877595901489e-02 7.160504460334777832e-01
2.071837484836578369e-01 2.495849877595901489e-02 -4.673700928688049316e-01
1.414624452590942383e-01 3.460456058382987976e-02 -4.267196953296661377e-01
-3.387627601623535156e-01 3.460456058382987976e-02 1.439846754074096680e-01
7.572366297245025635e-02 2.495849877595901489e-02 -5.887223407626152039e-03
5.878795310854911804e-02 2.495849877595901489e-02 -1.086213886737823486e-01
-1.219342499971389771e-01 2.495849877595901489e-02 -3.601676970720291138e-02
2.305347472429275513e-01 3.460456058382987976e-02 4.726811945438385010e-01
3.008805811405181885e-01 3.460456058382987976e-02 -2.340806573629379272e-01
-1.937114596366882324e-01 3.460456058382987976e-02 3.820263445377349854e-01
-3.397726416587829590e-01 2.495849877595901489e-02 5.643294453620910645e-01
-3.324594199657440186e-01 2.495849877595901489e-02 5.939653515815734863e-01
-1.592512940987944603e-03 2.495849877595901489e-02 -3.595311939716339111e-01
-3.497072756290435791e-01 -2.084092004224658012e-03 6.887918710708618164e-01
-2.069459408521652222e-01 2.495849877595901489e-02 -5.512511730194091797e-02
-1.107064411044120789e-01 3.460456058382987976e-02 6.080358028411865234e-01
-5.049648508429527283e-02 2.495849877595901489e-02 -2.757558524608612061e-01
3.438551127910614014e-01 3.460456058382987976e-02 1.334537416696548462e-01
2.587113678455352783e-01 3.460456058382987976e-02 -2.497642785310745239e-01
-3.534985482692718506e-01 3.460456058382987976e-02 6.083610057830810547e-01
-1.319877803325653076e-01 3.460456058382987976e-02 4.977144896984100342e-01
1.910594552755355835e-01 2.495849877595901489e-02 -5.245313048362731934e-01
3.276713490486145020e-01 -2.976138591766357422e-01 7.128738164901733398e-01
-3.498424962162971497e-02 3.460456058382987976e-02 6.627295017242431641e-01
-3.349749743938446045e-01 3.460456058382987976e-02 -4.822213351726531982e-01
-3.339099884033203125e-01 -4.855287671089172363e-01 7.284708619117736816e-01
-1.610842496156692505e-01 3.324405476450920105e-02 -7.377347350120544434e-01
1.445236355066299438e-01 2.495849877595901489e-02 6.595660448074340820e-01
-2.316906750202178955e-01 2.495849877595901489e-02 5.087473392486572266e-01
-9.185375645756721497e-03 3.460456058382987976e-02 -1.983643174171447754e-01
-3.442713022232055664e-01 2.495849877595901489e-02 -2.249469608068466187e-01
-2.560637593269348145e-01 3.460456058382987976e-02 -6.896993517875671387e-01
-2.400916367769241333e-01 3.460456058382987976e-02 6.477138400077819824e-01
-1.524594426155090332e-01 3.460456058382987976e-02 1.905371248722076416e-01
2.273432910442352295e-01 3.460456058382987976e-02 -4.976303577423095703e-01
-3.571875393390655518e-01 -2.084092004224658012e-03 -1.370306015014648438e-01
-3.455475345253944397e-02 2.495849877595901489e-02 -5.116701722145080566e-01
3.144718408584594727e-01 2.495849877595901489e-02 2.212949097156524658e-01
-9.550688788294792175e-03 3.460456058382987976e-02 6.733950376510620117e-01
-3.335322439670562744e-01 -1.651413589715957642e-01 -7.377347350120544434e-01
-3.478833138942718506e-01 -2.084092004224658012e-03 -1.709186434745788574e-01
-5.811567604541778564e-02 2.495849877595901489e-02 6.112867593765258789e-01
-7.215590029954910278e-02 2.495849877595901489e-02 6.602725386619567871e-01
-1.156309023499488831e-01 2.495849877595901489e-02 3.672652244567871094e-01
3.386770784854888916e-01 2.495849877595901489e-02 -3.900065422058105469e-01
2.254974991083145142e-01 3.460456058382987976e-02 -6.985112428665161133e-01
-3.021291792392730713e-01 3.460456058382987976e-02 6.703146696090698242e-01
-3.440535962581634521e-01 -2.084092004224658012e-03 1.537767797708511353e-01
3.511902093887329102e-01 -2.084092004224658012e-03 -5.385466217994689941e-01
3.398356139659881592e-01 2.495849877595901489e-02 4.472361803054809570e-01
3.100073039531707764e-01 3.460456058382987976e-02 1.565634161233901978e-01
3.518538475036621094e-01 -2.084092004224658012e-03 -4.649157449603080750e-02
3.208573758602142334e-01 3.460456058382987976e-02 -2.794133424758911133e-01
-1.624500155448913574e-01 3.460456058382987976e-02 -6.160902976989746094e-01
-1.825885623693466187e-01 2.495849877595901489e-02 -5.678083300590515137e-01
-2.104399353265762329e-01 2.495849877595901489e-02 4.736466109752655029e-01
2.504581809043884277e-01 3.460456058382987976e-02 6.053698062896728516e-01
-2.659730315208435059e-01 2.495849877595901489e-02 -3.637246787548065186e-01
1.612634807825088501e-01 3.460456058382987976e-02 -4.703771173954010010e-01
-2.011007666587829590e-01 2.495849877595901489e-02 1.219356618821620941e-02
-1.187051981687545776e-01 2.495849877595901489e-02 -6.050504446029663086e-01
-3.367604315280914307e-01 3.460456058382987976e-02 -8.014108240604400635e-02
-1.758506596088409424e-01 2.853555046021938324e-02 7.199273705482482910e-01
-1.953622698783874512e-01 2.495849877595901489e-02 2.506572008132934570e-01
-7.055886089801788330e-02 3.460456058382987976e-02 -6.873254179954528809e-01
3.146161139011383057e-01 2.495849877595901489e-02 2.624148726463317871e-01
1.859496235847473145e-01 2.495849877595901489e-02 -5.564843416213989258e-01
3.092806935310363770e-01 2.495849877595901489e-02 9.474531747400760651e-03
3.693666756153106689e-01 3.240028396248817444e-02 -3.433920145034790039e-01
4.179890826344490051e-02 2.495849877595901489e-02 -5.522261857986450195e-01
-1.901370137929916382e-01 2.495849877595901489e-02 -2.573870308697223663e-02
-2.054769992828369141e-01 3.460456058382987976e-02 -5.050354003906250000e-01
3.865982592105865479e-02 3.460456058382987976e-02 2.991218864917755127e-01
1.025424003601074219e-01 2.495849877595901489e-02 -8.367626578547060490e-04
-2.481655776500701904e-01 3.460456058382987976e-02 5.784356594085693359e-01
3.040198981761932373e-02 3.460456058382987976e-02 -5.861002206802368164e-01
-9.424114227294921875e-02 2.495849877595901489e-02 -1.365199834108352661e-01
3.500281572341918945e-01 3.460456058382987976e-02 1.804836094379425049e-01
3.484735488891601562e-01 2.495849877595901489e-02 -2.114143222570419312e-01
-1.042290925979614258e-01 3.460456058382987976e-02 -6.770725250244140625e-01
5.134049430489540100e-02 2.495849877595901489e-02 -9.031964093446731567e-02
3.533298075199127197e-01 -1.719081103801727295e-01 -7.462790012359619141e-01
1.740887761116027832e-01 2.495849877595901489e-02 6.400421857833862305e-01
2.462410926818847656e-01 3.460456058382987976e-02 7.104798406362533569e-02
2.186922281980514526e-01 2.495849877595901489e-02 2.130758017301559448e-01
-1.968198418617248535e-01 2.495849877595901489e-02 2.005609273910522461e-01
-3.177542388439178467e-01 -2.617028951644897461e-01 7.176357507705688477e-01
-2.294277995824813843e-01 3.460456058382987976e-02 -2.642394900321960449e-01
9.800266474485397339e-02 3.460456058382987976e-02 -2.772965133190155029e-01
1.139013692736625671e-01 3.460456058382987976e-02 3.520537614822387695e-01
-1.784877628087997437e-01 2.495849877595901489e-02 4.548370838165283203e-01
-3.405246138572692871e-01 2.495849877595901489e-02 -1.408647298812866211e-01
1.944406479597091675e-01 2.495849877595901489e-02 4.873059391975402832e-01
2.707366049289703369e-01 2.495849877595901489e-02 4.447240531444549561e-01
-3.023780323565006256e-02 2.495849877595901489e-02 6.311585903167724609e-01
1.359766423702239990e-01 2.495849877595901489e-02 2.083367258310317993e-01
-1.110159754753112793e-01 2.495849877595901489e-02 2.348205596208572388e-01
-3.403602242469787598e-01 6.457667797803878784e-03 4.320211708545684814e-01
3.224583566188812256e-01 2.495849877595901489e-02 1.023514643311500549e-01
1.809831857681274414e-01 2.495849877595901489e-02 -3.479606211185455322e-01
1.565401256084442139e-01 2.495849877595901489e-02 3.385499417781829834e-01
7.305945456027984619e-02 3.460456058382987976e-02 4.668482840061187744e-01
-2.441268414258956909e-01 3.460456058382987976e-02 -4.407201409339904785e-01
4.315208271145820618e-02 2.495849877595901489e-02 -3.432844877243041992e-01
8.290942758321762085e-02 2.495849877595901489e-02 5.478597283363342285e-01
2.706351876258850098e-01 2.495849877595901489e-02 6.228309869766235352e-01
1.988431215286254883e-01 2.495849877595901489e-02 2.224963009357452393e-01
3.575774729251861572e-01 2.495849877595901489e-02 -3.128860592842102051e-01
3.036465495824813843e-02 3.460456058382987976e-02 1.540565788745880127e-01
5.327022820711135864e-02 3.460456058382987976e-02 7.106887698173522949e-01
2.694582939147949219e-01 2.495849877595901489e-02 1.161761675029993057e-02
3.500806391239166260e-01 2.495849877595901489e-02 4.153845310211181641e-01
1.220601424574851990e-01 3.460456058382987976e-02 -4.082162380218505859e-01
1.099553331732749939e-01 3.460456058382987976e-02 -4.787046313285827637e-01
1.264590919017791748e-01 2.845948562026023865e-02 7.199273705482482910e-01
-2.373434752225875854e-01 3.460456058382987976e-02 -6.178093552589416504e-01
1.814731769263744354e-02 2.495849877595901489e-02 2.078243531286716461e-02
-9.893040359020233154e-02 2.495849877595901489e-02 6.139011383056640625e-01
2.553039491176605225e-01 3.460456058382987976e-02 -1.003655716776847839e-01
1.803090572357177734e-01 2.495849877595901489e-02 2.841019332408905029e-01
-3.801272064447402954e-02 2.495849877595901489e-02 4.085163474082946777e-01
3.349286317825317383e-01 2.495849877595901489e-02 4.773486554622650146e-01
-3.266684412956237793e-01 2.495849877595901489e-02 -4.273063689470291138e-02
-3.581205010414123535e-01 -2.084092004224658012e-03 2.684025838971138000e-02
-1.473959684371948242e-01 3.460456058382987976e-02 -2.566534578800201416e-01
1.351888328790664673e-01 3.460456058382987976e-02 -3.627200126647949219e-01
1.158197447657585144e-01 2.495849877595901489e-02 -7.126612067222595215e-01
-1.642704755067825317e-01 3.460456058382987976e-02 6.275045871734619141e-01
3.510371744632720947e-01 3.460456058382987976e-02 -6.711836457252502441e-01
-8.173927664756774902e-02 3.460456058382987976e-02 -6.121888756752014160e-01
-3.169226944446563721e-01 2.495849877595901489e-02 -1.224635764956474304e-01
7.620675116777420044e-02 3.460456058382987976e-02 6.172359585762023926e-01
-1.127599924802780151e-02 2.495849877595901489e-02 -6.546369940042495728e-02
3.594958782196044922e-01 -2.084092004224658012e-03 -1.285011172294616699e-01
-1.293987631797790527e-01 2.495849877595901489e-02 1.231116876006126404e-01
-3.226629495620727539e-01 -4.477208554744720459e-01 7.113821506500244141e-01
-6.193589046597480774e-02 3.460456058382987976e-02 -2.406690567731857300e-01
6.554299592971801758e-02 2.495849877595901489e-02 -5.189414620399475098e-01
-2.175424546003341675e-01 3.460456058382987976e-02 2.586812973022460938e-01
3.303224444389343262e-01 2.495849877595901489e-02 -6.722686886787414551e-01
3.283935785293579102e-01 2.495849877595901489e-02 -1.718393564224243164e-01
-1.900653243064880371e-01 3.460456058382987976e-02 -1.763686090707778931e-01
-2.356769144535064697e-01 3.460456058382987976e-02 -6.935964226722717285e-01
-2.448228597640991211e-01 2.495849877595901489e-02 5.537521839141845703e-01
-2.042030394077301025e-01 3.460456058382987976e-02 9.228744357824325562e-02
8.012245595455169678e-02 2.495849877595901489e-02 -7.144238948822021484e-01
3.693666756153106689e-01 5.497601348906755447e-03 4.099642932415008545e-01
-2.869422137737274170e-01 2.495849877595901489e-02 4.971278607845306396e-01
1.072456464171409607e-01 2.495849877595901489e-02 -5.734060406684875488e-01
-8.013480901718139648e-02 3.460456058382987976e-02 3.553064167499542236e-01
1.307505220174789429e-01 3.460456058382987976e-02 -7.184504270553588867e-01
-3.594495058059692383e-01 2.445155987516045570e-03 2.144599407911300659e-01
1.400966793298721313e-01 2.495849877595901489e-02 -3.217355608940124512e-01
-2.649517655372619629e-01 3.460456058382987976e-02 -4.959681630134582520e-01
-1.827686876058578491e-01 2.495849877595901489e-02 1.101342514157295227e-01
-3.453502655029296875e-01 6.457667797803878784e-03 -2.055682688951492310e-01
3.276713490486145020e-01 -1.709686184767633677e-04 -5.715419650077819824e-01
4.502183943986892700e-02 2.495849877595901489e-02 -1.486125439405441284e-01
-3.503997623920440674e-01 -2.559870183467864990e-01 7.284708619117736816e-01
-3.163342475891113281e-01 3.460456058382987976e-02 -5.242750644683837891e-01
2.990444004535675049e-01 3.460456058382987976e-02 5.479603409767150879e-01
2.642758786678314209e-01 3.460456058382987976e-02 2.984171509742736816e-01
-3.177542388439178467e-01 -3.497125506401062012e-01 7.140411138534545898e-01
2.207998186349868774e-02 3.460456058382987976e-02 3.943777084350585938e-01
1.517083346843719482e-01 2.574543468654155731e-02 -7.377347350120544434e-01
3.229890763759613037e-01 3.460456058382987976e-02 -4.924330711364746094e-01
1.286362856626510620e-01 3.460456058382987976e-02 5.830418691039085388e-02
1.763630211353302002e-01 2.495849877595901489e-02 -2.662374377250671387e-01
-8.740617334842681885e-02 3.460456058382987976e-02 5.646651983261108398e-01
-3.392392992973327637e-01 2.495849877595901489e-02 6.197925806045532227e-01
-2.042205333709716797e-01 2.495849877595901489e-02 -2.501901090145111084e-01
-3.413666486740112305e-01 -2.084092004224658012e-03 -6.894134283065795898e-01
1.573011651635169983e-02 2.495849877595901489e-02 4.350937604904174805e-01
-2.030549943447113037e-01 3.460456058382987976e-02 5.085933804512023926e-01
-3.068691790103912354e-01 3.460456058382987976e-02 1.646041274070739746e-01
-2.719502449035644531e-01 2.495849877595901489e-02 1.948469132184982300e-01
-3.310236930847167969e-01 -3.622301518917083740e-01 -7.377347350120544434e-01
3.537197709083557129e-01 3.460456058382987976e-02 2.808931050822138786e-03
-8.772094547748565674e-02 2.495849877595901489e-02 4.042598977684974670e-02
8.127986639738082886e-02 2.495849877595901489e-02 -4.317796528339385986e-01
8.540926128625869751e-02 3.460456058382987976e-02 5.301904082298278809e-01
5.884828418493270874e-02 2.495849877595901489e-02 -6.728449463844299316e-01
-3.177542388439178467e-01 -2.333479523658752441e-01 7.121742963790893555e-01
-5.211940407752990723e-02 2.495849877595901489e-02 4.435296356678009033e-01
-1.142857689410448074e-02 3.460456058382987976e-02 3.377944827079772949e-01
3.319185227155685425e-02 3.460456058382987976e-02 -7.339006066322326660e-01
-3.345955014228820801e-01 -3.410707786679267883e-02 -7.291902899742126465e-01
9.820639342069625854e-02 2.495849877595901489e-02 2.453637570142745972e-01
-4.788394272327423096e-02 2.495849877595901489e-02 -6.810220479965209961e-01
-3.594495058059692383e-01 -4.723362326622009277e-01 7.227971553802490234e-01
3.428408205509185791e-01 -2.084092004224658012e-03 -8.693549782037734985e-03
-1.984654068946838379e-01 2.495849877595901489e-02 -5.192676186561584473e-01
1.640011370182037354e-01 2.495849877595901489e-02 4.923922121524810791e-01
-3.231394886970520020e-01 2.495849877595901489e-02 3.835381269454956055e-01
1.438407450914382935e-01 3.460456058382987976e-02 -3.427266180515289307e-01
-6.365525722503662109e-02 2.495849877595901489e-02 1.592276096343994141e-01
3.466277420520782471e-01 2.495849877595901489e-02 -9.084357321262359619e-02
-3.384829759597778320e-01 -3.188529014587402344e-01 7.113821506500244141e-01
3.276713490486145020e-01 5.993673694320023060e-04 -2.852384150028228760e-01
8.738866448402404785e-02 2.495849877595901489e-02 -2.643374204635620117e-01
1.946942210197448730e-01 3.460456058382987976e-02 -4.020073115825653076e-01
2.220638096332550049e-01 2.495849877595901489e-02 -4.118798375129699707e-01
-3.179684579372406006e-01 -2.924020886421203613e-01 7.284708619117736816e-01
2.027366906404495239e-01 2.495849877595901489e-02 1.023619547486305237e-01
3.276713490486145020e-01 3.592347493395209312e-03 2.444832772016525269e-01
