2.031986564397811890e-01 7.028556466102600098e-01 4.974302276968955994e-02
-4.152417778968811035e-01 6.373202204704284668e-01 -1.139412373304367065e-01
3.622328042984008789e-01 2.797756791114807129e-01 -8.410318940877914429e-02
-1.844667792320251465e-01 2.190787345170974731e-01 -6.422520428895950317e-02
-4.152417778968811035e-01 -1.883518695831298828e-01 4.973882809281349182e-02
-7.603320479393005371e-02 -9.097506999969482422e-01 4.825790971517562866e-02
-5.733505263924598694e-02 -8.350837230682373047e-02 8.259438909590244293e-03
2.275738567113876343e-01 5.472948551177978516e-01 1.290675252676010132e-01
2.883547246456146240e-01 4.617173075675964355e-01 -4.749479889869689941e-02
-3.295271694660186768e-01 -4.610582888126373291e-01 -1.019685715436935425e-01
3.073273003101348877e-01 -9.097506999969482422e-01 -2.864349808078259230e-04
-1.313404142856597900e-01 5.821200013160705566e-01 -1.222484409809112549e-01
-4.152417778968811035e-01 6.581119894981384277e-01 -7.597561925649642944e-04
-3.969956040382385254e-01 -6.274065375328063965e-01 -1.248303875327110291e-01
2.175304293632507324e-01 2.373016178607940674e-01 1.290675252676010132e-01
-2.465213835239410400e-01 5.280434489250183105e-01 -1.191480383276939392e-01
3.336783647537231445e-01 5.218948721885681152e-01 -1.237599328160285950e-01
1.465047299861907959e-01 -4.401275515556335449e-01 -4.983664676547050476e-02
2.291384935379028320e-01 3.265268802642822266e-01 -1.378209562972187996e-04
4.110009074211120605e-01 7.108774781227111816e-01 -3.122353367507457733e-02
-2.578543722629547119e-01 2.509237825870513916e-01 -2.617170475423336029e-02
-3.007965087890625000e-01 5.261297151446342468e-02 3.169478848576545715e-02
-3.271587491035461426e-01 3.635544776916503906e-01 -7.189171761274337769e-02
-1.798147857189178467e-01 -2.001184523105621338e-01 -9.647457301616668701e-02
-3.046782910823822021e-01 5.915126204490661621e-01 -2.929559908807277679e-02
-1.126149222254753113e-01 -2.800975739955902100e-01 -5.138032138347625732e-02
2.231782823801040649e-01 -9.097506999969482422e-01 -1.022772118449211121e-01
-2.839778959751129150e-01 3.096709549427032471e-01 3.210889175534248352e-02
3.450990319252014160e-01 -5.309762358665466309e-01 -1.351591497659683228e-01
3.932675719261169434e-01 -7.009582519531250000e-01 1.290675252676010132e-01
1.740707606077194214e-01 -2.800975739955902100e-01 -6.027226522564888000e-02
3.009567856788635254e-01 -6.185859069228172302e-02 1.290675252676010132e-01
-3.247539699077606201e-01 -1.164146959781646729e-01 -3.962370380759239197e-02
-2.963072992861270905e-02 3.096709549427032471e-01 3.025816194713115692e-02
2.928258180618286133e-01 3.096709549427032471e-01 3.434891626238822937e-02
-2.645903825759887695e-01 5.062642693519592285e-01 2.783807739615440369e-02
1.537396162748336792e-01 -7.145994156599044800e-02 -1.248303875327110291e-01
1.329038757830858231e-03 6.904997229576110840e-01 1.290675252676010132e-01
-4.152417778968811035e-01 -1.842205598950386047e-02 1.139720901846885681e-01
-1.798147857189178467e-01 -1.460895538330078125e-01 -4.979646205902099609e-02
-1.054471731185913086e-01 2.578845322132110596e-01 5.504997447133064270e-02
-2.329709976911544800e-01 7.427356243133544922e-01 -1.128325462341308594e-01
-1.843138635158538818e-01 -2.272671274840831757e-02 1.290675252676010132e-01
2.608045637607574463e-01 -9.097506999969482422e-01 -2.631269209086894989e-02
-1.847516931593418121e-02 6.208014115691184998e-02 -9.246409684419631958e-02
1.244746446609497070e-01 3.208678364753723145e-01 -1.248303875327110291e-01
8.044194430112838745e-03 4.063828885555267334e-01 1.290675252676010132e-01
1.571145653724670410e-02 8.734768629074096680e-02 1.290675252676010132e-01
-5.281956493854522705e-02 3.379577994346618652e-01 5.504997447133064270e-02
2.132085263729095459e-01 -1.664018929004669189e-01 -8.664262294769287109e-02
8.187769353389739990e-02 6.741342544555664062e-01 5.873884260654449463e-02
-4.152417778968811035e-01 1.174947470426559448e-01 1.975829899311065674e-02
2.053806036710739136e-01 5.444835424423217773e-01 -8.437854051589965820e-02
8.748274296522140503e-02 3.096709549427032471e-01 -5.323151499032974243e-02
-3.503142893314361572e-01 7.427356243133544922e-01 5.004718899726867676e-02
2.618414163589477539e-01 6.987938284873962402e-01 -4.576444998383522034e-02
1.792206913232803345e-01 -7.595254778861999512e-01 1.290675252676010132e-01
4.110009074211120605e-01 5.482189059257507324e-01 1.074766367673873901e-01
1.165898367762565613e-01 5.433655381202697754e-01 1.290675252676010132e-01
-2.673000693321228027e-01 -1.813566237688064575e-01 1.290675252676010132e-01
-3.689679801464080811e-01 3.252979218959808350e-01 -1.183713003993034363e-01
7.689579576253890991e-02 -9.097506999969482422e-01 1.255969554185867310e-01
2.807683050632476807e-01 8.664649724960327148e-02 -1.011675968766212463e-01
-3.753571510314941406e-01 -7.319752573966979980e-01 -1.338164210319519043e-01
9.280489385128021240e-02 -3.406108021736145020e-01 1.290675252676010132e-01
3.601385056972503662e-01 -1.568571329116821289e-01 -1.454860419034957886e-01
4.110009074211120605e-01 3.788957372307777405e-02 -5.126889329403638840e-03
1.105438396334648132e-01 -2.791138291358947754e-01 -1.248303875327110291e-01
-9.909905493259429932e-02 7.427356243133544922e-01 -6.799855083227157593e-02
4.110009074211120605e-01 -8.309884667396545410e-01 8.462068438529968262e-02
7.216434925794601440e-02 -9.097506999969482422e-01 -9.954979270696640015e-02
3.057598471641540527e-01 5.700606703758239746e-01 -1.122135017067193985e-02
4.674322903156280518e-02 -3.255946040153503418e-01 1.386605016887187958e-02
-2.716714441776275635e-01 2.361282706260681152e-02 -2.843532152473926544e-02
-5.081171914935112000e-02 -1.250674724578857422e-01 -1.248303875327110291e-01
3.875678777694702148e-02 -1.370906680822372437e-01 -1.166658550500869751e-01
1.188500970602035522e-01 -1.258868128061294556e-01 -1.248303875327110291e-01
2.807683050632476807e-01 9.475135803222656250e-02 2.824378572404384613e-02
9.460359066724777222e-02 7.427356243133544922e-01 -5.721195600926876068e-03
2.684543728828430176e-01 -7.513944506645202637e-01 -1.351591497659683228e-01
4.110009074211120605e-01 -2.869986295700073242e-01 3.766265884041786194e-02
-2.285539805889129639e-01 -4.075421094894409180e-01 -4.478780180215835571e-02
2.783849537372589111e-01 -2.273702621459960938e-01 -1.322797387838363647e-01
3.087493181228637695e-01 -3.780384361743927002e-01 1.290675252676010132e-01
3.619316220283508301e-01 -2.800975739955902100e-01 -1.057850942015647888e-01
-9.028972685337066650e-02 6.011187434196472168e-01 1.290675252676010132e-01
4.110009074211120605e-01 -8.003388047218322754e-01 3.213117271661758423e-02
4.110009074211120605e-01 -2.483354806900024414e-01 -2.751573733985424042e-02
-4.152417778968811035e-01 -5.520710349082946777e-01 -4.202709347009658813e-02
-2.095767557621002197e-01 -5.256985425949096680e-01 1.290675252676010132e-01
7.414320111274719238e-02 7.427356243133544922e-01 1.245255693793296814e-01
3.711153268814086914e-01 4.620389938354492188e-01 -5.310479551553726196e-02
3.238531351089477539e-01 -5.793517231941223145e-01 1.290675252676010132e-01
1.852461844682693481e-01 -3.069978356361389160e-01 -9.352714405395090580e-04
3.920255303382873535e-01 -5.503273606300354004e-01 -1.248303875327110291e-01
-2.642220556735992432e-01 5.188522934913635254e-01 1.290675252676010132e-01
-9.001874923706054688e-02 -1.817295998334884644e-01 -4.342912696301937103e-03
-2.654603719711303711e-01 7.427356243133544922e-01 1.214149147272109985e-01
-1.862468272447586060e-01 -3.009741902351379395e-01 -2.360541373491287231e-02
-4.152417778968811035e-01 2.837684452533721924e-01 1.821285486221313477e-02
-4.152417778968811035e-01 6.060933470726013184e-01 1.028022691607475281e-01
2.916724085807800293e-01 7.427356243133544922e-01 -8.284503221511840820e-02
-3.366250097751617432e-01 -5.812940001487731934e-01 1.290675252676010132e-01
-1.803621351718902588e-01 -2.644706070423126221e-01 -7.732501626014709473e-02
-2.103073708713054657e-02 -2.799325287342071533e-01 -1.248303875327110291e-01
2.079495042562484741e-01 -2.114430814981460571e-01 1.290675252676010132e-01
7.025869935750961304e-02 4.498565495014190674e-01 5.504997447133064270e-02
9.948404133319854736e-02 1.217989623546600342e-01 -1.248303875327110291e-01
1.476031541824340820e-01 -3.600216507911682129e-01 2.115231193602085114e-02
-8.954385668039321899e-02 9.690251946449279785e-02 1.290675252676010132e-01
3.717755079269409180e-01 4.774328470230102539e-01 1.290675252676010132e-01
3.003814816474914551e-01 4.617173075675964355e-01 6.436544004827737808e-03
-3.280278146266937256e-01 -5.560404658317565918e-01 -1.351591497659683228e-01
3.485901355743408203e-01 -4.610582888126373291e-01 -4.764837399125099182e-02
1.059114187955856323e-01 2.626773118972778320e-01 -1.490471605211496353e-02
-1.550255864858627319e-01 5.381117388606071472e-02 -3.143025934696197510e-02
9.254754334688186646e-02 -8.350837230682373047e-02 2.664109133183956146e-02
2.716638743877410889e-01 2.512426674365997314e-01 -8.878698199987411499e-02
4.085224270820617676e-01 -6.571591496467590332e-01 -1.248303875327110291e-01
-4.152417778968811035e-01 -3.208195567131042480e-01 6.214535981416702271e-02
-1.184600498527288437e-02 -8.976101875305175781e-01 1.290675252676010132e-01
-4.152417778968811035e-01 -6.189090609550476074e-01 1.424061506986618042e-02
3.251044750213623047e-01 -1.322881728410720825e-01 1.290675252676010132e-01
-1.540353149175643921e-01 -2.800975739955902100e-01 4.969845339655876160e-02
-1.803481429815292358e-01 -7.499091029167175293e-01 1.290675252676010132e-01
-2.954386770725250244e-01 -2.713875472545623779e-01 -1.248303875327110291e-01
3.504960536956787109e-01 7.079123258590698242e-01 -1.248303875327110291e-01
3.711153268814086914e-01 3.647871911525726318e-01 -1.023741811513900757e-01
-2.865785062313079834e-01 -3.884492814540863037e-01 1.290675252676010132e-01
4.110009074211120605e-01 -3.843865692615509033e-01 8.646404743194580078e-02
3.628687262535095215e-01 -4.046095609664916992e-01 1.290675252676010132e-01
3.314423561096191406e-01 3.208128213882446289e-01 1.290675252676010132e-01
1.785101741552352905e-01 8.445709943771362305e-02 -1.352282008156180382e-03
-3.210829198360443115e-01 4.234141111373901367e-01 -2.127820253372192383e-02
3.603119552135467529e-01 2.079648375511169434e-01 -7.375457137823104858e-02
-1.041650548577308655e-01 5.062642693519592285e-01 -3.833309933543205261e-02
2.374130785465240479e-01 -8.350837230682373047e-02 -3.346822410821914673e-02
-2.462565451860427856e-01 -1.502308249473571777e-02 -6.920000910758972168e-02
-2.961016297340393066e-01 -2.800975739955902100e-01 -6.078585516661405563e-03
-3.683562874794006348e-01 6.488471627235412598e-01 -5.550576001405715942e-02
1.367917936295270920e-02 -7.899559736251831055e-01 1.290675252676010132e-01
1.452743075788021088e-02 -2.335216403007507324e-01 -8.899407088756561279e-02
-4.152417778968811035e-01 -2.427668869495391846e-01 -1.013392582535743713e-02
-2.242106199264526367e-01 4.298355802893638611e-02 -7.749388366937637329e-02
2.435896396636962891e-01 -6.089178919792175293e-01 -1.351591497659683228e-01
1.971684992313385010e-01 4.943419396877288818e-01 5.504997447133064270e-02
1.700491011142730713e-01 -1.047212928533554077e-01 5.504997447133064270e-02
1.484647393226623535e-01 -2.800975739955902100e-01 5.257422570139169693e-03
2.446349114179611206e-01 1.130824014544487000e-01 -4.094321653246879578e-02
-5.120390653610229492e-02 -5.190324187278747559e-01 -1.351591497659683228e-01
4.110009074211120605e-01 -6.195851564407348633e-01 7.448709011077880859e-02
3.653984665870666504e-01 -3.438995480537414551e-01 -6.458373367786407471e-02
3.415314555168151855e-01 6.583338975906372070e-01 -4.062123969197273254e-02
-2.702186703681945801e-01 -3.577781617641448975e-01 4.654788970947265625e-02
5.935145542025566101e-02 1.130824014544487000e-01 -3.049258515238761902e-02
-3.618188798427581787e-01 -3.889071047306060791e-01 -8.007592707872390747e-02
3.740926384925842285e-01 2.774837017059326172e-01 1.290675252676010132e-01
-3.625200986862182617e-01 2.536465227603912354e-01 5.504997447133064270e-02
1.435376703739166260e-01 2.464504912495613098e-02 -1.058951169252395630e-01
-7.372949272394180298e-02 3.096709549427032471e-01 -6.586091220378875732e-02
-1.794725805521011353e-01 5.601906776428222656e-01 -7.527446746826171875e-02
3.269395232200622559e-01 6.516090631484985352e-01 6.365630775690078735e-02
2.472038269042968750e-01 -5.868505239486694336e-01 1.290675252676010132e-01
-4.152417778968811035e-01 -1.105253398418426514e-01 -5.344467610120773315e-02
4.548069089651107788e-02 -5.377159118652343750e-01 -1.351591497659683228e-01
1.531633436679840088e-01 5.840185284614562988e-01 -1.248303875327110291e-01
-3.395519554615020752e-01 -6.788128614425659180e-02 -1.109163686633110046e-01
-2.276737540960311890e-01 6.398051381111145020e-01 6.365630775690078735e-02
-3.089452087879180908e-01 -9.097506999969482422e-01 -5.258010327816009521e-02
-9.911210834980010986e-02 4.490751624107360840e-01 1.290675252676010132e-01
3.176378458738327026e-02 1.609926521778106689e-01 1.290675252676010132e-01
2.946301102638244629e-01 3.252979218959808350e-01 -7.598387449979782104e-02
7.602852582931518555e-02 5.062642693519592285e-01 -1.147272959351539612e-01
-3.753319680690765381e-01 1.581775695085525513e-01 1.290675252676010132e-01
1.243422329425811768e-01 -8.451934456825256348e-01 -1.351591497659683228e-01
-1.945363283157348633e-01 3.252979218959808350e-01 -8.166147023439407349e-02
2.161942273378372192e-01 -1.488531678915023804e-01 -1.351694017648696899e-01
-2.069929242134094238e-01 -8.350837230682373047e-02 5.092080309987068176e-02
-5.673427507281303406e-02 3.829634487628936768e-01 1.878519169986248016e-02
-3.574867248535156250e-01 2.419899553060531616e-01 1.290675252676010132e-01
-3.882721066474914551e-02 6.208014115691184998e-02 1.772975176572799683e-02
8.111923933029174805e-02 -9.339854866266250610e-02 1.290675252676010132e-01
-1.244356036186218262e-01 7.364276051521301270e-01 1.290675252676010132e-01
-2.075990289449691772e-01 1.287093311548233032e-01 -1.192496791481971741e-01
1.264010965824127197e-01 -4.761266410350799561e-01 1.290675252676010132e-01
-8.065368235111236572e-02 -6.019067764282226562e-01 -1.351591497659683228e-01
-2.417201846837997437e-01 -9.097506999969482422e-01 5.351665243506431580e-02
-2.650389075279235840e-01 4.509549736976623535e-01 -1.037365850061178207e-02
2.590981423854827881e-01 7.427356243133544922e-01 6.549211591482162476e-02
-4.152417778968811035e-01 4.345615208148956299e-01 9.905026294291019440e-03
-6.778996437788009644e-02 2.509237825870513916e-01 -1.745776645839214325e-02
1.689049899578094482e-01 -2.320017367601394653e-01 -1.248303875327110291e-01
4.897915199398994446e-02 -5.299256742000579834e-02 -9.556729346513748169e-02
7.695155590772628784e-02 -2.869072556495666504e-01 1.290675252676010132e-01
4.110009074211120605e-01 -4.939467310905456543e-01 -9.250325709581375122e-02
3.530034124851226807e-01 -8.202149271965026855e-01 1.290675252676010132e-01
3.092681430280208588e-02 3.401089608669281006e-01 -5.511590465903282166e-02
3.265557810664176941e-02 -7.821028828620910645e-01 -1.351591497659683228e-01
-1.398741900920867920e-01 -9.062633514404296875e-01 1.290675252676010132e-01
-1.225818917155265808e-01 -6.951546072959899902e-01 1.290675252676010132e-01
7.992318272590637207e-02 -9.097506999969482422e-01 1.613097265362739563e-02
-3.884813785552978516e-01 5.618271231651306152e-01 1.290675252676010132e-01
-1.936318427324295044e-01 7.427356243133544922e-01 -3.454632312059402466e-02
-4.152417778968811035e-01 -8.086469173431396484e-01 -1.758429966866970062e-02
2.081518322229385376e-01 -8.334258794784545898e-01 -1.351591497659683228e-01
1.044847741723060608e-01 6.213212013244628906e-01 1.290675252676010132e-01
3.832875490188598633e-01 8.007924258708953857e-02 -1.248303875327110291e-01
4.110009074211120605e-01 -6.516487151384353638e-02 1.064285635948181152e-01
-1.944048404693603516e-01 4.056384041905403137e-02 -1.820288249291479588e-03
3.339264094829559326e-01 7.427356243133544922e-01 6.135912239551544189e-02
-4.152417778968811035e-01 -1.975443027913570404e-02 -5.512364208698272705e-02
9.459146857261657715e-02 -2.437211200594902039e-02 1.290675252676010132e-01
-9.926689416170120239e-02 5.218948721885681152e-01 -7.197647541761398315e-02
-1.509461253881454468e-01 -3.058453202247619629e-01 1.290675252676010132e-01
-8.815319836139678955e-02 1.459121257066726685e-01 -6.888633966445922852e-02
-6.042146682739257812e-02 -4.190662801265716553e-01 -9.557382017374038696e-02
-3.031099438667297363e-01 5.062642693519592285e-01 -8.231166750192642212e-03
-1.803705245256423950e-01 -4.766870439052581787e-01 -1.271344721317291260e-01
-4.152417778968811035e-01 -2.458355873823165894e-01 -9.950130432844161987e-02
2.861606776714324951e-01 -1.714739501476287842e-01 -1.248303875327110291e-01
-3.195257484912872314e-01 3.091059029102325439e-01 1.290675252676010132e-01
2.803701460361480713e-01 -1.121804341673851013e-01 -5.418606474995613098e-02
1.740213483572006226e-01 -1.342143416404724121e-01 -5.513884499669075012e-02
-5.817869678139686584e-03 -3.349704146385192871e-01 -7.749388366937637329e-02
1.861958205699920654e-02 7.427356243133544922e-01 3.109578043222427368e-02
3.858555257320404053e-01 -6.433113217353820801e-01 1.290675252676010132e-01
3.619684278964996338e-02 6.208014115691184998e-02 -8.254021406173706055e-02
2.680972516536712646e-01 5.327757000923156738e-01 -6.286196410655975342e-02
-3.568423986434936523e-01 -9.097506999969482422e-01 1.158369928598403931e-01
-4.152417778968811035e-01 2.623873353004455566e-01 8.069050312042236328e-02
-3.431922495365142822e-01 7.427356243133544922e-01 1.259037256240844727e-01
-1.015840321779251099e-01 -7.729955911636352539e-01 -1.351591497659683228e-01
-2.624765038490295410e-01 -4.405238330364227295e-01 -1.058951169252395630e-01
-1.698413044214248657e-01 5.161631703376770020e-01 1.290675252676010132e-01
-1.798147857189178467e-01 -1.943382024765014648e-01 1.216613163705915213e-04
-1.693135201930999756e-01 -1.251423358917236328e-01 1.290675252676010132e-01
-3.700608313083648682e-01 5.732058286666870117e-01 -1.222484409809112549e-01
-2.346205115318298340e-01 2.556186616420745850e-01 1.290675252676010132e-01
4.917282238602638245e-02 5.933654308319091797e-01 -1.111774519085884094e-01
-1.455891877412796021e-01 3.884253650903701782e-02 1.851263828575611115e-02
-7.846979051828384399e-02 5.062642693519592285e-01 2.521071210503578186e-02
1.263302266597747803e-01 9.134324640035629272e-02 -2.213130146265029907e-02
-2.982975542545318604e-01 -8.350837230682373047e-02 -7.413025200366973877e-02
1.325673907995223999e-01 6.594229936599731445e-01 3.293280303478240967e-02
-4.152417778968811035e-01 1.576264947652816772e-01 -8.402234315872192383e-02
2.642121165990829468e-02 -1.370906680822372437e-01 -5.770074948668479919e-02
2.274069339036941528e-01 6.002501770853996277e-02 -6.698507070541381836e-02
2.958497703075408936e-01 -8.350837230682373047e-02 5.281843245029449463e-02
-2.936712652444839478e-02 -9.959869086742401123e-02 2.987473644316196442e-02
8.831275627017021179e-03 -6.952068805694580078e-01 1.290675252676010132e-01
-2.646817862987518311e-01 -6.550732851028442383e-01 -1.351591497659683228e-01
2.096959799528121948e-01 4.479907155036926270e-01 1.290675252676010132e-01
4.110009074211120605e-01 1.200375407934188843e-01 1.099271178245544434e-01
1.205046847462654114e-02 -3.856295347213745117e-01 -1.205271333456039429e-01
3.051435053348541260e-01 -3.001135289669036865e-01 -2.263790182769298553e-02
-1.473822742700576782e-01 1.536682546138763428e-01 -5.616109073162078857e-02
-9.778802841901779175e-02 -8.432157039642333984e-01 1.290675252676010132e-01
4.110009074211120605e-01 6.783620119094848633e-01 1.224647648632526398e-02
-4.152417778968811035e-01 2.224896401166915894e-01 -7.525683939456939697e-02
-3.371704816818237305e-01 1.607697755098342896e-01 9.433672763407230377e-03
4.110009074211120605e-01 -5.527367591857910156e-01 -2.840995974838733673e-02
7.161597907543182373e-02 -1.364801079034805298e-01 5.504997447133064270e-02
4.110009074211120605e-01 1.301459036767482758e-02 -8.452969044446945190e-02
-2.741834223270416260e-01 -5.824474692344665527e-01 -1.351591497659683228e-01
-2.254741042852401733e-01 -7.938936948776245117e-01 1.290675252676010132e-01
-3.167097270488739014e-01 6.467967033386230469e-01 1.290675252676010132e-01
-1.967359781265258789e-01 2.943190932273864746e-01 1.290675252676010132e-01
-4.152417778968811035e-01 -5.632930397987365723e-01 1.181513369083404541e-01
3.540607988834381104e-01 -9.097506999969482422e-01 -1.139701381325721741e-01
-1.899551898241043091e-01 -2.622560262680053711e-01 1.290675252676010132e-01
-6.484127789735794067e-02 -2.635335028171539307e-01 -7.146838307380676270e-02
3.628044128417968750e-01 7.028556466102600098e-01 -8.882573456503450871e-04
1.230862289667129517e-01 -8.056798577308654785e-01 1.290675252676010132e-01
-9.824119508266448975e-02 -8.812093734741210938e-01 -1.248303875327110291e-01
3.702257573604583740e-01 -8.337412029504776001e-02 -1.248303875327110291e-01
-3.564228117465972900e-01 4.578513801097869873e-01 5.417272448539733887e-02
2.832430601119995117e-01 1.520737558603286743e-01 -9.642794728279113770e-02
-5.861157551407814026e-02 -7.839938998222351074e-01 1.290675252676010132e-01
-3.753571510314941406e-01 -2.860018312931060791e-01 -8.215641975402832031e-02
-3.757590353488922119e-01 -8.586337566375732422e-01 -1.248303875327110291e-01
1.166038289666175842e-01 7.427356243133544922e-01 6.640619784593582153e-02
-1.614912003278732300e-01 7.427356243133544922e-01 4.731259122490882874e-02
8.447199128568172455e-03 6.682075858116149902e-01 2.216085046529769897e-02
4.110009074211120605e-01 -8.439933657646179199e-01 -9.174051135778427124e-02
4.110009074211120605e-01 -6.702554225921630859e-01 -2.570463903248310089e-02
1.456207633018493652e-01 -1.776296198368072510e-01 -1.227109357714653015e-01
-2.627180218696594238e-01 -2.402595281600952148e-01 -7.146838307380676270e-02
-4.152417778968811035e-01 -8.574169278144836426e-01 6.807975471019744873e-02
-1.666635125875473022e-01 -6.788128614425659180e-02 -7.140190154314041138e-02
-6.905707716941833496e-02 -7.468871772289276123e-02 -1.248303875327110291e-01
8.071567118167877197e-02 6.833012104034423828e-01 1.290675252676010132e-01
-3.511152863502502441e-01 -8.035576343536376953e-01 1.290675252676010132e-01
-3.409608900547027588e-01 1.130824014544487000e-01 -1.057300716638565063e-01
1.770835071802139282e-01 2.903170287609100342e-01 1.290675252676010132e-01
2.872292697429656982e-01 5.632947683334350586e-01 1.290675252676010132e-01
1.807247251272201538e-01 -4.164330661296844482e-01 -1.952407299540936947e-03
-2.413770407438278198e-01 -6.817021369934082031e-01 1.290675252676010132e-01
-2.465213835239410400e-01 5.596694350242614746e-01 -2.956983447074890137e-02
4.044364690780639648e-01 -5.152858495712280273e-01 1.290675252676010132e-01
1.512369066476821899e-01 -2.800975739955902100e-01 -1.175666004419326782e-01
1.377611309289932251e-01 6.594229936599731445e-01 -7.694494724273681641e-02
1.439376771450042725e-01 -3.923860490322113037e-01 -1.204227060079574585e-01
4.544227570295333862e-02 5.534145832061767578e-01 1.290675252676010132e-01
2.528190612792968750e-01 1.697269082069396973e-01 1.290675252676010132e-01
7.781583815813064575e-02 6.243069171905517578e-01 -2.929559908807277679e-02
-4.213162884116172791e-02 7.427356243133544922e-01 -5.137071385979652405e-02
1.697651110589504242e-02 -3.068243861198425293e-01 1.290675252676010132e-01
2.059372663497924805e-01 3.490352928638458252e-01 1.290675252676010132e-01
-3.753571510314941406e-01 -4.453996121883392334e-01 -8.672551810741424561e-02
3.575696051120758057e-01 -2.368704602122306824e-02 -1.179451867938041687e-01
-4.152417778968811035e-01 6.289439797401428223e-01 5.054791644215583801e-02
3.254550993442535400e-01 -4.766870439052581787e-01 -1.322181969881057739e-01
-2.465614527463912964e-01 6.836182475090026855e-01 -1.222484409809112549e-01
-1.015821285545825958e-02 5.062642693519592285e-01 -7.519511133432388306e-02
1.478073596954345703e-01 2.520473897457122803e-01 -1.015927940607070923e-01
3.711153268814086914e-01 6.130139827728271484e-01 -6.356278806924819946e-02
8.883890509605407715e-02 6.972531229257583618e-02 5.295195803046226501e-02
-2.813866138458251953e-01 -5.233823060989379883e-01 1.290675252676010132e-01
-2.735671103000640869e-01 -8.051176667213439941e-01 -1.351591497659683228e-01
-1.076906546950340271e-01 -9.097506999969482422e-01 -5.874024238437414169e-03
2.564360201358795166e-01 4.492346048355102539e-01 -9.072908759117126465e-02
-3.398643434047698975e-01 -1.927763521671295166e-01 -7.835415750741958618e-02
1.992376148700714111e-01 6.581352949142456055e-01 -8.437854051589965820e-02
4.110009074211120605e-01 1.996408700942993164e-01 -7.608597725629806519e-02
4.110009074211120605e-01 -1.332599818706512451e-01 1.094953939318656921e-01
4.078977108001708984e-01 7.427356243133544922e-01 9.972704946994781494e-02
4.110009074211120605e-01 6.185024380683898926e-01 -1.058401092886924744e-01
8.693428337574005127e-02 -2.382258623838424683e-01 -1.248303875327110291e-01
-2.787571251392364502e-01 -2.035004496574401855e-01 -2.793953754007816315e-02
4.110009074211120605e-01 2.627808451652526855e-01 -6.094773113727569580e-02
-2.519258558750152588e-01 3.096709549427032471e-01 -6.853536516427993774e-02
-3.753571510314941406e-01 2.588869035243988037e-01 1.070150174200534821e-03
-2.465213835239410400e-01 6.092226505279541016e-01 -5.948807671666145325e-02
2.027846574783325195e-01 6.883448362350463867e-01 1.290675252676010132e-01
-3.691386282444000244e-01 6.294079869985580444e-02 4.159004613757133484e-02
2.347891628742218018e-01 2.982605695724487305e-01 4.358185455203056335e-02
-2.696205675601959229e-02 -2.185614109039306641e-01 1.290675252676010132e-01
5.871574860066175461e-03 -4.381526112556457520e-01 1.290675252676010132e-01
3.644417822360992432e-01 3.288123309612274170e-01 -5.511590465903282166e-02
3.711153268814086914e-01 -4.188005328178405762e-01 -8.126144856214523315e-02
-4.152417778968811035e-01 1.646282523870468140e-01 4.254021495580673218e-02
-2.331360429525375366e-01 4.509549736976623535e-01 -5.409076809883117676e-02
-1.367187947034835815e-01 5.372794270515441895e-01 -4.995180666446685791e-02
4.110009074211120605e-01 5.226082205772399902e-01 6.987967062741518021e-03
3.166154623031616211e-01 2.426454722881317139e-01 -7.405034452676773071e-02
3.269759118556976318e-01 6.242350935935974121e-01 -1.122135017067193985e-02
-1.453672647476196289e-01 -2.283222824335098267e-01 -6.287706643342971802e-02
-2.239849716424942017e-01 3.096709549427032471e-01 4.556005075573921204e-02
5.497938394546508789e-02 7.427356243133544922e-01 -4.494585469365119934e-02
-4.152417778968811035e-01 -1.440714597702026367e-01 8.677063882350921631e-02
-4.073280990123748779e-01 -3.671436905860900879e-01 -1.248303875327110291e-01
-4.425444453954696655e-02 2.044206112623214722e-01 -3.618137165904045105e-02
9.912131726741790771e-02 7.427356243133544922e-01 -8.511312305927276611e-02
-1.467071920633316040e-01 6.075208783149719238e-01 8.024227805435657501e-03
5.481844022870063782e-02 -6.032177805900573730e-01 -1.351591497659683228e-01
-1.039077043533325195e-01 -3.418920040130615234e-01 1.290675252676010132e-01
1.988180130720138550e-01 3.096709549427032471e-01 -3.272291272878646851e-02
1.770741939544677734e-01 3.096709549427032471e-01 2.245643176138401031e-03
-1.760150492191314697e-01 -4.223475754261016846e-01 1.290675252676010132e-01
-2.843070626258850098e-01 4.509549736976623535e-01 -6.575563549995422363e-02
-2.018775045871734619e-01 -3.658168017864227295e-01 -9.470663964748382568e-02
-4.152417778968811035e-01 3.361255228519439697e-01 6.860417127609252930e-02
4.110009074211120605e-01 6.491157412528991699e-01 6.769316643476486206e-02
2.089546769857406616e-01 7.028556466102600098e-01 -1.157576441764831543e-01
-1.087911892682313919e-02 3.533506989479064941e-01 1.290675252676010132e-01
-1.611806899309158325e-01 -8.481706976890563965e-01 -1.351591497659683228e-01
-3.549588620662689209e-01 -2.355329394340515137e-01 1.290675252676010132e-01
-8.567502349615097046e-02 -5.674154162406921387e-01 1.290675252676010132e-01
8.752405643463134766e-02 -9.097506999969482422e-01 -5.990814417600631714e-02
-9.080471098423004150e-02 -3.923860490322113037e-01 -1.154313888400793076e-02
-2.559400498867034912e-01 7.427356243133544922e-01 4.407605621963739395e-03
-3.750447630882263184e-01 -4.467647373676300049e-01 1.290675252676010132e-01
-1.629146374762058258e-02 -1.507792323827743530e-01 1.290675252676010132e-01
-3.002584874629974365e-01 -3.841516077518463135e-01 -5.597618222236633301e-02
9.160710498690605164e-03 1.941188722848892212e-01 5.472669005393981934e-02
9.155395440757274628e-03 7.427356243133544922e-01 -7.906375825405120850e-02
-1.108302101492881775e-01 3.400539457798004150e-01 -9.298533946275711060e-02
1.212809979915618896e-01 4.177578389644622803e-01 -4.773247987031936646e-02
-4.152417778968811035e-01 -5.082775950431823730e-01 2.376308105885982513e-02
-4.152417778968811035e-01 -2.280267179012298584e-01 8.126694709062576294e-02
-3.795466423034667969e-01 7.427356243133544922e-01 -6.544400751590728760e-02
-2.764520943164825439e-01 -1.365471445024013519e-02 1.290675252676010132e-01
4.110009074211120605e-01 1.406167447566986084e-01 -2.358415350317955017e-02
-4.152417778968811035e-01 5.539404153823852539e-01 -2.809535153210163116e-02
3.925188183784484863e-01 6.963760256767272949e-01 1.290675252676010132e-01
3.302833139896392822e-01 3.096709549427032471e-01 -1.053077634423971176e-02
4.110009074211120605e-01 -8.322961628437042236e-03 2.720848657190799713e-02
1.172024607658386230e-01 -3.411386013031005859e-01 -7.749388366937637329e-02
1.921202242374420166e-01 2.283702231943607330e-02 -1.079968586564064026e-01
4.110009074211120605e-01 -4.396622776985168457e-01 7.931280136108398438e-02
6.689992547035217285e-02 -4.610582888126373291e-01 -1.087465509772300720e-01
2.676375508308410645e-01 -1.259190738201141357e-01 1.290675252676010132e-01
4.110009074211120605e-01 -4.925554990768432617e-01 6.348044425249099731e-02
3.111046552658081055e-01 -8.350837230682373047e-02 -4.124999046325683594e-02
-1.461374610662460327e-01 3.158633708953857422e-01 1.290675252676010132e-01
4.110009074211120605e-01 -7.484059333801269531e-01 -4.472075775265693665e-02
4.110009074211120605e-01 -3.540381193161010742e-01 -4.356824979186058044e-02
-2.535072863101959229e-01 6.931609511375427246e-01 -5.757281556725502014e-02
-3.011700324714183807e-02 -4.096401631832122803e-01 -6.888633966445922852e-02
-2.402310371398925781e-01 -2.035004496574401855e-01 -8.987916260957717896e-02
-3.326794132590293884e-02 -5.691501870751380920e-02 -9.556729346513748169e-02
4.110009074211120605e-01 5.830366015434265137e-01 -5.050667095929384232e-04
4.110009074211120605e-01 -1.731937676668167114e-01 -9.742007404565811157e-02
-3.354668915271759033e-01 7.427356243133544922e-01 -1.083903536200523376e-01
-2.420013770461082458e-02 7.427356243133544922e-01 9.130375087261199951e-02
2.621957659721374512e-01 1.886696368455886841e-01 -4.180423915386199951e-02
1.935617774724960327e-01 6.389454007148742676e-01 1.453971141017973423e-03
-4.404343292117118835e-02 -6.524418592453002930e-01 1.290675252676010132e-01
2.790115773677825928e-01 5.744459629058837891e-01 -6.286196410655975342e-02
4.110009074211120605e-01 -7.509878873825073242e-01 8.580480515956878662e-02
-3.753571510314941406e-01 7.012424468994140625e-01 -3.799452632665634155e-02
1.454678475856781006e-01 -9.097506999969482422e-01 3.101232647895812988e-02
2.906224429607391357e-01 -2.225010097026824951e-01 1.290675252676010132e-01
-3.753571510314941406e-01 4.426636397838592529e-01 -3.805681318044662476e-02
7.353645563125610352e-02 5.062642693519592285e-01 -3.164145629853010178e-03
-1.970427334308624268e-01 1.624397933483123779e-01 1.290675252676010132e-01
-4.689151048660278320e-02 2.366690523922443390e-02 -4.392752051353454590e-02
4.110009074211120605e-01 6.846383213996887207e-01 -9.098392724990844727e-02
-8.125073462724685669e-02 -3.295864462852478027e-01 3.585510328412055969e-02
1.707484424114227295e-01 -3.668359816074371338e-01 1.290675252676010132e-01
3.353045582771301270e-01 4.111943244934082031e-01 1.290675252676010132e-01
1.891783326864242554e-01 7.028556466102600098e-01 -1.256920769810676575e-02
3.006630539894104004e-01 -7.097987532615661621e-01 1.290675252676010132e-01
3.828567564487457275e-01 -5.983998179435729980e-01 -1.248303875327110291e-01
-3.251819610595703125e-01 4.009056985378265381e-01 1.290675252676010132e-01
-3.271587491035461426e-01 4.148803353309631348e-01 -1.072583645582199097e-01
-1.410943549126386642e-02 -8.306201100349426270e-01 -1.351591497659683228e-01
-2.450247853994369507e-01 -3.087200820446014404e-01 -5.822860635817050934e-03
1.456207633018493652e-01 -1.766063421964645386e-01 2.329470962285995483e-02
-9.522509574890136719e-02 5.834208130836486816e-01 -8.205207437276840210e-02
3.106686845421791077e-02 3.096709549427032471e-01 3.901788219809532166e-02
-3.448137938976287842e-01 4.681754708290100098e-01 -1.060909330844879150e-01
3.606690764427185059e-01 5.062642693519592285e-01 -7.899298518896102905e-02
-2.125120908021926880e-01 1.536682546138763428e-01 6.205454468727111816e-03
-3.287653923034667969e-01 1.130824014544487000e-01 -4.843993112444877625e-02
4.110009074211120605e-01 4.505997300148010254e-01 8.086943626403808594e-02
2.819142937660217285e-01 4.251895248889923096e-01 1.290675252676010132e-01
-3.349988162517547607e-01 6.864687204360961914e-01 6.365630775690078735e-02
-3.664634227752685547e-01 -9.097506999969482422e-01 1.903558848425745964e-03
1.174318492412567139e-01 2.879728674888610840e-01 1.290675252676010132e-01
4.110009074211120605e-01 -3.009667396545410156e-01 -3.075609542429447174e-02
-2.978956401348114014e-01 -3.243255615234375000e-01 -5.386222526431083679e-02
1.282892972230911255e-01 -6.896122097969055176e-01 1.290675252676010132e-01
4.110009074211120605e-01 -3.916736841201782227e-01 3.488843142986297607e-02
-3.659776151180267334e-01 3.252979218959808350e-01 -7.674457132816314697e-02
-2.719045281410217285e-01 -9.077263474464416504e-01 1.290675252676010132e-01
2.948399186134338379e-01 8.668471872806549072e-02 1.290675252676010132e-01
3.272024989128112793e-01 -1.121804341673851013e-01 -9.775669127702713013e-02
-2.240334749221801758e-01 1.941188722848892212e-01 -1.071353722363710403e-02
-1.143157109618186951e-01 -6.788128614425659180e-02 -7.908669859170913696e-02
8.927034586668014526e-02 7.028556466102600098e-01 -1.240611299872398376e-01
-1.637678220868110657e-02 1.511291861534118652e-01 -6.888633966445922852e-02
6.805740762501955032e-03 2.146309465169906616e-01 -3.618137165904045105e-02
3.603119552135467529e-01 1.400721967220306396e-01 -9.698089212179183960e-02
1.045491099357604980e-01 -4.187707006931304932e-01 -6.888633966445922852e-02
2.545528486371040344e-02 -2.017828822135925293e-01 -1.248303875327110291e-01
-4.120556116104125977e-01 6.976338624954223633e-01 -1.248303875327110291e-01
-1.130391880869865417e-01 -4.929695129394531250e-01 1.290675252676010132e-01
-3.802422285079956055e-01 -9.097506999969482422e-01 6.025305017828941345e-02
6.047636270523071289e-02 -3.255946040153503418e-01 -4.075317829847335815e-02
2.130266875028610229e-01 -3.026954829692840576e-01 1.564469933509826660e-02
-3.753571510314941406e-01 -2.227574437856674194e-01 -6.695961952209472656e-02
-4.152417778968811035e-01 -6.502692699432373047e-01 5.465666577219963074e-02
1.971116214990615845e-01 -4.709683358669281006e-01 -1.248303875327110291e-01
1.579505503177642822e-01 2.767442762851715088e-01 9.458645246922969818e-03
1.855492293834686279e-01 -2.185240983963012695e-01 3.241547942161560059e-02
2.344264388084411621e-01 7.427356243133544922e-01 1.218261271715164185e-01
-4.152417778968811035e-01 -5.051081776618957520e-01 7.423981279134750366e-02
-1.294904351234436035e-01 3.096709549427032471e-01 -5.388590693473815918e-02
4.110009074211120605e-01 3.827527463436126709e-01 1.162519305944442749e-01
3.711153268814086914e-01 4.956706762313842773e-01 -1.011275965720415115e-02
4.110009074211120605e-01 3.359782099723815918e-01 -6.114308163523674011e-02
2.512907385826110840e-01 3.775347471237182617e-01 -1.101983785629272461e-01
2.490855157375335693e-01 -4.610582888126373291e-01 -1.132167205214500427e-01
7.906859368085861206e-02 -8.110918402671813965e-01 -1.351591497659683228e-01
2.513895928859710693e-01 -9.097506999969482422e-01 9.929718077182769775e-02
2.223325520753860474e-01 1.652688533067703247e-01 -1.015927940607070923e-01
1.031756103038787842e-01 -1.302435994148254395e-01 -7.960755378007888794e-03
1.850298643112182617e-01 -1.905002295970916748e-01 -5.068825557827949524e-02
-6.758034974336624146e-02 5.834208130836486816e-01 2.519355341792106628e-02
-8.664980530738830566e-02 -1.111285388469696045e-01 1.290675252676010132e-01
1.813219115138053894e-02 -2.800975739955902100e-01 1.552177825942635536e-03
-3.753571510314941406e-01 3.798748925328254700e-02 -5.175273865461349487e-02
1.374142616987228394e-01 -5.363984107971191406e-01 -1.351591497659683228e-01
1.992581188678741455e-01 7.427356243133544922e-01 4.390029236674308777e-03
-2.502129375934600830e-01 -8.350837230682373047e-02 -8.498322963714599609e-02
-4.152417778968811035e-01 7.105567455291748047e-01 3.503967449069023132e-02
-4.152417778968811035e-01 -5.130955576896667480e-01 -8.814042061567306519e-02
-3.263671398162841797e-01 2.914788424968719482e-01 5.504997447133064270e-02
-2.485494315624237061e-01 -2.800975739955902100e-01 -6.679391860961914062e-02
1.405323892831802368e-01 4.177578389644622803e-01 -1.628268859349191189e-03
6.268347799777984619e-02 1.042315810918807983e-01 1.290675252676010132e-01
2.572746947407722473e-02 5.062642693519592285e-01 -1.097815707325935364e-01
4.110009074211120605e-01 -2.891535162925720215e-01 -1.176076307892799377e-01
4.110009074211120605e-01 5.713909491896629333e-02 6.202862039208412170e-02
-2.985539734363555908e-01 2.509237825870513916e-01 4.894941300153732300e-02
1.784504950046539307e-01 3.700937926769256592e-01 -5.511590465903282166e-02
-3.499096333980560303e-01 7.028556466102600098e-01 -9.281283617019653320e-02
2.311870902776718140e-01 5.062642693519592285e-01 -5.093926936388015747e-02
-1.464973837137222290e-01 9.660973399877548218e-02 5.504997447133064270e-02
-3.213393390178680420e-01 4.234141111373901367e-01 2.813646197319030762e-02
-7.720445841550827026e-02 3.377545177936553955e-01 1.290675252676010132e-01
-7.618286460638046265e-02 6.454996466636657715e-01 6.365630775690078735e-02
3.018575608730316162e-01 -4.125083684921264648e-01 -7.060810923576354980e-02
2.484523653984069824e-01 3.288924992084503174e-01 1.290675252676010132e-01
-4.152417778968811035e-01 -7.989000082015991211e-01 -7.478035986423492432e-02
-6.570836901664733887e-02 1.941188722848892212e-01 1.401141844689846039e-02
4.110009074211120605e-01 2.415209561586380005e-01 1.125221326947212219e-01
-1.179308295249938965e-01 1.950065642595291138e-01 1.290675252676010132e-01
5.833536386489868164e-02 2.026881128549575806e-01 -6.114019080996513367e-02
1.123686432838439941e-01 6.158187985420227051e-01 -1.248303875327110291e-01
-1.303487922996282578e-02 7.028556466102600098e-01 -9.390389546751976013e-03
-9.001874923706054688e-02 -1.494793891906738281e-01 -6.809449940919876099e-02
4.110009074211120605e-01 -3.955302834510803223e-01 -8.084174990653991699e-02
7.222104817628860474e-02 7.028556466102600098e-01 1.188076846301555634e-02
-1.753697991371154785e-01 2.532166838645935059e-01 5.504997447133064270e-02
1.299210935831069946e-01 6.659510731697082520e-01 1.290675252676010132e-01
-5.090701580047607422e-02 4.616175293922424316e-01 5.504997447133064270e-02
4.110009074211120605e-01 -1.314186602830886841e-01 -3.329804912209510803e-02
-2.456849515438079834e-01 -3.540343940258026123e-01 1.290675252676010132e-01
2.476635128259658813e-01 -4.361534416675567627e-01 -6.372223794460296631e-02
-1.790874749422073364e-01 1.076676622033119202e-01 1.290675252676010132e-01
3.442900627851486206e-02 4.054893180727958679e-02 1.290675252676010132e-01
-2.465213835239410400e-01 6.256477832794189453e-01 -1.070578843355178833e-01
3.711153268814086914e-01 4.196040928363800049e-01 -1.129686906933784485e-01
4.035804569721221924e-01 -7.554860711097717285e-01 -1.248303875327110291e-01
-2.072493582963943481e-01 -5.742633342742919922e-01 1.290675252676010132e-01
1.972076743841171265e-01 5.487066507339477539e-01 -4.275104776024818420e-02
1.802445203065872192e-01 -1.388610303401947021e-01 2.296704798936843872e-02
1.519325226545333862e-01 2.767442762851715088e-01 -3.573407977819442749e-02
3.711153268814086914e-01 2.800209224224090576e-01 8.747398853302001953e-03
1.118623241782188416e-01 -6.184493899345397949e-01 -1.351591497659683228e-01
2.716857194900512695e-02 -8.717980980873107910e-01 -1.248303875327110291e-01
-2.261538505554199219e-01 3.727307319641113281e-01 -1.248303875327110291e-01
-2.858446836471557617e-01 1.941188722848892212e-01 -3.306652233004570007e-02
2.705564908683300018e-02 7.028556466102600098e-01 -1.099344938993453979e-01
2.282107174396514893e-01 -3.184474110603332520e-01 -6.372223794460296631e-02
4.110009074211120605e-01 2.862916290760040283e-01 6.551504880189895630e-02
2.956632971763610840e-01 -2.721922397613525391e-01 1.290675252676010132e-01
3.711153268814086914e-01 -8.010661602020263672e-01 -1.275354325771331787e-01
1.764186620712280273e-01 -4.610582888126373291e-01 -1.688533648848533630e-02
-2.351697087287902832e-01 4.072649776935577393e-01 1.290675252676010132e-01
-4.152417778968811035e-01 -7.030776739120483398e-01 -5.454067885875701904e-02
-4.152417778968811035e-01 -3.393790721893310547e-01 1.215481758117675781e-02
-3.753571510314941406e-01 2.693919241428375244e-01 -4.474947601556777954e-02
3.912655711174011230e-01 -1.725434698164463043e-02 1.290675252676010132e-01
-3.314620256423950195e-01 -3.177508711814880371e-01 -3.068231308134272695e-05
2.449519485235214233e-01 5.062642693519592285e-01 9.803762659430503845e-03
-4.152417778968811035e-01 -1.576933562755584717e-01 -1.739445328712463379e-02
2.341206073760986328e-01 2.697061300277709961e-01 -6.544400751590728760e-02
1.254466641694307327e-02 5.162871479988098145e-01 1.290675252676010132e-01
-5.480288714170455933e-02 1.130824014544487000e-01 -9.135266300290822983e-04
-1.669432371854782104e-01 -6.788128614425659180e-02 -1.166975572705268860e-01
1.143584921956062317e-01 4.790879487991333008e-01 1.290675252676010132e-01
-3.377756476402282715e-01 1.536682546138763428e-01 -2.064656093716621399e-02
-5.991481011733412743e-04 7.028556466102600098e-01 4.769955575466156006e-02
-1.764715462923049927e-02 1.517973747104406357e-02 1.290675252676010132e-01
-1.992414593696594238e-01 5.595976114273071289e-01 1.290675252676010132e-01
-4.152417778968811035e-01 -9.319229423999786377e-02 -1.062942072749137878e-01
-2.719330415129661560e-02 3.252979218959808350e-01 -1.071735098958015442e-01
1.892146915197372437e-01 3.994790017604827881e-01 -8.440497331321239471e-04
-9.286953508853912354e-02 3.037676215171813965e-01 5.504997447133064270e-02
1.666876077651977539e-01 3.939664065837860107e-01 1.290675252676010132e-01
2.329065501689910889e-01 -7.828553915023803711e-01 -1.351591497659683228e-01
-2.869716100394725800e-02 -2.357259690761566162e-01 -7.663238793611526489e-02
2.280736416578292847e-01 -1.997551321983337402e-02 1.290675252676010132e-01
-3.239949643611907959e-01 3.096709549427032471e-01 -2.864726586267352104e-03
-3.448576033115386963e-01 6.934425234794616699e-01 1.290675252676010132e-01
2.238882891833782196e-02 1.287093311548233032e-01 -4.964008461683988571e-03
1.792337447404861450e-01 -9.097506999969482422e-01 9.427351504564285278e-02
-2.235336601734161377e-01 -1.338485330343246460e-01 1.290675252676010132e-01
2.953509092330932617e-01 5.062642693519592285e-01 2.154944278299808502e-02
2.480309158563613892e-01 1.130824014544487000e-01 1.500970032066106796e-02
1.367419660091400146e-01 -1.537333279848098755e-01 -7.660609483718872070e-02
-4.152417778968811035e-01 -6.585233211517333984e-01 -7.315528392791748047e-02
3.267241418361663818e-01 -3.250724673271179199e-01 5.001408979296684265e-02
-2.753853797912597656e-01 -8.167935907840728760e-02 1.290675252676010132e-01
5.703309923410415649e-02 2.520604431629180908e-01 -6.114019080996513367e-02
1.525283455848693848e-01 -6.500859558582305908e-02 -7.810342311859130859e-02
1.251804977655410767e-01 3.378804028034210205e-01 -5.511590465903282166e-02
-7.400008291006088257e-02 -6.788128614425659180e-02 -5.692812055349349976e-02
-4.152417778968811035e-01 8.944011479616165161e-02 6.639994680881500244e-02
-1.538171321153640747e-01 -6.318813562393188477e-01 -1.351591497659683228e-01
-2.893050014972686768e-01 -8.350837230682373047e-02 -3.623312711715698242e-02
1.115919128060340881e-01 -2.550584673881530762e-01 1.290675252676010132e-01
-1.693424284458160400e-01 7.427356243133544922e-01 9.601403027772903442e-02
1.792290806770324707e-01 5.062642693519592285e-01 -6.731347739696502686e-02
2.947452478110790253e-02 -1.370906680822372437e-01 3.415515273809432983e-02
3.858862817287445068e-01 3.136991560459136963e-01 -1.248303875327110291e-01
3.171711862087249756e-01 -2.800975739955902100e-01 1.741029508411884308e-02
-4.152417778968811035e-01 -7.405053377151489258e-01 5.808435752987861633e-02
7.925306446850299835e-03 -5.067147612571716309e-01 1.290675252676010132e-01
3.475588262081146240e-01 -7.125234007835388184e-01 1.290675252676010132e-01
-4.152417778968811035e-01 2.033631950616836548e-01 -2.414157241582870483e-02
-1.293057948350906372e-01 -2.644706070423126221e-01 -8.634768426418304443e-02
-1.511307358741760254e-01 4.303114414215087891e-01 -5.402344465255737305e-02
-2.320115119218826294e-01 2.190787345170974731e-01 -5.538845807313919067e-02
5.776340141892433167e-02 -3.923860490322113037e-01 -1.129118129611015320e-01
-1.511307358741760254e-01 4.722987711429595947e-01 4.136374220252037048e-02
4.110009074211120605e-01 -5.992324948310852051e-01 -3.303920477628707886e-02
-1.903682649135589600e-01 -9.049784541130065918e-01 -1.248303875327110291e-01
-3.374959230422973633e-01 5.312446355819702148e-01 -3.670942038297653198e-02
3.851617574691772461e-01 -2.303522378206253052e-01 1.290675252676010132e-01
2.719034850597381592e-01 -9.097506999969482422e-01 -9.637013077735900879e-02
3.590354025363922119e-01 7.028556466102600098e-01 4.557012021541595459e-02
4.132494702935218811e-02 4.177578389644622803e-01 -1.823990372940897942e-03
3.477653115987777710e-02 2.569483518600463867e-01 3.501888364553451538e-02
4.110009074211120605e-01 -6.402994990348815918e-01 -6.375832110643386841e-02
-3.753571510314941406e-01 -3.141646385192871094e-01 3.902543336153030396e-02
-3.670993745326995850e-01 4.337419271469116211e-01 1.277498900890350342e-02
1.387392729520797729e-01 7.028556466102600098e-01 6.203002110123634338e-02
-4.152417778968811035e-01 2.032037377357482910e-01 -1.216609925031661987e-01
3.845006525516510010e-01 5.180513858795166016e-01 -1.248303875327110291e-01
2.274069339036941528e-01 -6.167536228895187378e-02 -9.460220485925674438e-02
-3.416686356067657471e-01 6.751757860183715820e-01 2.282494306564331055e-02
-3.318312764167785645e-01 -9.097506999969482422e-01 -9.312333911657333374e-02
2.482327073812484741e-02 -8.350837230682373047e-02 -8.336384594440460205e-02
-4.083127379417419434e-01 4.441555142402648926e-01 1.290675252676010132e-01
-6.192280352115631104e-02 -6.743964552879333496e-01 -1.351591497659683228e-01
-1.453514099121093750e-01 -7.955506443977355957e-01 -1.351591497659683228e-01
3.489080965518951416e-01 6.809197068214416504e-01 1.290675252676010132e-01
-9.872980415821075439e-02 1.130824014544487000e-01 -9.971763193607330322e-02
-1.891407370567321777e-02 -4.617299512028694153e-02 1.290675252676010132e-01
-1.339270323514938354e-01 6.172361373901367188e-01 1.290675252676010132e-01
-4.152417778968811035e-01 4.036787748336791992e-01 -4.904583469033241272e-02
-3.368133604526519775e-01 -2.800975739955902100e-01 3.217238932847976685e-02
1.082015186548233032e-01 -2.800975739955902100e-01 3.519035875797271729e-02
