-1.660644821822643280e-02 -3.421772718429565430e-01 -7.419827580451965332e-01
-7.414152473211288452e-02 -1.334155201911926270e-01 -4.970175921916961670e-01
8.653935790061950684e-02 1.459283381700515747e-01 -4.101483523845672607e-01
-9.076273441314697266e-02 -3.618788719177246094e-01 5.046498179435729980e-01
-7.414190471172332764e-02 -1.747603565454483032e-01 -9.928871691226959229e-02
-7.414209842681884766e-02 5.690567567944526672e-02 1.830743551254272461e-01
-1.660644821822643280e-02 1.379348058253526688e-02 1.451011002063751221e-01
-1.660644821822643280e-02 -2.694475650787353516e-01 3.981178402900695801e-01
-7.414190471172332764e-02 -3.006243333220481873e-02 -1.091746389865875244e-01
7.622617483139038086e-02 1.005968451499938965e-01 4.497682750225067139e-01
3.012733161449432373e-01 -6.487006545066833496e-01 3.719427585601806641e-01
-1.660644821822643280e-02 4.479646310210227966e-02 -7.266592383384704590e-01
6.773027777671813965e-02 -1.882124990224838257e-01 -3.500552177429199219e-01
-7.414247095584869385e-02 3.620066344738006592e-01 6.960561275482177734e-01
-1.660644821822643280e-02 3.741560876369476318e-01 -4.848946928977966309e-01
-9.076273441314697266e-02 4.383186995983123779e-01 -7.897234708070755005e-02
8.747649192810058594e-02 -5.372427031397819519e-02 3.025836944580078125e-01
3.142469227313995361e-01 -6.045709848403930664e-01 4.001686871051788330e-01
-7.777848094701766968e-02 -6.487006545066833496e-01 2.511782050132751465e-01
-9.076273441314697266e-02 -1.553416997194290161e-01 -4.240078032016754150e-01
5.721568129956722260e-03 5.415911078453063965e-01 -7.133903503417968750e-01
-1.660644821822643280e-02 2.506096065044403076e-01 -3.116698861122131348e-01
-7.414218783378601074e-02 1.236331760883331299e-01 2.892264723777770996e-01
-7.414209842681884766e-02 6.025112271308898926e-01 1.449634283781051636e-01
-7.414218783378601074e-02 -2.171085588634014130e-02 3.656733632087707520e-01
-1.660644821822643280e-02 -3.946221247315406799e-02 -1.221843287348747253e-01
1.803462766110897064e-02 -6.487006545066833496e-01 -2.986981570720672607e-01
-1.340197399258613586e-02 1.634348332881927490e-01 -7.851449251174926758e-01
-1.660644821822643280e-02 4.554679326247423887e-04 -2.197427600622177124e-01
-6.901066005229949951e-02 -6.487006545066833496e-01 -3.549753725528717041e-01
-4.349879920482635498e-03 -1.576869189739227295e-01 -3.122898638248443604e-01
-7.414171099662780762e-02 3.815135955810546875e-01 -3.401046991348266602e-01
5.948030203580856323e-02 6.320651620626449585e-03 -5.116764903068542480e-01
-1.660644821822643280e-02 -3.137994110584259033e-01 -6.613935530185699463e-02
2.080435305833816528e-01 -4.171144962310791016e-01 -1.691976934671401978e-02
-9.076273441314697266e-02 -2.036196142435073853e-01 -3.926125168800354004e-01
-7.414218783378601074e-02 3.716210126876831055e-01 2.971223294734954834e-01
-9.076273441314697266e-02 -2.773937284946441650e-01 5.827430486679077148e-01
-7.414180785417556763e-02 2.920000553131103516e-01 -1.327966004610061646e-01
-8.484722673892974854e-02 -1.351340413093566895e-01 -7.971690297126770020e-01
-7.414228469133377075e-02 -3.319334089756011963e-01 4.157666563987731934e-01
-7.414256781339645386e-02 -3.509559482336044312e-02 7.714120745658874512e-01
-1.660644821822643280e-02 -2.219302207231521606e-01 -5.078605413436889648e-01
6.961878389120101929e-02 3.903446495532989502e-01 1.776471734046936035e-01
8.352667838335037231e-02 -6.487006545066833496e-01 -4.086871147155761719e-01
6.960929185152053833e-02 3.903683722019195557e-01 -1.220457032322883606e-01
8.747649192810058594e-02 2.057280093431472778e-01 3.131066858768463135e-01
-7.414238154888153076e-02 4.285476803779602051e-01 5.720624327659606934e-01
-9.076273441314697266e-02 2.851657271385192871e-01 -2.053905129432678223e-01
-1.660644821822643280e-02 2.741262018680572510e-01 -4.534310698509216309e-01
-1.660644821822643280e-02 1.901594847440719604e-01 2.386468835175037384e-02
-1.660644821822643280e-02 1.219168081879615784e-01 1.448447555303573608e-01
-7.414180785417556763e-02 -6.355017423629760742e-03 -1.620280593633651733e-01
-1.660644821822643280e-02 5.224762558937072754e-01 3.100009858608245850e-01
-1.660644821822643280e-02 4.503172039985656738e-01 -3.051213622093200684e-01
2.080064862966537476e-01 -6.487006545066833496e-01 -1.566359847784042358e-01
-9.076273441314697266e-02 3.174829781055450439e-01 6.017154455184936523e-01
-7.414152473211288452e-02 -2.431671023368835449e-01 -6.121555566787719727e-01
7.154431939125061035e-02 -6.045709848403930664e-01 1.901374906301498413e-01
2.444851584732532501e-02 -1.075233519077301025e-01 -6.431235671043395996e-01
-9.076273441314697266e-02 3.727480471134185791e-01 -2.347093224525451660e-01
-1.660644821822643280e-02 -2.959227263927459717e-01 4.890641868114471436e-01
-1.660644821822643280e-02 -1.157742813229560852e-01 8.109127730131149292e-02
-7.884503155946731567e-02 -4.190258085727691650e-01 2.636096775531768799e-01
-1.660644821822643280e-02 3.734515905380249023e-01 5.238025784492492676e-01
8.747649192810058594e-02 2.614877521991729736e-01 2.349526584148406982e-01
-1.660644821822643280e-02 3.996590077877044678e-01 3.566694855690002441e-01
8.747649192810058594e-02 3.085503280162811279e-01 -1.330795437097549438e-01
-7.414218783378601074e-02 -3.336659073829650879e-02 2.486260384321212769e-01
-1.660644821822643280e-02 1.899857223033905029e-01 3.637193441390991211e-01
2.565084695816040039e-01 2.404778003692626953e-01 -8.134527504444122314e-02
-9.076273441314697266e-02 2.330187410116195679e-01 3.041294217109680176e-01
-6.693264096975326538e-02 -6.045709848403930664e-01 7.812332827597856522e-03
-9.076273441314697266e-02 -2.724830210208892822e-01 -4.787136018276214600e-01
3.185963258147239685e-02 1.655689626932144165e-01 -6.153153777122497559e-01
-7.414199411869049072e-02 3.163882195949554443e-01 7.739526033401489258e-02
-2.784271165728569031e-02 -6.045709848403930664e-01 -3.566682934761047363e-01
-2.542696520686149597e-02 2.063195258378982544e-01 7.980913519859313965e-01
-7.414152473211288452e-02 -3.758986294269561768e-02 -5.403373241424560547e-01
1.138576120138168335e-01 -6.045709848403930664e-01 2.699652872979640961e-02
3.148631453514099121e-01 -6.045709848403930664e-01 -3.947877883911132812e-01
6.115232780575752258e-02 -6.045709848403930664e-01 -4.386467933654785156e-01
-1.660644821822643280e-02 -5.445251241326332092e-02 6.617058068513870239e-02
-7.414162158966064453e-02 4.717525541782379150e-01 -3.697919249534606934e-01
-9.076273441314697266e-02 -3.052361011505126953e-01 -3.533738106489181519e-02
-7.414180785417556763e-02 5.669439435005187988e-01 -1.388713419437408447e-01
2.080435305833816528e-01 1.340832710266113281e-01 1.255329232662916183e-03
-7.414171099662780762e-02 -2.777478694915771484e-01 -2.960016727447509766e-01
-9.076273441314697266e-02 2.218481898307800293e-01 -4.690954983234405518e-01
2.516129612922668457e-01 -6.487006545066833496e-01 -3.758658468723297119e-02
-1.660644821822643280e-02 -4.153399169445037842e-01 -3.266687095165252686e-01
2.793262004852294922e-01 -6.045709848403930664e-01 -2.465247362852096558e-02
-7.414180785417556763e-02 1.155170723795890808e-01 -1.585824191570281982e-01
2.644954323768615723e-01 -2.487261034548282623e-02 -2.946346066892147064e-02
-1.660644821822643280e-02 4.735935628414154053e-01 -6.486210227012634277e-01
-1.660644821822643280e-02 -1.306867152452468872e-01 -5.702428817749023438e-01
2.478545764461159706e-03 1.993133723735809326e-01 7.264810204505920410e-01
-9.076273441314697266e-02 8.165152370929718018e-02 -3.787444829940795898e-01
-7.414171099662780762e-02 5.124061703681945801e-01 -3.369562625885009766e-01
3.459716737270355225e-01 -6.045709848403930664e-01 -1.226495802402496338e-01
-7.414247095584869385e-02 -2.385687977075576782e-01 7.273327112197875977e-01
5.569095164537429810e-02 5.591993033885955811e-02 -5.258948802947998047e-01
1.694711446762084961e-01 -6.487006545066833496e-01 -2.639911174774169922e-01
-9.076273441314697266e-02 -1.827273815870285034e-01 -2.148719727993011475e-01
4.055482149124145508e-02 -6.487006545066833496e-01 3.242630064487457275e-01
-7.414190471172332764e-02 4.283872246742248535e-01 -8.914281614124774933e-03
-1.660644821822643280e-02 1.217133477330207825e-01 3.342742621898651123e-01
-7.414171099662780762e-02 -1.577949337661266327e-02 -3.137482702732086182e-01
-9.076273441314697266e-02 2.408338487148284912e-01 1.266262382268905640e-01
-9.076273441314697266e-02 -4.497771710157394409e-02 -6.083018705248832703e-02
-9.076273441314697266e-02 -2.086594253778457642e-01 -1.448815017938613892e-01
8.034878224134445190e-02 -6.487006545066833496e-01 -3.065360486507415771e-01
1.774590909481048584e-01 -6.487006545066833496e-01 -4.362921416759490967e-01
3.813147917389869690e-02 -2.815856635570526123e-01 -3.700321316719055176e-01
3.020034432411193848e-01 -6.487006545066833496e-01 -2.067102938890457153e-01
-8.503948897123336792e-02 -6.487006545066833496e-01 -4.218629598617553711e-01
7.472600787878036499e-02 -6.158875301480293274e-02 -4.544726312160491943e-01
-7.414218783378601074e-02 3.244739770889282227e-01 3.135643601417541504e-01
8.747649192810058594e-02 2.924434542655944824e-01 7.085470855236053467e-02
8.016839623451232910e-02 -6.045709848403930664e-01 -2.651646435260772705e-01
3.677335008978843689e-02 3.086113184690475464e-02 -5.968784689903259277e-01
-1.660644821822643280e-02 1.627631634473800659e-01 1.115381494164466858e-01
-7.414218783378601074e-02 4.454160332679748535e-01 3.113245368003845215e-01
-8.807704597711563110e-02 2.717895507812500000e-01 7.980913519859313965e-01
-1.660644821822643280e-02 4.785764217376708984e-01 5.404877066612243652e-01
-7.414190471172332764e-02 1.388434618711471558e-01 -4.519662261009216309e-02
-1.660644821822643280e-02 1.446277648210525513e-01 -6.765640377998352051e-01
-1.660644821822643280e-02 -4.074042141437530518e-01 -5.636811256408691406e-01
-7.414133846759796143e-02 1.427885796874761581e-02 -7.444694638252258301e-01
-7.414142787456512451e-02 5.722923278808593750e-01 -6.569165587425231934e-01
-9.076273441314697266e-02 3.725657463073730469e-01 5.445656776428222656e-01
-9.466715902090072632e-02 1.464619338512420654e-01 7.442191243171691895e-01
2.814092300832271576e-02 1.020884141325950623e-02 6.301911473274230957e-01
2.644954323768615723e-01 -2.658974826335906982e-01 4.347103834152221680e-02
4.696148633956909180e-02 2.564726173877716064e-01 -5.586507916450500488e-01
-4.127892479300498962e-02 -4.190258085727691650e-01 -2.103182822465896606e-01
-7.414209842681884766e-02 -3.060526549816131592e-01 2.433868497610092163e-01
-8.582866867072880268e-04 -6.045709848403930664e-01 2.697394788265228271e-01
-7.414256781339645386e-02 -2.809931933879852295e-01 7.877088189125061035e-01
-1.459725499153137207e-01 -6.487006545066833496e-01 4.048199951648712158e-02
7.337015122175216675e-02 1.439463198184967041e-01 -4.595599174499511719e-01
-1.660644821822643280e-02 1.443208754062652588e-01 -4.818734824657440186e-01
-7.414180785417556763e-02 4.114001691341400146e-01 -1.263012439012527466e-01
7.788869738578796387e-02 -1.576869189739227295e-01 2.165319174528121948e-01
8.747649192810058594e-02 -5.229531228542327881e-02 -2.074404358863830566e-01
1.978623270988464355e-01 -6.045709848403930664e-01 -3.221112191677093506e-01
-1.660644821822643280e-02 -1.821947395801544189e-01 -4.557373225688934326e-01
2.845606803894042969e-01 -6.045709848403930664e-01 4.234458133578300476e-02
4.106734693050384521e-02 -2.742139399051666260e-01 7.916317880153656006e-02
2.733367867767810822e-02 -3.086978793144226074e-01 -2.774043083190917969e-01
1.401457041501998901e-01 -6.045709848403930664e-01 -3.029992878437042236e-01
4.305630549788475037e-02 -2.688816785812377930e-01 -5.733020901679992676e-01
1.467986702919006348e-01 -6.045709848403930664e-01 -1.510542072355747223e-02
-1.660644821822643280e-02 -1.803280711174011230e-01 -3.582918643951416016e-01
-7.414171099662780762e-02 7.174035161733627319e-02 -3.305634558200836182e-01
-7.322207093238830566e-03 -6.487006545066833496e-01 -1.079716533422470093e-01
-9.076273441314697266e-02 5.153713226318359375e-01 2.023800015449523926e-01
-1.660644821822643280e-02 -6.359404325485229492e-02 -6.232966780662536621e-01
2.781326323747634888e-02 3.432906270027160645e-01 6.314206719398498535e-01
-5.219693761318922043e-03 5.782569050788879395e-01 -5.245656371116638184e-01
1.331385821104049683e-01 -6.045709848403930664e-01 2.890660166740417480e-01
-1.660644821822643280e-02 3.259798288345336914e-01 -5.156046245247125626e-03
-1.389190368354320526e-02 -6.487006545066833496e-01 3.256747126579284668e-02
6.338833272457122803e-02 4.059881567955017090e-01 1.139279752969741821e-01
-1.660644821822643280e-02 4.475248157978057861e-01 1.471282243728637695e-01
-1.660644821822643280e-02 -2.450935840606689453e-01 3.634524531662464142e-03
2.226103544235229492e-01 -6.045709848403930664e-01 2.732535004615783691e-01
-1.660644821822643280e-02 5.848187208175659180e-01 -4.671822786331176758e-01
-9.076273441314697266e-02 -2.600628323853015900e-02 -4.006260931491851807e-01
-1.660644821822643280e-02 -3.380451798439025879e-01 6.749654412269592285e-01
-1.660644821822643280e-02 -2.580102086067199707e-01 -2.551087737083435059e-01
1.059845834970474243e-01 -6.045709848403930664e-01 -3.733495771884918213e-01
-1.660644821822643280e-02 -8.256738632917404175e-02 6.280699372291564941e-01
-9.477444738149642944e-02 3.824934363365173340e-01 7.892830371856689453e-01
1.551331579685211182e-01 6.922718137502670288e-02 -6.902281939983367920e-02
-1.660644821822643280e-02 -2.359425425529479980e-01 -6.845909357070922852e-01
-7.414247095584869385e-02 5.965143442153930664e-01 6.522977352142333984e-01
-1.660644821822643280e-02 -3.511811196804046631e-01 5.909607410430908203e-01
-1.660644821822643280e-02 4.086580872535705566e-01 -1.437117606401443481e-01
4.654903709888458252e-02 -6.487006545066833496e-01 -1.917237937450408936e-01
-9.076273441314697266e-02 -3.199880719184875488e-01 -3.768075704574584961e-01
-1.660644821822643280e-02 4.890633225440979004e-01 3.632313311100006104e-01
-7.414133846759796143e-02 6.152790039777755737e-02 -7.596467733383178711e-01
-8.398966491222381592e-02 6.068484187126159668e-01 5.002821683883666992e-01
-7.414180785417556763e-02 -2.631857991218566895e-01 -1.577032059431076050e-01
-1.660644821822643280e-02 1.298152059316635132e-01 -1.861105114221572876e-01
-1.660644821822643280e-02 4.971822798252105713e-01 -2.958915233612060547e-01
2.241067290306091309e-01 4.798318073153495789e-02 8.227897435426712036e-02
-5.731899291276931763e-02 -4.190258085727691650e-01 6.415202021598815918e-01
-1.660644821822643280e-02 4.637418091297149658e-01 -6.978246569633483887e-01
-1.660644821822643280e-02 -1.216486841440200806e-01 4.886274039745330811e-01
2.586142532527446747e-02 5.002149343490600586e-01 4.030171036720275879e-01
-1.660644821822643280e-02 2.417519837617874146e-01 -2.350074499845504761e-01
-9.076273441314697266e-02 4.784045517444610596e-01 4.047412052750587463e-02
3.141698986291885376e-02 4.862652719020843506e-01 -4.874193668365478516e-01
-7.414199411869049072e-02 3.205936774611473083e-02 5.746751651167869568e-02
-7.414199411869049072e-02 -2.117879241704940796e-01 8.298006653785705566e-02
-1.660644821822643280e-02 2.734843492507934570e-01 1.764888167381286621e-01
2.127244174480438232e-01 -6.487006545066833496e-01 -2.142472118139266968e-01
1.938593238592147827e-01 -6.487006545066833496e-01 5.949502065777778625e-02
-1.660644821822643280e-02 2.489537596702575684e-01 -7.653429359197616577e-02
-1.660644821822643280e-02 3.504316210746765137e-01 2.251559942960739136e-01
-1.660644821822643280e-02 2.943006157875061035e-01 -6.573200821876525879e-01
-1.660644821822643280e-02 -2.750646770000457764e-01 -3.260230720043182373e-01
-7.414209842681884766e-02 3.716618418693542480e-01 2.118301242589950562e-01
-1.660644821822643280e-02 -1.958073377609252930e-01 2.220502644777297974e-01
-1.660644821822643280e-02 5.394813418388366699e-01 4.798020422458648682e-01
8.747649192810058594e-02 -6.214135512709617615e-02 2.514041960239410400e-01
-1.660644821822643280e-02 -3.001535534858703613e-01 2.981439232826232910e-01
-1.660644821822643280e-02 4.345321953296661377e-01 6.333117932081222534e-02
3.038149140775203705e-02 2.568742632865905762e-01 -6.208612322807312012e-01
8.747649192810058594e-02 1.332240104675292969e-01 3.881531059741973877e-01
-7.414142787456512451e-02 2.600388824939727783e-01 -6.600469946861267090e-01
-9.477444738149642944e-02 -3.787861466407775879e-01 6.384351104497909546e-02
-1.660644821822643280e-02 2.777399122714996338e-01 -6.119124889373779297e-01
2.349154278635978699e-02 -3.183445334434509277e-01 3.835738003253936768e-01
-9.076273441314697266e-02 1.050222665071487427e-02 5.605443716049194336e-01
-1.047463938593864441e-01 -6.487006545066833496e-01 1.472459584474563599e-01
-7.414171099662780762e-02 6.061961054801940918e-01 -2.502901852130889893e-01
2.541479282081127167e-02 5.013362765312194824e-01 1.950453221797943115e-01
-7.414238154888153076e-02 1.333500891923904419e-01 6.017515063285827637e-01
-9.076273441314697266e-02 2.132468819618225098e-01 3.729309886693954468e-02
8.747649192810058594e-02 1.961990743875503540e-01 -2.713969945907592773e-01
-4.604635387659072876e-02 -2.909863889217376709e-01 -7.971690297126770020e-01
-9.076273441314697266e-02 -5.382301285862922668e-02 5.360925793647766113e-01
-7.414238154888153076e-02 2.900374829769134521e-01 5.173509120941162109e-01
2.476375252008438110e-01 -1.618921160697937012e-01 -8.134527504444122314e-02
6.185778230428695679e-02 -6.958711892366409302e-02 5.036793947219848633e-01
2.080435305833816528e-01 -1.355470567941665649e-01 5.296967178583145142e-02
1.667071320116519928e-02 -1.693310029804706573e-02 -6.723075509071350098e-01
2.833386957645416260e-01 -6.045709848403930664e-01 -1.822043657302856445e-01
-1.660644821822643280e-02 4.693911969661712646e-01 -4.304509460926055908e-01
8.747649192810058594e-02 3.445885479450225830e-01 2.630561292171478271e-01
-9.076273441314697266e-02 -1.131907626986503601e-01 7.433598637580871582e-01
-1.660644821822643280e-02 3.454174399375915527e-01 4.169639348983764648e-01
2.337115854024887085e-01 -5.125765204429626465e-01 8.227897435426712036e-02
-1.289647351950407028e-02 -2.495732009410858154e-01 -7.832478880882263184e-01
-7.414238154888153076e-02 5.146535634994506836e-01 5.917792320251464844e-01
6.197077035903930664e-02 4.095467925071716309e-01 -2.769096195697784424e-01
8.747649192810058594e-02 2.226981893181800842e-02 3.477748334407806396e-01
5.322137102484703064e-02 -2.436968982219696045e-01 1.988717019557952881e-01
-8.391293883323669434e-02 6.068484187126159668e-01 7.692757248878479004e-01
5.286056920886039734e-02 -2.446036487817764282e-01 -3.456942737102508545e-01
-7.414142787456512451e-02 4.493715167045593262e-01 -6.798967123031616211e-01
3.023765981197357178e-01 -6.045709848403930664e-01 3.050333261489868164e-01
7.574085146188735962e-03 -6.045709848403930664e-01 3.837067186832427979e-01
-7.414238154888153076e-02 -2.454050183296203613e-01 5.352285504341125488e-01
-7.414142787456512451e-02 1.290501058101654053e-01 -6.896553635597229004e-01
-2.926426567137241364e-02 6.068484187126159668e-01 5.594876408576965332e-01
-9.076273441314697266e-02 -2.124212235212326050e-01 2.845161259174346924e-01
-1.660644821822643280e-02 -6.946535315364599228e-03 -7.590258121490478516e-01
7.955407351255416870e-02 3.653972148895263672e-01 4.205719232559204102e-01
3.468403592705726624e-02 4.780627191066741943e-01 5.224277377128601074e-01
6.440047174692153931e-02 -6.045709848403930664e-01 4.232617914676666260e-01
-7.414238154888153076e-02 -2.179139405488967896e-01 5.830260515213012695e-01
-7.414199411869049072e-02 5.946609973907470703e-01 2.619697712361812592e-02
-3.009571693837642670e-02 -8.226449787616729736e-02 7.980913519859313965e-01
7.839097827672958374e-02 -6.045709848403930664e-01 1.192317381501197815e-01
-7.414228469133377075e-02 5.411894321441650391e-01 4.104173183441162109e-01
1.096685379743576050e-01 -6.487006545066833496e-01 -2.007760703563690186e-01
-9.076273441314697266e-02 3.771830201148986816e-01 4.714514017105102539e-01
-7.414152473211288452e-02 3.175162076950073242e-01 -5.228765010833740234e-01
-7.414238154888153076e-02 1.043620854616165161e-01 5.768173933029174805e-01
-7.414152473211288452e-02 5.589531660079956055e-01 -5.527374744415283203e-01
2.644954323768615723e-01 2.211797386407852173e-01 -1.842136308550834656e-02
-7.414218783378601074e-02 -3.262004852294921875e-01 3.635769188404083252e-01
-1.660644821822643280e-02 1.912865042686462402e-01 -3.170999288558959961e-01
-1.660644821822643280e-02 4.071759581565856934e-01 6.436432600021362305e-01
-7.414152473211288452e-02 3.429594635963439941e-02 -4.951699078083038330e-01
-5.525464564561843872e-02 -4.190258085727691650e-01 7.953369021415710449e-01
3.743352368474006653e-02 4.711581468582153320e-01 4.670258760452270508e-01
7.100977003574371338e-02 -1.990336626768112183e-01 4.131062328815460205e-01
-1.660644821822643280e-02 2.061761468648910522e-01 6.596008688211441040e-02
3.291261196136474609e-01 -6.487006545066833496e-01 5.988591909408569336e-02
8.747649192810058594e-02 2.581370472908020020e-01 3.177211284637451172e-01
-7.414133846759796143e-02 -3.537247478961944580e-01 -7.589583992958068848e-01
-7.414199411869049072e-02 -4.039823114871978760e-01 1.458320207893848419e-02
-7.414209842681884766e-02 -2.066161334514617920e-01 1.772806793451309204e-01
8.747649192810058594e-02 8.709903061389923096e-02 -2.822466492652893066e-01
-7.414162158966064453e-02 -3.806243240833282471e-01 -3.841982781887054443e-01
8.747649192810058594e-02 1.673325151205062866e-01 -3.714069724082946777e-01
-1.660644821822643280e-02 -1.423244178295135498e-01 -4.484415948390960693e-01
2.794334292411804199e-02 4.949880540370941162e-01 -4.067520797252655029e-01
2.644954323768615723e-01 -4.018118381500244141e-01 7.400573790073394775e-02
-1.660644821822643280e-02 4.801515638828277588e-01 -4.756508395075798035e-02
-1.660644821822643280e-02 6.138624250888824463e-02 -3.950726091861724854e-01
-1.660644821822643280e-02 4.891032278537750244e-01 -1.523652523756027222e-01
-9.076273441314697266e-02 5.522632002830505371e-01 -3.462449610233306885e-01
-1.660644821822643280e-02 -4.042158722877502441e-01 2.765016257762908936e-01
-7.414247095584869385e-02 -2.563978545367717743e-02 7.028989791870117188e-01
4.047895595431327820e-02 -6.006959825754165649e-02 5.838966369628906250e-01
-7.414209842681884766e-02 2.534590065479278564e-01 2.311471700668334961e-01
3.052630126476287842e-01 -6.045709848403930664e-01 1.051206588745117188e-01
1.148572936654090881e-02 -3.484903275966644287e-01 3.458436131477355957e-01
-9.414182975888252258e-03 5.887894034385681152e-01 -1.356943845748901367e-01
8.747649192810058594e-02 -1.395965814590454102e-01 2.951160669326782227e-01
-9.076273441314697266e-02 1.589598655700683594e-01 -6.481652259826660156e-01
-1.660644821822643280e-02 -4.121515750885009766e-01 -7.377785444259643555e-01
-7.304355502128601074e-02 -6.487006545066833496e-01 4.177624583244323730e-01
-1.660644821822643280e-02 9.917548298835754395e-02 -6.394433975219726562e-01
-1.660644821822643280e-02 -3.710183128714561462e-02 2.088934034109115601e-01
-1.660644821822643280e-02 5.695350170135498047e-01 1.103332638740539551e-01
-5.946901813149452209e-02 -3.725984096527099609e-01 7.980913519859313965e-01
6.891997158527374268e-02 2.639535367488861084e-01 -4.762564003467559814e-01
-1.663388870656490326e-02 6.068484187126159668e-01 -5.505185127258300781e-01
-1.660644821822643280e-02 4.331412315368652344e-01 -4.841541051864624023e-01
2.644954323768615723e-01 -5.296859741210937500e-01 -1.289855781942605972e-02
-1.660644821822643280e-02 7.637994736433029175e-02 6.751894950866699219e-01
-7.414256781339645386e-02 5.132226943969726562e-01 7.603772878646850586e-01
1.808495260775089264e-02 -3.319201171398162842e-01 1.313698142766952515e-01
-5.305540189146995544e-02 6.068484187126159668e-01 9.877247363328933716e-02
-1.660644821822643280e-02 -3.082278966903686523e-01 -1.896748393774032593e-01
-7.414247095584869385e-02 4.586858451366424561e-01 6.315535902976989746e-01
-1.279998570680618286e-01 -6.487006545066833496e-01 -8.643805980682373047e-02
-1.660644821822643280e-02 2.221463173627853394e-01 5.086423158645629883e-01
-7.414171099662780762e-02 5.918610095977783203e-01 -3.592366278171539307e-01
-7.161791622638702393e-02 -6.045709848403930664e-01 3.737799823284149170e-01
-1.660644821822643280e-02 5.248442888259887695e-01 -4.228903055191040039e-01
-1.660644821822643280e-02 -3.159642219543457031e-01 -4.088627696037292480e-01
5.964645743370056152e-02 1.460770219564437866e-01 -5.110536217689514160e-01
-1.660644821822643280e-02 2.561327219009399414e-01 -1.645460426807403564e-01
-7.414133846759796143e-02 2.888554036617279053e-01 -7.695593237876892090e-01
-1.632018387317657471e-02 5.421940088272094727e-01 7.970174551010131836e-01
-7.539663463830947876e-02 -6.045709848403930664e-01 1.800369918346405029e-01
-1.660644821822643280e-02 -3.029696941375732422e-01 6.186341047286987305e-01
-7.414142787456512451e-02 -9.112023562192916870e-02 -7.017972469329833984e-01
-1.660644821822643280e-02 4.820222407579421997e-02 7.567075490951538086e-01
-1.660644821822643280e-02 -3.723164200782775879e-01 5.365435481071472168e-01
-7.414190471172332764e-02 4.642972648143768311e-01 -4.331969842314720154e-02
-7.414209842681884766e-02 9.112986922264099121e-02 1.422735750675201416e-01
-5.820156633853912354e-02 -6.045709848403930664e-01 -1.383548080921173096e-01
-7.414162158966064453e-02 3.707674443721771240e-01 -4.698351025581359863e-01
-7.414142787456512451e-02 2.039221078157424927e-01 -6.627463102340698242e-01
-8.509560674428939819e-02 -6.487006545066833496e-01 3.183354437351226807e-01
-7.414152473211288452e-02 2.988837063312530518e-01 -5.986369252204895020e-01
-7.414190471172332764e-02 -9.244475513696670532e-02 -2.468010410666465759e-02
-1.660644821822643280e-02 5.008919239044189453e-01 2.585822343826293945e-01
-1.660644821822643280e-02 3.201405405998229980e-01 -3.868140578269958496e-01
-5.374724417924880981e-02 -1.677209436893463135e-01 7.980913519859313965e-01
1.082897745072841644e-02 -7.623059302568435669e-02 -6.942261457443237305e-01
-7.414180785417556763e-02 -3.731728494167327881e-01 -1.534865796566009521e-01
-1.660644821822643280e-02 3.606574535369873047e-01 -5.811181664466857910e-01
3.959462046623229980e-02 4.657319188117980957e-01 -1.400581747293472290e-01
8.747649192810058594e-02 2.199938595294952393e-01 -3.799826204776763916e-01
-1.660644821822643280e-02 -2.870176136493682861e-01 -5.434117317199707031e-01
-7.414190471172332764e-02 5.678630471229553223e-01 -3.340719267725944519e-02
-1.660644821822643280e-02 5.596709847450256348e-01 -5.835442990064620972e-02
5.657491087913513184e-02 -2.352769523859024048e-01 2.923711240291595459e-01
-1.660644821822643280e-02 3.502768576145172119e-01 -1.352614313364028931e-01
-1.660644821822643280e-02 -3.542488813400268555e-01 4.229152500629425049e-01
-1.465859115123748779e-01 -6.289468407630920410e-01 3.274190723896026611e-01
-1.660644821822643280e-02 -2.543848380446434021e-02 -1.839191168546676636e-01
-9.076273441314697266e-02 5.098748803138732910e-01 -1.059844121336936951e-01
5.056083202362060547e-03 5.524559020996093750e-01 -2.588848173618316650e-01
8.747649192810058594e-02 -2.603286691009998322e-02 -4.871669784188270569e-02
-7.414238154888153076e-02 2.048649340867996216e-01 5.803190469741821289e-01
-7.414209842681884766e-02 3.191379308700561523e-01 1.865893155336380005e-01
-7.414238154888153076e-02 -3.923636376857757568e-01 5.594163537025451660e-01
8.747649192810058594e-02 5.145901814103126526e-02 -3.274311423301696777e-01
-1.396465748548507690e-01 -6.045709848403930664e-01 3.930334150791168213e-01
2.036370187997817993e-01 6.224693730473518372e-02 -4.243175312876701355e-02
-9.076273441314697266e-02 -2.555273175239562988e-01 2.523299455642700195e-01
-1.660644821822643280e-02 2.913496494293212891e-01 -7.186836600303649902e-01
-7.414256781339645386e-02 4.349898397922515869e-01 7.913367748260498047e-01
-1.660644821822643280e-02 5.396819114685058594e-02 -6.528243422508239746e-01
-1.660644821822643280e-02 -2.991157770156860352e-01 5.700970292091369629e-01
2.570724189281463623e-01 4.459631443023681641e-02 -8.134527504444122314e-02
8.747649192810058594e-02 1.811624616384506226e-01 1.792365908622741699e-01
1.370589733123779297e-01 -6.045709848403930664e-01 -4.351119101047515869e-01
-7.414218783378601074e-02 1.910120993852615356e-01 2.934981584548950195e-01
6.735238432884216309e-02 3.353843390941619873e-01 -4.821402430534362793e-01
2.080435305833816528e-01 1.426176726818084717e-02 2.057257853448390961e-02
-6.117446348071098328e-02 -1.244771480560302734e-01 7.980913519859313965e-01
-1.423684507608413696e-02 6.008990406990051270e-01 7.028885483741760254e-01
-7.414152473211288452e-02 3.380607115104794502e-03 -5.299367904663085938e-01
-7.414190471172332764e-02 -4.063978195190429688e-01 -7.821162790060043335e-02
-7.414238154888153076e-02 -8.707548677921295166e-02 5.106428265571594238e-01
-7.414256781339645386e-02 -3.573204278945922852e-01 7.554361820220947266e-01
3.151051700115203857e-02 -1.576869189739227295e-01 1.867896467447280884e-01
1.823971420526504517e-02 -6.322849541902542114e-02 6.673421263694763184e-01
1.951458603143692017e-01 -6.045709848403930664e-01 -2.894608303904533386e-03
-1.660644821822643280e-02 -2.311227656900882721e-02 -4.022411406040191650e-01
-1.660644821822643280e-02 3.889840543270111084e-01 2.750859856605529785e-01
-5.856797099113464355e-02 -4.190258085727691650e-01 3.585523068904876709e-01
-1.660644821822643280e-02 1.353198736906051636e-01 7.865381240844726562e-01
5.185602977871894836e-02 -1.102217510342597961e-01 -5.402832031250000000e-01
-1.660644821822643280e-02 -2.233117073774337769e-01 7.178673744201660156e-01
2.644954323768615723e-01 -1.611705273389816284e-01 4.366150498390197754e-02
1.030401326715946198e-02 -1.451927870512008667e-01 6.971185803413391113e-01
2.262762486934661865e-01 -3.963267505168914795e-01 -8.134527504444122314e-02
1.038386672735214233e-02 1.275379806756973267e-01 6.968185305595397949e-01
2.426983714103698730e-01 1.890685409307479858e-01 8.227897435426712036e-02
-1.660644821822643280e-02 2.360352128744125366e-01 -5.314122438430786133e-01
-1.465859115123748779e-01 -6.119085550308227539e-01 7.916689850389957428e-03
2.080435305833816528e-01 -5.295996665954589844e-01 3.902987390756607056e-02
-9.076273441314697266e-02 1.491561681032180786e-01 -6.080613732337951660e-01
2.625955343246459961e-01 -6.455294489860534668e-01 -4.393342435359954834e-01
-7.414247095584869385e-02 1.187919974327087402e-01 6.450437307357788086e-01
8.747649192810058594e-02 8.217886090278625488e-02 1.936344057321548462e-01
-1.660644821822643280e-02 3.165487051010131836e-01 -4.989791810512542725e-01
2.644954323768615723e-01 6.375318020582199097e-02 -2.438529208302497864e-02
-1.660644821822643280e-02 -6.975423544645309448e-02 3.324959278106689453e-01
-9.076273441314697266e-02 -2.643033266067504883e-01 -6.446570158004760742e-01
-1.660644821822643280e-02 2.634902000427246094e-01 6.759927868843078613e-01
-1.660644821822643280e-02 2.937850654125213623e-01 2.835769392549991608e-02
-1.660644821822643280e-02 2.997771799564361572e-01 4.983196258544921875e-01
-1.660644821822643280e-02 1.568150073289871216e-01 2.164198756217956543e-01
-9.076273441314697266e-02 6.028153002262115479e-02 6.306164860725402832e-01
-1.660644821822643280e-02 3.947729766368865967e-01 -2.010476291179656982e-01
-1.660644821822643280e-02 5.657836794853210449e-01 4.210419356822967529e-01
-7.414199411869049072e-02 3.637138009071350098e-01 2.393524162471294403e-03
-9.076273441314697266e-02 -3.699740767478942871e-01 1.873308569192886353e-01
2.080435305833816528e-01 -2.518053948879241943e-01 -2.948576351627707481e-03
-7.414218783378601074e-02 -1.297571659088134766e-01 2.454433888196945190e-01
-1.660644821822643280e-02 -1.201969310641288757e-01 -4.065507948398590088e-01
-9.076273441314697266e-02 1.494736820459365845e-01 -1.965689659118652344e-01
2.080435305833816528e-01 2.555278837680816650e-01 5.005355179309844971e-02
-1.660644821822643280e-02 -2.036613821983337402e-01 4.602931737899780273e-01
-7.414171099662780762e-02 2.079763561487197876e-01 -3.415013849735260010e-01
-9.076273441314697266e-02 -1.830369234085083008e-01 3.182746767997741699e-01
2.080435305833816528e-01 6.082880124449729919e-02 4.442336410284042358e-02
6.121688708662986755e-02 4.114409983158111572e-01 -4.316387474536895752e-01
-1.660644821822643280e-02 3.665280342102050781e-01 -3.893303871154785156e-02
-9.076273441314697266e-02 -7.876759022474288940e-02 -3.939427137374877930e-01
-1.660644821822643280e-02 4.307010769844055176e-01 -6.472879648208618164e-01
-7.414228469133377075e-02 -1.911758035421371460e-01 4.588509500026702881e-01
-6.112974882125854492e-02 3.519839942455291748e-01 7.980913519859313965e-01
2.080435305833816528e-01 -1.432947665452957153e-01 -4.540094733238220215e-02
2.180452644824981689e-01 -4.877116680145263672e-01 -8.134527504444122314e-02
2.379386574029922485e-01 -6.487006545066833496e-01 2.149576842784881592e-01
-1.660644821822643280e-02 -6.720869988203048706e-02 2.586486637592315674e-01
1.969564147293567657e-02 -1.171443685889244080e-01 6.618797779083251953e-01
2.141980230808258057e-01 -6.487006545066833496e-01 -3.453590869903564453e-01
2.080435305833816528e-01 2.034929394721984863e-01 -1.957297092303633690e-03
9.428787976503372192e-03 -2.606336176395416260e-01 7.004027962684631348e-01
8.747649192810058594e-02 2.985067665576934814e-01 -3.031134046614170074e-02
-7.414162158966064453e-02 3.171098232269287109e-01 -3.731900751590728760e-01
-1.660644821822643280e-02 1.098251640796661377e-01 2.348719537258148193e-01
-7.414209842681884766e-02 1.766467839479446411e-02 1.588665693998336792e-01
7.382780313491821289e-02 -1.743197888135910034e-01 -4.578423202037811279e-01
-1.660644821822643280e-02 1.636262387037277222e-01 -5.470835417509078979e-02
8.729039132595062256e-02 -3.931695222854614258e-02 -4.073284268379211426e-01
-9.076273441314697266e-02 7.351814210414886475e-02 7.150323390960693359e-01
-1.660644821822643280e-02 -3.063697516918182373e-01 4.299878776073455811e-01
-1.660644821822643280e-02 2.614120021462440491e-02 -4.368352293968200684e-01
-3.117498569190502167e-02 -4.190258085727691650e-01 5.448741912841796875e-01
-9.477444738149642944e-02 5.842167139053344727e-01 3.938432931900024414e-01
-1.660644821822643280e-02 -2.231493443250656128e-01 -4.605150818824768066e-01
-1.660644821822643280e-02 -3.777740001678466797e-01 -4.214822053909301758e-01
-7.414180785417556763e-02 1.899819374084472656e-01 -1.937822550535202026e-01
2.889776229858398438e-01 -6.045709848403930664e-01 -3.098972141742706299e-01
-7.414162158966064453e-02 4.333007335662841797e-01 -4.788807332515716553e-01
-7.340532727539539337e-03 -2.030195295810699463e-01 -7.624012231826782227e-01
-1.660644821822643280e-02 1.810043752193450928e-01 6.566900014877319336e-01
1.464445143938064575e-01 -6.487006545066833496e-01 1.533719599246978760e-01
-7.414171099662780762e-02 -1.082893833518028259e-02 -2.729816734790802002e-01
2.080435305833816528e-01 -5.413579344749450684e-01 -1.010235864669084549e-02
-1.660644821822643280e-02 2.876125276088714600e-01 7.111964225769042969e-01
-7.414190471172332764e-02 -2.151642590761184692e-01 -6.720656901597976685e-02
-7.414133846759796143e-02 -5.955973640084266663e-02 -7.765844464302062988e-01
-9.477444738149642944e-02 5.732313394546508789e-01 4.596029222011566162e-01
-1.660644821822643280e-02 5.087839365005493164e-01 1.638513207435607910e-01
-1.660644821822643280e-02 7.281581312417984009e-02 2.702104151248931885e-01
-1.710406877100467682e-02 -4.190258085727691650e-01 6.486783027648925781e-01
-4.332410171627998352e-03 -6.487006545066833496e-01 3.252030014991760254e-01
-9.076273441314697266e-02 2.065246254205703735e-01 -2.460099607706069946e-01
1.299672108143568039e-02 -6.487006545066833496e-01 4.279284775257110596e-01
-7.414218783378601074e-02 2.849986255168914795e-01 3.396815061569213867e-01
-1.660644821822643280e-02 5.987151861190795898e-01 -7.606978416442871094e-01
-1.660644821822643280e-02 1.117617115378379822e-01 -1.013395860791206360e-01
8.256282657384872437e-03 5.444204807281494141e-01 -6.558161377906799316e-01
-1.660644821822643280e-02 2.521042898297309875e-02 9.574175626039505005e-02
4.554421082139015198e-02 -2.629730999469757080e-01 3.418643474578857422e-01
-7.414133846759796143e-02 5.170234441757202148e-01 -7.925878167152404785e-01
-1.660644821822643280e-02 3.032048046588897705e-01 -7.588948011398315430e-01
-7.414162158966064453e-02 5.245385169982910156e-01 -4.238720536231994629e-01
-7.414190471172332764e-02 8.817622810602188110e-02 -1.949710887856781483e-03
-8.061684668064117432e-02 -6.045709848403930664e-01 -2.105603963136672974e-01
-9.076273441314697266e-02 -3.192332386970520020e-01 -1.714164465665817261e-01
-7.414247095584869385e-02 -1.708057820796966553e-01 6.846624612808227539e-01
-1.660644821822643280e-02 1.090220957994461060e-01 4.068786203861236572e-01
-9.477444738149642944e-02 -4.143125712871551514e-01 -6.879804730415344238e-01
-7.414199411869049072e-02 -2.606041729450225830e-01 5.088130012154579163e-02
-6.852502468973398209e-03 5.823567509651184082e-01 -1.879971027374267578e-01
-1.660644821822643280e-02 -2.163662910461425781e-01 3.615175187587738037e-01
1.388809829950332642e-01 -6.045709848403930664e-01 4.305053353309631348e-01
3.458216488361358643e-01 -6.487006545066833496e-01 -6.175307184457778931e-02
-9.076273441314697266e-02 -5.837193131446838379e-02 4.556872844696044922e-01
-7.414209842681884766e-02 1.753440946340560913e-01 2.259127199649810791e-01
3.476626873016357422e-01 -6.427854299545288086e-01 2.767750918865203857e-01
2.269484847784042358e-01 -6.045709848403930664e-01 -2.083016037940979004e-01
-1.660644821822643280e-02 2.438474893569946289e-01 2.486279308795928955e-01
-7.414256781339645386e-02 -2.934085130691528320e-01 7.423970699310302734e-01
4.617200046777725220e-02 -2.350547909736633301e-01 5.625354051589965820e-01
-1.660644821822643280e-02 4.579015970230102539e-01 -1.097274105995893478e-02
-9.076273441314697266e-02 3.569611608982086182e-01 -4.276300370693206787e-01
-1.660644821822643280e-02 -3.007782995700836182e-01 1.327294558286666870e-01
-9.076273441314697266e-02 4.514689147472381592e-01 -5.689839124679565430e-01
4.090460762381553650e-02 3.394984304904937744e-01 5.822996497154235840e-01
-7.414256781339645386e-02 -2.157690674066543579e-01 7.939326763153076172e-01
-7.414133846759796143e-02 1.295591145753860474e-01 -7.938772439956665039e-01
-9.076273441314697266e-02 3.368304073810577393e-01 -2.932548224925994873e-01
8.747649192810058594e-02 2.475627660751342773e-01 -3.036050498485565186e-01
-7.414171099662780762e-02 4.565599858760833740e-01 -2.824289202690124512e-01
-1.660644821822643280e-02 7.009113207459449768e-03 -5.337299108505249023e-01
8.747649192810058594e-02 -1.201665401458740234e-01 3.410231173038482666e-01
-7.414247095584869385e-02 3.961461409926414490e-02 7.352095246315002441e-01
-7.414247095584869385e-02 2.115672677755355835e-01 6.928915381431579590e-01
-9.076273441314697266e-02 4.368745684623718262e-01 6.617212891578674316e-01
-1.660644821822643280e-02 -1.447057127952575684e-01 -7.134140729904174805e-01
8.747649192810058594e-02 -1.478237658739089966e-01 -2.808034420013427734e-01
-7.414133846759796143e-02 4.597739577293395996e-01 -7.452802658081054688e-01
8.747649192810058594e-02 -6.362608168274164200e-03 2.387334555387496948e-01
1.853500306606292725e-02 5.186109542846679688e-01 -6.072742938995361328e-01
1.896417587995529175e-01 -6.045709848403930664e-01 -3.902350366115570068e-01
8.747649192810058594e-02 1.181952934712171555e-02 -3.326219320297241211e-01
-7.414180785417556763e-02 5.148710012435913086e-01 -1.925365477800369263e-01
2.080435305833816528e-01 -2.395078241825103760e-01 4.826407879590988159e-02
-1.660644821822643280e-02 -3.356297016143798828e-01 -7.811049222946166992e-01
-1.660644821822643280e-02 4.786551892757415771e-01 6.445167660713195801e-01
-1.660644821822643280e-02 -3.401995301246643066e-01 -3.696003183722496033e-02
-3.692765906453132629e-02 -4.190258085727691650e-01 8.027702569961547852e-03
-1.660644821822643280e-02 -1.389271914958953857e-01 6.196253895759582520e-01
-1.660644821822643280e-02 -1.002598702907562256e-01 -1.817030608654022217e-01
-7.414152473211288452e-02 -1.660650670528411865e-01 -5.773450136184692383e-01
-7.414209842681884766e-02 -3.819440603256225586e-01 2.180985510349273682e-01
-1.660644821822643280e-02 3.082664310932159424e-01 3.628714680671691895e-01
1.626177318394184113e-02 5.243192315101623535e-01 -3.600521981716156006e-01
-7.414152473211288452e-02 2.321556806564331055e-01 -5.228100419044494629e-01
-1.660644821822643280e-02 -1.444645375013351440e-01 5.352311953902244568e-02
5.897233635187149048e-02 -2.292563617229461670e-01 4.850678145885467529e-01
4.944151267409324646e-02 -6.487006545066833496e-01 2.547397017478942871e-01
-1.144780218601226807e-01 -6.045709848403930664e-01 1.221608668565750122e-01
1.221113950014114380e-01 -6.045709848403930664e-01 1.431290507316589355e-01
8.747649192810058594e-02 3.182045817375183105e-01 1.498883515596389771e-01
-1.346758287400007248e-02 8.061061799526214600e-02 -7.853918075561523438e-01
8.020447194576263428e-02 3.637631833553314209e-01 3.574110269546508789e-01
-9.076273441314697266e-02 -1.157590821385383606e-01 -5.284480452537536621e-01
-1.660644821822643280e-02 2.575692534446716309e-01 4.859432578086853027e-01
1.270875930786132812e-01 -6.045709848403930664e-01 -1.613947451114654541e-01
-1.660644821822643280e-02 -2.350063472986221313e-01 6.230442225933074951e-02
-1.660644821822643280e-02 1.087280549108982086e-02 5.681278109550476074e-01
-1.660644821822643280e-02 -1.668835133314132690e-01 4.871120750904083252e-01
-9.076273441314697266e-02 1.543134301900863647e-01 3.362100943922996521e-02
-6.205823644995689392e-02 -6.487006545066833496e-01 -8.874851465225219727e-02
-1.660644821822643280e-02 -2.024365663528442383e-01 1.382696479558944702e-01
8.834132924675941467e-03 3.883184492588043213e-01 -7.017108798027038574e-01
-7.414228469133377075e-02 2.074769437313079834e-01 4.759405255317687988e-01
-9.076273441314697266e-02 -2.070528864860534668e-01 -4.817186892032623291e-01
-9.076273441314697266e-02 -7.019573450088500977e-02 3.650514781475067139e-01
8.747649192810058594e-02 2.104136496782302856e-01 -1.863032430410385132e-01
7.953318953514099121e-02 -6.045709848403930664e-01 -2.256665229797363281e-01
-7.414228469133377075e-02 -1.707307994365692139e-01 4.031063914299011230e-01
3.113358318805694580e-01 -6.487006545066833496e-01 -4.314441084861755371e-01
2.650925330817699432e-02 4.094414114952087402e-01 -6.353910565376281738e-01
-1.660644821822643280e-02 4.966458380222320557e-01 7.955153584480285645e-01
-7.414171099662780762e-02 1.833247840404510498e-01 -3.107356131076812744e-01
-7.414228469133377075e-02 1.270127296447753906e-01 4.754752814769744873e-01
-9.076273441314697266e-02 -3.426624536514282227e-01 -1.349015831947326660e-01
-9.076273441314697266e-02 -3.668597936630249023e-01 -3.095098137855529785e-01
2.644954323768615723e-01 -4.245963394641876221e-01 4.197504743933677673e-02
-7.414218783378601074e-02 -9.158167988061904907e-02 3.022950291633605957e-01
-1.660644821822643280e-02 4.023146629333496094e-01 7.769095301628112793e-01
1.391267962753772736e-02 5.302173495292663574e-01 5.322424173355102539e-01
-7.414218783378601074e-02 2.114145830273628235e-02 3.118771016597747803e-01
-1.660644821822643280e-02 5.401632934808731079e-02 6.761909276247024536e-02
-1.660644821822643280e-02 3.298906981945037842e-01 7.638162374496459961e-01
2.553083002567291260e-01 -6.487006545066833496e-01 2.794039994478225708e-02
-1.202006936073303223e-01 -6.045709848403930664e-01 2.033579647541046143e-01
-1.660644821822643280e-02 4.938468039035797119e-01 -5.667061209678649902e-01
-7.414256781339645386e-02 9.491390734910964966e-02 7.762724161148071289e-01
-7.414228469133377075e-02 2.512752115726470947e-01 3.868713080883026123e-01
-1.660644821822643280e-02 -3.398937880992889404e-01 6.315507888793945312e-01
2.835502848029136658e-02 -3.061333596706390381e-01 4.708503782749176025e-01
-1.660644821822643280e-02 -6.898610293865203857e-02 -2.654646635055541992e-01
3.564490005373954773e-02 2.601584792137145996e-01 6.020354032516479492e-01
-1.660644821822643280e-02 4.628435969352722168e-01 7.038389444351196289e-01
1.953946352005004883e-01 1.255747526884078979e-01 -3.605726733803749084e-02
-9.076273441314697266e-02 1.839278936386108398e-01 -4.477598667144775391e-01
-1.660644821822643280e-02 5.260652899742126465e-01 2.287383526563644409e-01
-1.660644821822643280e-02 -8.198914676904678345e-02 -1.547201350331306458e-02
-7.414238154888153076e-02 -2.099620848894119263e-01 5.188928246498107910e-01
2.466584742069244385e-02 5.032171607017517090e-01 6.162839755415916443e-02
-2.456863969564437866e-02 -1.960850087925791740e-03 -7.971690297126770020e-01
1.709512621164321899e-02 -3.344058096408843994e-01 -1.128984764218330383e-01
-7.414171099662780762e-02 -1.466170102357864380e-01 -2.791836261749267578e-01
-7.414190471172332764e-02 5.966463088989257812e-01 -8.176504075527191162e-02
-1.660644821822643280e-02 -2.901176214218139648e-01 1.724628731608390808e-02
7.367873936891555786e-02 3.573589622974395752e-01 4.593237638473510742e-01
-7.414218783378601074e-02 5.173690915107727051e-01 3.322908282279968262e-01
-1.660644821822643280e-02 -1.562807410955429077e-01 -2.247863709926605225e-01
-1.660644821822643280e-02 4.077599048614501953e-01 5.056809186935424805e-01
-1.660644821822643280e-02 2.637475132942199707e-01 -2.751635611057281494e-01
8.747649192810058594e-02 -9.043472260236740112e-02 7.347184419631958008e-02
1.425078790634870529e-02 -3.415468037128448486e-01 1.930239051580429077e-01
-7.414133846759796143e-02 3.873186707496643066e-01 -7.461785078048706055e-01
9.348369203507900238e-03 9.582605212926864624e-02 -6.997814774513244629e-01
2.226558141410350800e-02 -3.214227259159088135e-01 -3.009978681802749634e-03
-1.660644821822643280e-02 4.351806938648223877e-01 -7.305691242218017578e-01
-1.660644821822643280e-02 1.949837654829025269e-01 -6.679599285125732422e-01
-1.660644821822643280e-02 4.953545629978179932e-01 -5.104830265045166016e-01
-1.660644821822643280e-02 -2.707625925540924072e-01 -5.891621112823486328e-01
-7.414247095584869385e-02 -3.587408363819122314e-01 6.252927780151367188e-01
-9.076273441314697266e-02 6.798764318227767944e-02 -5.039487481117248535e-01
-1.660644821822643280e-02 -1.900390349328517914e-02 7.650799751281738281e-01
8.747649192810058594e-02 3.400121033191680908e-01 -5.272499844431877136e-02
-9.151726961135864258e-02 2.357788383960723877e-01 -7.433006763458251953e-01
4.163418337702751160e-02 -2.727906703948974609e-01 -4.091257750988006592e-01
7.169622927904129028e-02 -6.626491248607635498e-02 4.667629003524780273e-01
-6.645994260907173157e-03 5.818383097648620605e-01 2.421515583992004395e-01
3.165892362594604492e-01 -6.045709848403930664e-01 -3.527649939060211182e-01
-1.660644821822643280e-02 3.742396533489227295e-01 5.621527433395385742e-01
-1.660644821822643280e-02 2.649258077144622803e-01 7.933505773544311523e-01
-6.365904957056045532e-02 -4.190258085727691650e-01 6.907627582550048828e-01
-7.414133846759796143e-02 -2.335688620805740356e-01 -7.941288352012634277e-01
-9.076273441314697266e-02 -2.690753936767578125e-01 -4.147276580333709717e-01
-9.076273441314697266e-02 1.507893502712249756e-01 -3.285828530788421631e-01
2.286898344755172729e-01 -6.487006545066833496e-01 4.388236701488494873e-01
1.941251754760742188e-01 -6.045709848403930664e-01 3.391346335411071777e-01
-1.660644821822643280e-02 3.251746594905853271e-01 -6.988519430160522461e-01
-7.414190471172332764e-02 -9.622365981340408325e-02 -7.356775552034378052e-02
-1.660644821822643280e-02 3.887267410755157471e-01 6.827634572982788086e-01
-9.076273441314697266e-02 -7.248681783676147461e-02 -6.287779211997985840e-01
-7.414247095584869385e-02 5.794342160224914551e-01 7.084277272224426270e-01
-7.414152473211288452e-02 3.889128267765045166e-01 -5.456658005714416504e-01
-1.660644821822643280e-02 5.734249949455261230e-01 7.631373405456542969e-01
