2.615464664995670319e-02 -4.540836811065673828e-01 3.576075732707977295e-01
-5.396382510662078857e-02 7.068076133728027344e-01 -3.671025335788726807e-01
-4.290636628866195679e-03 -5.971384048461914062e-01 -1.552629470825195312e-01
2.775698900222778320e-02 6.354486942291259766e-01 -1.433517336845397949e-01
8.717805147171020508e-02 -9.663274884223937988e-02 1.671482622623443604e-01
2.775698900222778320e-02 5.139574408531188965e-01 2.139659523963928223e-01
2.775698900222778320e-02 2.174547314643859863e-02 1.501499712467193604e-01
-4.290636628866195679e-03 7.401178479194641113e-01 -3.822154365479946136e-03
-4.290636628866195679e-03 -2.573920786380767822e-01 -4.228317365050315857e-02
-4.290636628866195679e-03 -3.741556704044342041e-01 -2.202950716018676758e-01
-5.396382510662078857e-02 -4.573578536510467529e-01 -3.606506586074829102e-01
2.775698900222778320e-02 -1.000061109662055969e-01 -1.646650880575180054e-01
2.775698900222778320e-02 4.851897656917572021e-01 8.000737987458705902e-03
-5.900285392999649048e-02 -7.250151038169860840e-02 -3.681079447269439697e-01
2.775698900222778320e-02 7.340529561042785645e-01 1.746567934751510620e-01
3.468737378716468811e-02 1.930814385414123535e-01 -3.513272702693939209e-01
-6.413906812667846680e-02 5.133734941482543945e-01 3.585784733295440674e-01
-4.290636628866195679e-03 -6.721664071083068848e-01 1.751156598329544067e-01
-1.112343557178974152e-02 6.833220124244689941e-01 3.290456533432006836e-01
-2.113978378474712372e-02 -7.854135632514953613e-01 -3.360611200332641602e-01
3.499815240502357483e-02 -8.488775789737701416e-02 -3.681079447269439697e-01
-3.356409817934036255e-02 4.810037016868591309e-01 -3.360611200332641602e-01
-1.536644063889980316e-02 8.519676327705383301e-01 -2.493621110916137695e-01
3.340860828757286072e-02 -8.313065767288208008e-01 3.610925078392028809e-01
3.046310506761074066e-02 -4.287438094615936279e-01 -3.681079447269439697e-01
-4.290636628866195679e-03 2.691779136657714844e-01 1.010004729032516479e-01
-6.413906812667846680e-02 5.677207931876182556e-02 -3.660400211811065674e-01
-4.290636628866195679e-03 3.548064827919006348e-01 -1.302706748247146606e-01
-4.290636628866195679e-03 -5.919843912124633789e-01 2.779375314712524414e-01
2.775698900222778320e-02 -9.424059987068176270e-01 1.049492135643959045e-01
2.615464664995670319e-02 8.768525719642639160e-01 2.605857253074645996e-01
2.615464664995670319e-02 1.013505011796951294e-01 3.599708676338195801e-01
2.615464664995670319e-02 8.767728209495544434e-01 -6.618575006723403931e-02
2.775698900222778320e-02 -4.632677882909774780e-02 -2.783907949924468994e-01
3.447398543357849121e-02 -2.489530146121978760e-01 3.610925078392028809e-01
-4.290636628866195679e-03 5.776591897010803223e-01 -2.791253924369812012e-01
2.775698900222778320e-02 -5.183398723602294922e-01 -2.391426712274551392e-01
2.775698900222778320e-02 -4.390134811401367188e-01 2.083382606506347656e-01
2.259624935686588287e-02 -9.427005052566528320e-01 2.179275006055831909e-01
-2.712390944361686707e-02 1.263821870088577271e-01 3.290456533432006836e-01
-3.414055705070495605e-02 7.226646542549133301e-01 -3.039542138576507568e-01
-4.290636628866195679e-03 1.345366686582565308e-01 1.027975976467132568e-01
3.616278246045112610e-02 3.705384135246276855e-01 -3.577890098094940186e-01
-6.413906812667846680e-02 8.721958398818969727e-01 -3.664821684360504150e-01
2.775698900222778320e-02 -5.627774596214294434e-01 2.418379699520301074e-05
-6.092729046940803528e-02 8.254293799400329590e-01 3.610925078392028809e-01
2.754990197718143463e-02 -8.611358404159545898e-01 -3.681079447269439697e-01
3.016424179077148438e-02 -1.898006796836853027e-01 2.673990130424499512e-01
2.775698900222778320e-02 -7.580766677856445312e-01 6.536993384361267090e-02
-6.048259511590003967e-02 -5.144246220588684082e-01 3.610925078392028809e-01
-4.290636628866195679e-03 -7.698805332183837891e-01 -8.227919042110443115e-02
2.775698900222778320e-02 -4.124594032764434814e-01 6.926648318767547607e-02
-4.290636628866195679e-03 6.604961156845092773e-01 -3.153688833117485046e-02
-4.290636628866195679e-03 1.807221621274948120e-01 -1.321298331022262573e-01
-4.290636628866195679e-03 4.214693009853363037e-01 8.724536746740341187e-02
2.615464664995670319e-02 6.736592948436737061e-02 -3.644240796566009521e-01
-1.155505888164043427e-02 -3.158856332302093506e-01 -3.360611200332641602e-01
-4.290636628866195679e-03 -6.062126159667968750e-01 8.921235054731369019e-02
2.775698900222778320e-02 -8.535456843674182892e-03 -1.692558676004409790e-01
2.615464664995670319e-02 4.872468709945678711e-01 3.598143160343170166e-01
-5.396382510662078857e-02 3.710829913616180420e-01 3.497750759124755859e-01
2.775698900222778320e-02 -8.460626602172851562e-01 -1.490601748228073120e-01
2.775698900222778320e-02 1.153773441910743713e-02 2.792403101921081543e-01
2.775698900222778320e-02 2.338129468262195587e-02 5.642549321055412292e-02
-5.461560934782028198e-02 -6.305894851684570312e-01 -3.681079447269439697e-01
-4.290636628866195679e-03 6.266954541206359863e-01 2.665186822414398193e-01
-5.396382510662078857e-02 8.829776048660278320e-01 4.710735008120536804e-02
2.775698900222778320e-02 -5.975450873374938965e-01 -2.772948145866394043e-01
2.775698900222778320e-02 -2.397956326603889465e-02 2.329819649457931519e-01
4.056813940405845642e-02 3.200890719890594482e-01 -3.085361123085021973e-01
2.775698900222778320e-02 -1.848120540380477905e-01 1.019320189952850342e-01
2.775698900222778320e-02 3.079070448875427246e-01 -1.071552634239196777e-01
-4.290636628866195679e-03 -5.674706697463989258e-01 -1.094250530004501343e-01
-5.624828115105628967e-02 2.524051070213317871e-01 3.610925078392028809e-01
-4.290636628866195679e-03 -3.105710744857788086e-01 3.488378226757049561e-02
2.775698900222778320e-02 1.807576268911361694e-01 -2.718896269798278809e-01
-2.374333515763282776e-02 -3.979268670082092285e-01 3.290456533432006836e-01
-4.290636628866195679e-03 -6.165935397148132324e-01 2.438306361436843872e-01
3.632998839020729065e-02 2.454598695039749146e-01 3.599935472011566162e-01
-6.129371002316474915e-02 -2.206609100103378296e-01 3.610925078392028809e-01
-4.290636628866195679e-03 4.283958673477172852e-01 -2.769757509231567383e-01
2.775698900222778320e-02 3.424088060855865479e-01 2.360080033540725708e-01
-4.290636628866195679e-03 -3.628254234790802002e-01 -1.262293606996536255e-01
-6.324966996908187866e-02 -8.086628317832946777e-01 -3.681079447269439697e-01
-4.290636628866195679e-03 7.420814037322998047e-01 -1.087524890899658203e-01
-4.290636628866195679e-03 1.371973901987075806e-01 -4.725189134478569031e-02
-4.290636628866195679e-03 -7.682321071624755859e-01 2.700124680995941162e-01
2.775698900222778320e-02 -8.473054170608520508e-01 -2.780933976173400879e-01
-4.290636628866195679e-03 5.412924289703369141e-01 -6.572776287794113159e-02
-4.290636628866195679e-03 -1.596888154745101929e-01 -9.853184968233108521e-02
-5.396382510662078857e-02 -8.123496770858764648e-01 3.517583012580871582e-01
3.532793372869491577e-02 6.794018149375915527e-01 -3.681079447269439697e-01
-4.290636628866195679e-03 -2.401210218667984009e-01 2.438848167657852173e-01
-4.290636628866195679e-03 4.173373878002166748e-01 -6.283593177795410156e-02
-6.358555704355239868e-02 -5.071809291839599609e-01 -3.681079447269439697e-01
-3.687818348407745361e-02 -5.006748437881469727e-01 -3.360611200332641602e-01
2.775698900222778320e-02 6.330390572547912598e-01 -1.929926276206970215e-01
2.775698900222778320e-02 -6.994186639785766602e-01 -2.958814203739166260e-01
2.775698900222778320e-02 6.834519505500793457e-01 8.833200484514236450e-02
-4.290636628866195679e-03 -4.477918520569801331e-02 -2.339910715818405151e-04
-4.290636628866195679e-03 8.162354677915573120e-02 2.344432771205902100e-01
2.775698900222778320e-02 -2.525876164436340332e-01 -1.599413603544235229e-01
-2.869119495153427124e-02 8.519676327705383301e-01 1.316943019628524780e-01
-1.848057843744754791e-02 8.519676327705383301e-01 -5.076450109481811523e-02
2.775698900222778320e-02 4.398511350154876709e-01 1.777783632278442383e-01
-2.805762551724910736e-02 -9.421588778495788574e-01 -3.039542138576507568e-01
2.775698900222778320e-02 -8.726186752319335938e-01 1.314934194087982178e-01
-6.413906812667846680e-02 1.914723962545394897e-01 -3.633408844470977783e-01
-4.290636628866195679e-03 2.898679375648498535e-01 2.065047025680541992e-01
-6.368954479694366455e-02 6.585719585418701172e-01 3.610925078392028809e-01
2.775698900222778320e-02 -2.837688922882080078e-01 -2.886496484279632568e-01
2.775698900222778320e-02 -1.177838221192359924e-01 2.684960067272186279e-01
2.775698900222778320e-02 -5.042307376861572266e-01 1.083947643637657166e-01
2.775698900222778320e-02 4.138820171356201172e-01 -2.133734375238418579e-01
-5.854120850563049316e-02 5.877506732940673828e-01 -3.393363058567047119e-01
-4.290636628866195679e-03 -4.973868727684020996e-01 -9.359366446733474731e-02
-4.290636628866195679e-03 6.278328299522399902e-01 1.935536414384841919e-01
-4.290636628866195679e-03 7.187660932540893555e-01 -2.766685187816619873e-01
-4.290636628866195679e-03 -9.346749782562255859e-01 -7.878302037715911865e-02
2.775698900222778320e-02 -2.173079252243041992e-01 1.678671240806579590e-01
1.937994547188282013e-02 -9.427005052566528320e-01 3.269422948360443115e-01
-4.290636628866195679e-03 -4.134707152843475342e-01 -2.974097430706024170e-01
2.775698900222778320e-02 5.589513778686523438e-01 -1.683459728956222534e-01
-1.097541116178035736e-02 7.891373634338378906e-01 2.969377636909484863e-01
2.615464664995670319e-02 5.766469240188598633e-01 3.489301800727844238e-01
2.775698900222778320e-02 -7.042388916015625000e-01 -1.471862494945526123e-01
-1.223505008965730667e-02 8.061416149139404297e-01 -3.360611200332641602e-01
3.246366977691650391e-02 -2.010668814182281494e-01 -3.681079447269439697e-01
2.775698900222778320e-02 -3.245817124843597412e-01 2.889940142631530762e-01
2.775698900222778320e-02 8.616311848163604736e-02 -1.664937287569046021e-01
2.775698900222778320e-02 4.959034919738769531e-01 -2.819288969039916992e-01
2.615464664995670319e-02 8.639458417892456055e-01 -1.726630181074142456e-01
-4.290636628866195679e-03 2.915124297142028809e-01 -5.636373534798622131e-02
-4.290636628866195679e-03 -8.855530619621276855e-01 2.336015738546848297e-02
-4.290636628866195679e-03 -9.354489445686340332e-01 -1.443994790315628052e-01
-4.290636628866195679e-03 -6.536043882369995117e-01 2.790256440639495850e-01
-1.845265179872512817e-02 -5.373991727828979492e-01 -3.360611200332641602e-01
-4.290636628866195679e-03 -7.527193427085876465e-02 7.436429709196090698e-02
2.775698900222778320e-02 -6.827630400657653809e-01 1.489033102989196777e-01
-4.290636628866195679e-03 4.451814293861389160e-01 2.615950405597686768e-01
-2.062840759754180908e-02 -8.471325784921646118e-02 -3.360611200332641602e-01
2.775698900222778320e-02 4.377359449863433838e-01 1.670480519533157349e-02
-4.290636628866195679e-03 7.943279147148132324e-01 1.049531549215316772e-01
-6.413906812667846680e-02 -1.898056119680404663e-01 -3.646899759769439697e-01
2.775698900222778320e-02 5.136531591415405273e-01 1.094622015953063965e-01
-4.290636628866195679e-03 -4.388775527477264404e-01 -1.956080496311187744e-01
-5.396382510662078857e-02 2.208697609603404999e-02 -3.096724748611450195e-01
-1.357883401215076447e-02 2.336008399724960327e-01 3.290456533432006836e-01
-4.290636628866195679e-03 -7.889733314514160156e-01 2.520802197977900505e-03
3.598021343350410461e-02 -3.508167266845703125e-01 -3.681079447269439697e-01
-6.881109438836574554e-03 -4.843609631061553955e-01 3.290456533432006836e-01
2.775698900222778320e-02 1.810697913169860840e-01 1.827455312013626099e-02
-5.396382510662078857e-02 4.029013514518737793e-01 -3.106778860092163086e-01
3.430717065930366516e-02 -7.372694015502929688e-01 3.610925078392028809e-01
-1.079776696860790253e-02 6.630475521087646484e-01 -3.039542138576507568e-01
-1.809952035546302795e-02 2.539786994457244873e-01 -3.039542138576507568e-01
2.615464664995670319e-02 4.533920586109161377e-01 -3.654915392398834229e-01
2.775698900222778320e-02 2.276097685098648071e-01 -2.157594263553619385e-01
-4.290636628866195679e-03 1.747577041387557983e-01 1.631040126085281372e-01
-4.290636628866195679e-03 8.151853084564208984e-01 -1.766600161790847778e-01
-4.290636628866195679e-03 -8.528503775596618652e-01 2.754501104354858398e-01
-1.723339781165122986e-02 -6.157669797539710999e-02 2.969377636909484863e-01
2.775698900222778320e-02 8.259985446929931641e-01 1.187473908066749573e-02
-4.290636628866195679e-03 -1.273058801889419556e-01 -2.554900646209716797e-01
-4.290636628866195679e-03 3.096421360969543457e-01 3.167141973972320557e-02
-2.856918796896934509e-02 1.101352348923683167e-01 -3.039542138576507568e-01
2.775698900222778320e-02 -4.661347270011901855e-01 2.759985923767089844e-01
-4.601434990763664246e-02 3.048633038997650146e-01 2.969377636909484863e-01
-4.290636628866195679e-03 8.182409405708312988e-01 2.029419839382171631e-01
-4.290636628866195679e-03 -4.081670045852661133e-01 1.438713818788528442e-01
-3.050810843706130981e-02 7.876785099506378174e-02 2.969377636909484863e-01
2.775698900222778320e-02 1.279774308204650879e-01 2.385682910680770874e-01
-4.290636628866195679e-03 6.537724137306213379e-01 -9.111175686120986938e-02
3.225333243608474731e-02 7.467352151870727539e-01 3.610925078392028809e-01
2.660643681883811951e-02 -7.940964400768280029e-02 3.610925078392028809e-01
2.775698900222778320e-02 -3.472943603992462158e-01 -5.596925690770149231e-02
-4.290636628866195679e-03 -5.314366817474365234e-01 2.267840951681137085e-01
-4.672925919294357300e-02 4.487746953964233398e-01 2.969377636909484863e-01
3.632998839020729065e-02 -5.794941186904907227e-01 3.594627678394317627e-01
-4.290636628866195679e-03 -1.166302189230918884e-01 -1.377641875296831131e-02
2.775698900222778320e-02 3.289135918021202087e-02 -2.959503531455993652e-01
2.775698900222778320e-02 7.984184026718139648e-01 -2.557047307491302490e-01
-4.290636628866195679e-03 -6.371181607246398926e-01 -8.305327594280242920e-02
-4.290636628866195679e-03 -3.816109895706176758e-01 2.287427186965942383e-01
2.615464664995670319e-02 -5.230005979537963867e-01 -3.616924583911895752e-01
-4.290636628866195679e-03 -5.138258337974548340e-01 -2.933573722839355469e-02
-4.290636628866195679e-03 5.672290325164794922e-01 1.445301622152328491e-01
2.803517319262027740e-02 -3.320449292659759521e-01 3.610925078392028809e-01
2.775698900222778320e-02 2.878053486347198486e-02 -2.389782220125198364e-01
2.775698900222778320e-02 6.950756311416625977e-01 2.166138738393783569e-01
-1.053853984922170639e-02 3.385162055492401123e-01 -3.360611200332641602e-01
-5.396382510662078857e-02 7.599334716796875000e-01 3.448957502841949463e-01
-4.290636628866195679e-03 -1.924751847982406616e-01 -1.981082707643508911e-01
-6.143886223435401917e-02 8.840144872665405273e-01 2.987664043903350830e-01
2.615464664995670319e-02 -3.125745803117752075e-02 -3.640617132186889648e-01
-4.438680037856101990e-02 -7.533884048461914062e-01 -3.039542138576507568e-01
2.775698900222778320e-02 -4.447376728057861328e-01 -1.185495033860206604e-01
-5.830211937427520752e-02 -1.095568463206291199e-01 2.484352141618728638e-01
2.775698900222778320e-02 7.276315689086914062e-01 -3.865387663245201111e-02
-4.290636628866195679e-03 5.543734431266784668e-01 3.277519345283508301e-02
-2.426072582602500916e-02 5.614615082740783691e-01 2.969377636909484863e-01
-6.190837919712066650e-02 -4.194184541702270508e-01 3.610925078392028809e-01
-4.290636628866195679e-03 -1.028688028454780579e-01 -1.128312125802040100e-01
2.775698900222778320e-02 2.741546928882598877e-01 2.865410447120666504e-01
-5.571800842881202698e-02 -6.201680898666381836e-01 3.610925078392028809e-01
2.615464664995670319e-02 8.822469115257263184e-01 1.713638752698898315e-01
2.775698900222778320e-02 -5.459691882133483887e-01 1.011284887790679932e-01
-4.290636628866195679e-03 -6.585969328880310059e-01 7.204340398311614990e-02
1.937049673870205879e-03 9.895171970129013062e-02 3.005319833755493164e-01
-4.290636628866195679e-03 7.391282320022583008e-01 -1.632451117038726807e-01
-4.290636628866195679e-03 5.040531158447265625e-01 -1.228566840291023254e-01
2.775698900222778320e-02 2.117970734834671021e-01 -7.621318846940994263e-02
-2.014383487403392792e-02 3.766638413071632385e-02 -3.360611200332641602e-01
-4.463839530944824219e-02 -2.042672485113143921e-01 -3.039542138576507568e-01
3.521449118852615356e-02 3.971643447875976562e-01 3.610925078392028809e-01
2.775698900222778320e-02 6.891495585441589355e-01 1.477718651294708252e-01
2.775698900222778320e-02 -4.568615853786468506e-01 3.566427528858184814e-02
2.775698900222778320e-02 1.964791491627693176e-02 -8.115787804126739502e-02
2.775698900222778320e-02 -6.811707615852355957e-01 -1.076594516634941101e-01
-2.108589000999927521e-02 -2.713928818702697754e-01 3.290456533432006836e-01
2.775698900222778320e-02 -8.140581846237182617e-01 -9.066036343574523926e-02
-4.290636628866195679e-03 -3.218520581722259521e-01 2.574109733104705811e-01
2.775698900222778320e-02 3.398298323154449463e-01 1.147816777229309082e-01
2.775698900222778320e-02 8.063473701477050781e-01 -1.275429874658584595e-01
-5.530463065952062607e-03 4.767044186592102051e-01 3.290456533432006836e-01
-6.046201661229133606e-02 -5.051765963435173035e-02 3.610925078392028809e-01
2.775698900222778320e-02 -3.371526896953582764e-01 -1.600447744131088257e-01
2.775698900222778320e-02 1.541641801595687866e-01 -2.004302293062210083e-01
2.775698900222778320e-02 7.414009571075439453e-01 2.721877098083496094e-01
-4.290636628866195679e-03 -7.441861629486083984e-01 -9.219197556376457214e-03
2.775698900222778320e-02 -6.490550041198730469e-01 -2.022775858640670776e-01
2.615464664995670319e-02 -6.688469052314758301e-01 -3.662143051624298096e-01
2.775698900222778320e-02 6.937000155448913574e-01 2.560815811157226562e-01
-4.290636628866195679e-03 -1.645750105381011963e-01 1.741063296794891357e-01
2.615464664995670319e-02 -1.365379691123962402e-01 -3.245211541652679443e-01
-4.290636628866195679e-03 -2.863754332065582275e-01 -2.297070473432540894e-01
2.775698900222778320e-02 3.979659378528594971e-01 -1.189490780234336853e-02
2.775698900222778320e-02 -7.916173338890075684e-01 -1.623824983835220337e-01
-3.512015566229820251e-02 -2.046434134244918823e-01 2.969377636909484863e-01
-6.413906812667846680e-02 -3.460201323032379150e-01 -3.602173626422882080e-01
2.775698900222778320e-02 2.532204687595367432e-01 -2.827166616916656494e-01
-4.448448121547698975e-02 -7.439734935760498047e-01 3.290456533432006836e-01
2.775698900222778320e-02 -2.454099804162979126e-01 8.890042081475257874e-03
2.775698900222778320e-02 -7.166138887405395508e-01 2.683650255203247070e-01
-4.290636628866195679e-03 -2.442696690559387207e-01 1.282349526882171631e-01
3.447338938713073730e-02 -1.678492128849029541e-01 3.610925078392028809e-01
2.775698900222778320e-02 2.244103997945785522e-01 2.213110029697418213e-01
-4.290636628866195679e-03 -1.656247228384017944e-01 -3.729742392897605896e-02
2.775698900222778320e-02 -5.587942600250244141e-01 2.831999063491821289e-01
2.775698900222778320e-02 3.851802945137023926e-01 2.815386354923248291e-01
2.775698900222778320e-02 -3.912622630596160889e-01 -2.459796071052551270e-01
2.615464664995670319e-02 -7.308678030967712402e-01 -3.647372424602508545e-01
3.144201636314392090e-02 7.603519558906555176e-01 -3.681079447269439697e-01
2.775698900222778320e-02 -3.263384699821472168e-01 8.979599922895431519e-02
3.632998839020729065e-02 6.296505928039550781e-01 -3.679031133651733398e-01
-3.190730139613151550e-02 -5.465246438980102539e-01 3.290456533432006836e-01
-4.290636628866195679e-03 6.217374205589294434e-01 4.770537465810775757e-02
-8.001714944839477539e-03 8.519676327705383301e-01 -3.031644523143768311e-01
-4.290636628866195679e-03 3.150512278079986572e-01 -1.700308471918106079e-01
-5.396382510662078857e-02 7.912732958793640137e-01 -3.678883612155914307e-01
2.775698900222778320e-02 -7.512481510639190674e-02 1.544000357389450073e-01
-1.898792944848537445e-02 5.276588797569274902e-01 -3.360611200332641602e-01
-1.785493455827236176e-02 4.019274711608886719e-01 -3.039542138576507568e-01
-4.290636628866195679e-03 3.812266290187835693e-01 2.440226823091506958e-01
-4.290636628866195679e-03 -6.849388033151626587e-02 -2.874817550182342529e-01
-1.982918754220008850e-02 5.909608602523803711e-01 -3.360611200332641602e-01
2.775698900222778320e-02 1.080604121088981628e-01 1.900558918714523315e-01
2.615464664995670319e-02 -6.533336043357849121e-01 3.575927615165710449e-01
-2.579581178724765778e-02 8.358427882194519043e-01 3.290456533432006836e-01
-4.290636628866195679e-03 -8.159651607275009155e-02 2.158064097166061401e-01
-4.290636628866195679e-03 3.617891669273376465e-01 3.356497269123792648e-03
2.775698900222778320e-02 -8.202402591705322266e-01 -2.395936697721481323e-01
2.615464664995670319e-02 -2.828235626220703125e-01 -3.680193126201629639e-01
2.775698900222778320e-02 -8.456776142120361328e-01 2.192452922463417053e-02
-5.249610170722007751e-03 6.927871108055114746e-01 -3.360611200332641602e-01
-5.396382510662078857e-02 -8.770341873168945312e-01 -3.072973489761352539e-01
-1.835390366613864899e-02 -2.298050671815872192e-01 -3.039542138576507568e-01
2.615464664995670319e-02 1.699182018637657166e-02 3.607704639434814453e-01
2.775698900222778320e-02 -5.362105965614318848e-01 -6.149109080433845520e-02
-4.290636628866195679e-03 -8.059519529342651367e-01 1.092091277241706848e-01
2.775698900222778320e-02 -3.852426409721374512e-01 2.787489593029022217e-01
2.775698900222778320e-02 4.819450974464416504e-01 7.222272455692291260e-02
3.396113961935043335e-02 -9.345824122428894043e-01 -3.476060032844543457e-01
3.409890085458755493e-02 1.509825140237808228e-01 -3.681079447269439697e-01
3.439471125602722168e-02 2.696830630302429199e-01 -3.561396300792694092e-01
2.775698900222778320e-02 3.724547028541564941e-01 -2.582679688930511475e-01
-4.290636628866195679e-03 -9.418614506721496582e-01 1.473858654499053955e-01
2.775698900222778320e-02 2.601026892662048340e-01 -1.416471898555755615e-01
-6.214244291186332703e-02 8.840144872665405273e-01 -1.249344497919082642e-01
-4.290636628866195679e-03 5.795453861355781555e-02 8.864928781986236572e-02
-6.366561353206634521e-02 8.717458248138427734e-01 8.599506318569183350e-02
-5.214425176382064819e-02 8.198637366294860840e-01 -2.173980027437210083e-01
-2.355288900434970856e-02 -6.868673563003540039e-01 -3.360611200332641602e-01
2.775698900222778320e-02 7.494274377822875977e-01 6.346518546342849731e-02
-5.396382510662078857e-02 8.801366686820983887e-01 1.685692369937896729e-01
2.775698900222778320e-02 1.911060661077499390e-01 7.637924700975418091e-02
2.615464664995670319e-02 8.742666840553283691e-01 8.179324865341186523e-02
-4.909465834498405457e-02 -4.781522750854492188e-01 2.969377636909484863e-01
3.443725034594535828e-02 3.210934996604919434e-01 3.423463106155395508e-01
-4.290636628866195679e-03 -5.516865253448486328e-01 -1.793217062950134277e-01
2.775698900222778320e-02 -8.774428367614746094e-01 2.639308273792266846e-01
2.775698900222778320e-02 1.041087135672569275e-01 6.115787476301193237e-02
-3.710339311510324478e-03 -8.251323699951171875e-01 -3.360611200332641602e-01
3.632998839020729065e-02 8.788456916809082031e-01 -2.342614084482192993e-01
-3.938923327950760722e-06 1.672413051128387451e-01 3.049504458904266357e-01
-3.906111791729927063e-02 8.198637366294860840e-01 2.788513302803039551e-01
-4.290636628866195679e-03 4.218080341815948486e-01 -1.321652829647064209e-01
-4.290636628866195679e-03 7.446278929710388184e-01 1.061948910355567932e-01
-5.384397879242897034e-02 -5.836575627326965332e-01 -3.039542138576507568e-01
-4.259883984923362732e-02 -9.188238382339477539e-01 2.969377636909484863e-01
-4.290636628866195679e-03 7.810124158859252930e-01 -2.120470255613327026e-01
-5.602731183171272278e-02 2.962863743305206299e-01 -3.681079447269439697e-01
2.775698900222778320e-02 -9.764189273118972778e-02 -7.223854959011077881e-02
2.775698900222778320e-02 1.301832199096679688e-01 -9.991370886564254761e-02
2.775698900222778320e-02 -3.003388047218322754e-01 -1.229854580014944077e-02
-4.290636628866195679e-03 -9.343234300613403320e-01 -3.989337012171745300e-03
-5.396382510662078857e-02 1.977716535329818726e-01 2.999677658081054688e-01
-1.102608535438776016e-02 -4.421901702880859375e-01 -3.360611200332641602e-01
-5.396382510662078857e-02 8.353140354156494141e-01 -2.481201477348804474e-02
-6.138765066862106323e-02 -7.355747818946838379e-01 -3.681079447269439697e-01
2.775698900222778320e-02 -1.325314282439649105e-03 -2.737635672092437744e-01
-4.290636628866195679e-03 -7.433205246925354004e-01 -1.460410207509994507e-01
2.775698900222778320e-02 6.786356568336486816e-01 1.522515993565320969e-02
-3.748191893100738525e-02 -3.495447337627410889e-03 2.969377636909484863e-01
-4.290636628866195679e-03 -9.049422144889831543e-01 2.629884481430053711e-01
-3.757881373167037964e-02 -3.596546053886413574e-01 2.969377636909484863e-01
-1.867082715034484863e-02 -8.588758707046508789e-01 3.290456533432006836e-01
-4.290636628866195679e-03 -3.660710752010345459e-01 3.241537883877754211e-02
-4.290636628866195679e-03 -1.257282309234142303e-02 2.668780982494354248e-01
3.465694189071655273e-02 8.648675680160522461e-01 -2.946318387985229492e-01
-2.836535125970840454e-02 8.198637366294860840e-01 4.504612833261489868e-02
2.775698900222778320e-02 -2.135137915611267090e-01 -1.056151613593101501e-01
2.775698900222778320e-02 3.939029574394226074e-01 1.384288072586059570e-01
2.775698900222778320e-02 -3.275211155414581299e-01 -2.910986542701721191e-01
-3.640955314040184021e-02 5.889914035797119141e-01 3.290456533432006836e-01
-4.290636628866195679e-03 -7.709085941314697266e-01 1.870938390493392944e-01
-5.396382510662078857e-02 8.837053179740905762e-01 -2.710930109024047852e-01
2.775698900222778320e-02 -3.692970275878906250e-01 1.768369674682617188e-01
-1.744021847844123840e-02 -5.956869125366210938e-01 -3.360611200332641602e-01
2.775698900222778320e-02 -6.206506490707397461e-01 1.093560736626386642e-02
2.775698900222778320e-02 6.322296261787414551e-01 -2.769491672515869141e-01
-1.479043066501617432e-02 -3.096946775913238525e-01 3.290456533432006836e-01
2.775698900222778320e-02 6.132372617721557617e-01 -1.909953542053699493e-02
2.775698900222778320e-02 -8.114063143730163574e-01 2.386647909879684448e-01
2.775698900222778320e-02 -8.794930577278137207e-01 -1.991087347269058228e-01
2.775698900222778320e-02 -7.530201077461242676e-01 -2.829766571521759033e-01
2.775698900222778320e-02 -3.528962284326553345e-02 -5.810324847698211670e-02
2.775698900222778320e-02 5.730507373809814453e-01 2.707116305828094482e-01
-5.026047676801681519e-02 6.700272560119628906e-01 2.969377636909484863e-01
-4.290636628866195679e-03 -7.279904484748840332e-01 1.072859615087509155e-01
-5.977575853466987610e-02 1.220533326268196106e-01 -3.431068062782287598e-01
-4.290636628866195679e-03 5.767384767532348633e-01 -1.298679262399673462e-01
-4.290636628866195679e-03 -2.006434649229049683e-01 -1.407451778650283813e-01
-4.290636628866195679e-03 -3.832013309001922607e-01 1.051432043313980103e-01
-4.290636628866195679e-03 2.258372604846954346e-01 -1.784413605928421021e-01
2.775698900222778320e-02 -2.298159003257751465e-01 2.876794040203094482e-01
-1.680208742618560791e-02 -1.982702910900115967e-01 3.290456533432006836e-01
-6.413906812667846680e-02 8.303760737180709839e-02 3.544229567050933838e-01
-4.290636628866195679e-03 3.540177047252655029e-01 1.279700696468353271e-01
-4.290636628866195679e-03 -3.897608257830142975e-03 -2.153320610523223877e-01
-3.787324577569961548e-02 -4.112068414688110352e-01 -3.360611200332641602e-01
-4.290636628866195679e-03 -2.963290214538574219e-01 -1.225090771913528442e-01
2.775698900222778320e-02 -6.990336179733276367e-01 -2.337739616632461548e-01
-4.290636628866195679e-03 2.181613594293594360e-01 1.672575771808624268e-01
-5.812979117035865784e-02 -1.490744948387145996e-01 3.610925078392028809e-01
-4.290636628866195679e-03 1.414376050233840942e-01 -2.693303525447845459e-01
-4.290636628866195679e-03 -5.999123454093933105e-01 1.781269460916519165e-01
-4.290636628866195679e-03 6.672906875610351562e-01 -2.110632807016372681e-01
-4.290636628866195679e-03 -6.704338639974594116e-02 -1.686561703681945801e-01
-3.898283466696739197e-02 7.595345973968505859e-01 -3.039542138576507568e-01
-4.290636628866195679e-03 5.070200562477111816e-01 -1.903388053178787231e-01
2.775698900222778320e-02 4.702800512313842773e-01 -5.525365471839904785e-02
-4.634905233979225159e-02 -9.425788372755050659e-02 2.969377636909484863e-01
2.625449746847152710e-02 5.052278637886047363e-01 3.005319833755493164e-01
-2.254534885287284851e-02 2.566384077072143555e-01 -3.360611200332641602e-01
-6.413906812667846680e-02 4.414443969726562500e-01 3.553298711776733398e-01
2.775698900222778320e-02 -4.003601372241973877e-01 -2.558679506182670593e-02
-2.269969508051872253e-02 6.340365409851074219e-01 3.290456533432006836e-01
2.775698900222778320e-02 -6.682452559471130371e-01 2.254813164472579956e-01
-1.535739097744226456e-02 8.198637366294860840e-01 -9.033077955245971680e-02
-3.176550194621086121e-02 -2.733081579208374023e-01 2.969377636909484863e-01
-4.290636628866195679e-03 1.505024172365665436e-02 -3.274878486990928650e-02
-4.784514382481575012e-02 -4.332154095172882080e-01 2.969377636909484863e-01
2.775698900222778320e-02 -7.194814085960388184e-01 1.959051489830017090e-01
-5.396382510662078857e-02 -1.282249391078948975e-01 -3.200307786464691162e-01
2.775698900222778320e-02 -8.611437082290649414e-01 -9.324418008327484131e-02
-2.025494165718555450e-02 5.221260944381356239e-04 3.290456533432006836e-01
2.775698900222778320e-02 -3.092288970947265625e-01 -1.024886593222618103e-01
-4.290636628866195679e-03 -4.797859191894531250e-01 2.350518405437469482e-01
2.615464664995670319e-02 8.172817826271057129e-01 3.528020977973937988e-01
2.775698900222778320e-02 -4.677270054817199707e-01 -2.969912290573120117e-01
2.775698900222778320e-02 -8.463423252105712891e-01 8.975385129451751709e-02
2.775698900222778320e-02 7.744142413139343262e-02 -3.015514910221099854e-01
-4.290636628866195679e-03 -5.076999068260192871e-01 1.308553069829940796e-01
2.775698900222778320e-02 3.782340586185455322e-01 5.537823960185050964e-02
-4.290636628866195679e-03 -2.802954427897930145e-02 1.209568828344345093e-01
2.673464827239513397e-02 7.544790506362915039e-01 -3.085203766822814941e-01
-1.505953166633844376e-02 -1.943727433681488037e-01 -3.360611200332641602e-01
-4.290636628866195679e-03 -1.471939380280673504e-03 -1.297792941331863403e-01
1.919432543218135834e-02 -9.078993797302246094e-01 -3.085203766822814941e-01
1.739375852048397064e-02 -1.537686735391616821e-01 2.628998160362243652e-01
-5.727308616042137146e-02 6.590328216552734375e-01 -3.232843279838562012e-01
-4.290636628866195679e-03 5.541331171989440918e-01 2.059936374425888062e-01
-5.396382510662078857e-02 -6.892681121826171875e-01 3.579659759998321533e-01
2.775698900222778320e-02 7.349268347024917603e-02 -9.422277100384235382e-03
2.775698900222778320e-02 -8.055265545845031738e-01 2.891791164875030518e-01
2.775698900222778320e-02 -4.001159071922302246e-01 -1.332071274518966675e-01
-2.432483434677124023e-02 -6.674948930740356445e-01 -3.039542138576507568e-01
2.775698900222778320e-02 -7.342926263809204102e-01 -5.967329069972038269e-02
8.409339934587478638e-03 8.278764486312866211e-01 2.752413749694824219e-01
-4.290636628866195679e-03 -2.049417793750762939e-01 3.827418386936187744e-02
-5.727672576904296875e-02 1.864552348852157593e-01 3.610925078392028809e-01
-4.290636628866195679e-03 -1.342809945344924927e-01 1.109392866492271423e-01
9.429316967725753784e-03 4.420519769191741943e-01 -3.119659125804901123e-01
2.775698900222778320e-02 8.162891864776611328e-01 1.533375382423400879e-01
3.632811829447746277e-02 -7.959028482437133789e-01 -3.586092889308929443e-01
-4.290636628866195679e-03 6.750956177711486816e-01 2.766780853271484375e-01
2.814093232154846191e-02 -3.961277902126312256e-01 3.610925078392028809e-01
-2.056589722633361816e-02 4.089721739292144775e-01 3.290456533432006836e-01
4.602203145623207092e-03 8.519676327705383301e-01 -1.270525902509689331e-01
8.097773790359497070e-02 -1.096606403589248657e-01 2.395126372575759888e-01
-4.290636628866195679e-03 -3.192977011203765869e-01 1.336499452590942383e-01
-5.396382510662078857e-02 -3.103780746459960938e-01 -3.130028247833251953e-01
2.775698900222778320e-02 7.050208002328872681e-02 1.027316153049468994e-01
3.632998839020729065e-02 -5.226883888244628906e-01 3.520537316799163818e-01
-1.725003868341445923e-02 2.801358997821807861e-01 3.290456533432006836e-01
-4.290636628866195679e-03 -8.857755661010742188e-01 -2.602905929088592529e-01
-3.416674956679344177e-02 -7.088690400123596191e-01 2.969377636909484863e-01
-3.530154377222061157e-02 3.306994736194610596e-01 -3.039542138576507568e-01
-4.290636628866195679e-03 7.610993385314941406e-01 2.148472964763641357e-01
2.358382754027843475e-02 1.985407173633575439e-01 3.049504458904266357e-01
2.775698900222778320e-02 -9.140381217002868652e-01 -4.487427696585655212e-02
-4.290636628866195679e-03 2.383757531642913818e-01 -1.978529989719390869e-02
-4.290636628866195679e-03 -4.367052614688873291e-01 2.662242352962493896e-01
2.775698900222778320e-02 4.565432071685791016e-01 1.178510636091232300e-01
-4.379881918430328369e-02 -1.055205613374710083e-01 -3.039542138576507568e-01
-5.249648913741111755e-02 8.198637366294860840e-01 -1.314887851476669312e-01
-4.290636628866195679e-03 -8.628561496734619141e-01 2.205173373222351074e-01
2.775698900222778320e-02 -5.518652871251106262e-02 -1.140296235680580139e-01
2.775698900222778320e-02 4.599237442016601562e-01 -2.857899963855743408e-01
2.775698900222778320e-02 -3.497988730669021606e-02 3.971325978636741638e-02
-5.396382510662078857e-02 8.226287961006164551e-01 -2.964841127395629883e-01
2.775698900222778320e-02 4.826205968856811523e-01 2.731921374797821045e-01
-4.290636628866195679e-03 -4.533815383911132812e-01 8.028917759656906128e-02
-4.290636628866195679e-03 5.992374420166015625e-01 -5.335697904229164124e-02
2.170251309871673584e-02 6.106996536254882812e-01 -3.119659125804901123e-01
-1.684862305410206318e-03 5.578342452645301819e-02 3.005319833755493164e-01
-4.290636628866195679e-03 4.768452048301696777e-01 2.058213204145431519e-01
-4.290636628866195679e-03 -6.086577177047729492e-01 -2.385616749525070190e-01
-4.367090389132499695e-02 8.198637366294860840e-01 1.322841346263885498e-01
-6.007590517401695251e-02 4.227642118930816650e-01 -3.681079447269439697e-01
-4.290636628866195679e-03 -4.629294276237487793e-01 1.627967804670333862e-01
3.632998839020729065e-02 3.308658897876739502e-01 -3.658627569675445557e-01
-2.128545381128787994e-02 8.198637366294860840e-01 -3.338603302836418152e-03
-4.290636628866195679e-03 1.254211068153381348e-01 -1.505087018013000488e-01
-5.396382510662078857e-02 3.189448416233062744e-01 3.476825356483459473e-01
-1.637570373713970184e-02 1.686986833810806274e-01 -3.360611200332641602e-01
2.775698900222778320e-02 -5.760337710380554199e-01 6.007290631532669067e-02
2.775698900222778320e-02 -1.574682742357254028e-01 2.115967124700546265e-01
-4.290636628866195679e-03 2.934907376766204834e-01 -2.663338184356689453e-01
-3.046310693025588989e-02 8.519676327705383301e-01 2.356249541044235229e-01
-4.290636628866195679e-03 -5.205515027046203613e-01 3.542764857411384583e-02
-3.254865109920501709e-02 2.396795302629470825e-01 2.969377636909484863e-01
3.627967089414596558e-02 8.832769393920898438e-01 -3.528702072799205780e-03
-4.290636628866195679e-03 -5.913699269294738770e-01 1.980619505047798157e-02
2.775698900222778320e-02 -5.489342212677001953e-01 -3.035809993743896484e-01
-5.396382510662078857e-02 -6.092475056648254395e-01 3.055816590785980225e-01
-4.290636628866195679e-03 2.885237634181976318e-01 2.648781239986419678e-01
2.775698900222778320e-02 -6.129677891731262207e-01 1.340271085500717163e-01
-5.036672949790954590e-02 -3.510924279689788818e-01 -3.039542138576507568e-01
2.775698900222778320e-02 8.240360021591186523e-01 7.846508175134658813e-02
2.775698900222778320e-02 8.057260513305664062e-01 -4.881849139928817749e-02
2.775698900222778320e-02 2.287106812000274658e-01 1.266662925481796265e-01
2.775698900222778320e-02 -7.997713238000869751e-02 -2.251192182302474976e-01
-4.290636628866195679e-03 5.358935892581939697e-02 -1.917617172002792358e-01
2.775698900222778320e-02 -2.526092827320098877e-01 2.133830040693283081e-01
-4.290636628866195679e-03 5.786813497543334961e-01 -1.870104372501373291e-01
-4.290636628866195679e-03 2.032171785831451416e-01 -2.359245866537094116e-01
2.615464664995670319e-02 -2.350919134914875031e-02 3.480015695095062256e-01
-4.290636628866195679e-03 6.086370348930358887e-02 3.022397309541702271e-02
-5.396382510662078857e-02 -2.179327234625816345e-02 -3.482234477996826172e-01
-2.607389912009239197e-02 7.395142316818237305e-01 -3.360611200332641602e-01
3.873901208862662315e-03 6.086533665657043457e-01 3.290456533432006836e-01
2.775698900222778320e-02 3.716472089290618896e-01 -7.174215465784072876e-02
2.775698900222778320e-02 -3.335864096879959106e-02 2.943528592586517334e-01
5.487174261361360550e-03 7.381503582000732422e-01 -3.360611200332641602e-01
-4.290636628866195679e-03 2.408025413751602173e-02 1.976500898599624634e-01
2.775698900222778320e-02 -5.255155563354492188e-01 -1.282204687595367432e-01
-6.119671091437339783e-02 -8.789268136024475098e-01 -3.681079447269439697e-01
-4.290636628866195679e-03 -8.157223463058471680e-01 -5.110698565840721130e-02
2.775698900222778320e-02 2.513701617717742920e-01 3.388931229710578918e-02
2.775698900222778320e-02 -5.973874926567077637e-01 -6.303621083498001099e-02
-4.290636628866195679e-03 -2.554088234901428223e-01 6.610374897718429565e-02
-3.499805461615324020e-03 -7.895907163619995117e-01 3.290456533432006836e-01
2.775698900222778320e-02 -7.713635563850402832e-01 -1.105968728661537170e-01
2.775698900222778320e-02 -3.208890259265899658e-01 -2.474566698074340820e-01
2.775698900222778320e-02 5.342486500740051270e-01 1.554320305585861206e-01
-5.396382510662078857e-02 -8.739579319953918457e-01 3.315399587154388428e-01
-5.396382510662078857e-02 5.179859399795532227e-01 -3.070235848426818848e-01
-3.442002087831497192e-02 4.594717323780059814e-01 -3.039542138576507568e-01
2.775698900222778320e-02 2.811127305030822754e-01 -1.916159838438034058e-01
2.775698900222778320e-02 5.884556770324707031e-01 -2.278065383434295654e-01
9.329760447144508362e-03 4.145860671997070312e-01 -3.360611200332641602e-01
2.775698900222778320e-02 4.349708557128906250e-01 -9.774859994649887085e-02
-5.834092199802398682e-02 8.840144872665405273e-01 3.591525852680206299e-01
-3.227873891592025757e-02 -4.703847765922546387e-01 -3.039542138576507568e-01
2.775698900222778320e-02 -4.789124727249145508e-01 -1.770694181323051453e-02
-4.290636628866195679e-03 -8.556234650313854218e-03 -3.063628375530242920e-01
3.632998839020729065e-02 -9.090318083763122559e-01 3.577621579170227051e-01
2.775698900222778320e-02 -7.746505141258239746e-01 1.298991292715072632e-01
-2.833994291722774506e-02 3.731696009635925293e-01 -3.360611200332641602e-01
-4.290636628866195679e-03 -3.379286825656890869e-01 1.840067356824874878e-01
-4.290636628866195679e-03 -5.786527320742607117e-02 2.541298568248748779e-01
-4.290636628866195679e-03 -3.318637609481811523e-01 -7.914323359727859497e-02
-1.113251410424709320e-02 -1.212200075387954712e-01 2.595359981060028076e-01
2.852300554513931274e-02 -6.933399438858032227e-01 3.145771026611328125e-01
2.775698900222778320e-02 -4.300997555255889893e-01 -2.909972071647644043e-01
2.775698900222778320e-02 3.363970816135406494e-01 2.979569435119628906e-01
2.615464664995670319e-02 -2.418482154607772827e-01 -3.285348713397979736e-01
1.827449724078178406e-02 -1.440543532371520996e-01 3.139143884181976318e-01
2.775698900222778320e-02 5.811264514923095703e-01 5.746467038989067078e-02
-2.421602047979831696e-02 2.017381489276885986e-01 -3.039542138576507568e-01
-4.290636628866195679e-03 -4.694295823574066162e-01 -1.509213000535964966e-01
-5.396382510662078857e-02 -3.741871416568756104e-01 3.501266241073608398e-01
-4.290636628866195679e-03 -2.544674277305603027e-01 -2.607967555522918701e-01
-3.068535774946212769e-02 3.800567686557769775e-01 2.969377636909484863e-01
2.775698900222778320e-02 7.038111090660095215e-01 -9.401758015155792236e-02
2.775698900222778320e-02 -4.914735853672027588e-01 2.141934186220169067e-01
-4.290636628866195679e-03 -2.600774168968200684e-01 -1.014638617634773254e-01
-4.290636628866195679e-03 6.797306537628173828e-01 -1.423512697219848633e-01
-4.290636628866195679e-03 9.818166494369506836e-02 -1.231727823615074158e-01
2.615464664995670319e-02 8.743858337402343750e-01 -1.270250231027603149e-01
2.615464664995670319e-02 -9.909661859273910522e-02 3.150025308132171631e-01
-4.290636628866195679e-03 3.262475430965423584e-01 -1.256577949970960617e-02
2.775698900222778320e-02 -7.259441614151000977e-01 -2.012101411819458008e-01
2.651229687035083771e-02 4.323229193687438965e-01 3.138878047466278076e-01
-6.376989930868148804e-02 -5.658566951751708984e-01 3.503304421901702881e-01
3.457088023424148560e-02 1.516718566417694092e-01 3.433960378170013428e-01
-4.288332164287567139e-02 -7.971711158752441406e-01 2.969377636909484863e-01
-4.936506971716880798e-02 2.872564196586608887e-01 -3.039542138576507568e-01
2.615464664995670319e-02 5.585083365440368652e-01 -3.246944546699523926e-01
2.775698900222778320e-02 -9.261019825935363770e-01 -1.868853718042373657e-01
-4.290636628866195679e-03 -8.144884705543518066e-01 2.787902951240539551e-01
-4.368153959512710571e-02 -8.016260266304016113e-01 -3.039542138576507568e-01
2.775698900222778320e-02 6.091634035110473633e-01 -7.513748109340667725e-02
2.775698900222778320e-02 -9.100686907768249512e-01 -1.059519350528717041e-01
-4.290636628866195679e-03 3.147646784782409668e-01 8.418248593807220459e-02
1.297136675566434860e-02 8.519676327705383301e-01 2.184139490127563477e-01
-4.790423437952995300e-02 7.123732566833496094e-01 2.969377636909484863e-01
2.615464664995670319e-02 -9.402169585227966309e-01 -3.155522942543029785e-01
-6.413906812667846680e-02 -4.017436802387237549e-01 -3.627933859825134277e-01
2.775698900222778320e-02 7.001755237579345703e-01 -2.535964548587799072e-01
-4.290636628866195679e-03 5.259100198745727539e-01 -2.520868778228759766e-01
2.905898913741111755e-02 -6.069895625114440918e-01 3.151699304580688477e-01
-5.396382510662078857e-02 1.497348845005035400e-01 3.040297627449035645e-01
3.761839587241411209e-03 8.519676327705383301e-01 4.743654280900955200e-02
2.775698900222778320e-02 1.063194274902343750e-01 -2.571404576301574707e-01
1.029774360358715057e-02 1.787980049848556519e-01 -3.085203766822814941e-01
3.632998839020729065e-02 6.882899403572082520e-01 3.543559908866882324e-01
-4.290636628866195679e-03 1.497772336006164551e-01 4.301878064870834351e-02
2.775698900222778320e-02 -1.300131976604461670e-01 1.568598896265029907e-01
-4.290636628866195679e-03 -7.078567743301391602e-01 -1.007993742823600769e-01
3.044085204601287842e-02 4.984874427318572998e-01 -3.355470597743988037e-01
2.775698900222778320e-02 6.319627165794372559e-01 2.346983253955841064e-01
-5.396382510662078857e-02 -5.727221965789794922e-01 -3.655644059181213379e-01
-4.290636628866195679e-03 7.993371486663818359e-01 1.590252816677093506e-01
-4.290636628866195679e-03 4.975283443927764893e-01 1.444277614355087280e-01
2.775698900222778320e-02 -4.422158002853393555e-01 -2.396301031112670898e-01
2.373774070292711258e-03 -8.912919759750366211e-01 -3.360611200332641602e-01
-3.213113173842430115e-02 5.179021954536437988e-01 3.290456533432006836e-01
-4.290636628866195679e-03 1.511115282773971558e-01 1.983787715435028076e-01
-4.290636628866195679e-03 8.012022376060485840e-01 -2.880646884441375732e-01
-5.396382510662078857e-02 4.674568474292755127e-01 -3.654029071331024170e-01
-4.290636628866195679e-03 -8.853669166564941406e-01 -1.168203279376029968e-01
2.775698900222778320e-02 -2.852225117385387421e-02 -2.004489451646804810e-01
-4.290636628866195679e-03 -6.698927283287048340e-01 -6.063861772418022156e-02
1.058843452483415604e-02 -9.052917957305908203e-01 3.049504458904266357e-01
2.775698900222778320e-02 -6.527476906776428223e-01 -2.557913661003112793e-01
-4.281685501337051392e-02 -6.666588783264160156e-01 2.969377636909484863e-01
1.277944259345531464e-02 -7.913366556167602539e-01 -3.062387704849243164e-01
-4.290636628866195679e-03 1.832046657800674438e-01 1.197722554206848145e-01
-4.290636628866195679e-03 5.585978627204895020e-01 9.305700659751892090e-02
3.632998839020729065e-02 -7.933593392372131348e-01 3.557533323764801025e-01
2.775698900222778320e-02 -5.730816125869750977e-01 2.044003605842590332e-01
2.615464664995670319e-02 5.337818861007690430e-01 3.571240305900573730e-01
-1.428274903446435928e-02 -5.459436178207397461e-01 2.969377636909484863e-01
2.775698900222778320e-02 -2.752431631088256836e-01 8.939836919307708740e-02
2.775698900222778320e-02 1.541336625814437866e-01 1.293664127588272095e-01
-4.290636628866195679e-03 -5.938130021095275879e-01 -3.237528353929519653e-02
-4.290636628866195679e-03 -6.535423994064331055e-01 1.321541666984558105e-01
-5.396382510662078857e-02 7.604869008064270020e-01 2.988599538803100586e-01
-6.413906812667846680e-02 8.809342980384826660e-01 -7.357078045606613159e-02
2.775698900222778320e-02 -1.191636100411415100e-01 2.214547842741012573e-01
-2.083857730031013489e-02 -4.430705308914184570e-01 3.290456533432006836e-01
2.775698900222778320e-02 2.989283502101898193e-01 1.670478284358978271e-01
-5.057460069656372070e-02 -8.317851424217224121e-01 2.969377636909484863e-01
3.447733074426651001e-02 8.122783899307250977e-01 -3.561721146106719971e-01
2.615464664995670319e-02 -4.926089942455291748e-01 3.175952732563018799e-01
1.788650872185826302e-03 7.528586685657501221e-02 -3.360611200332641602e-01
-4.290636628866195679e-03 6.276614665985107422e-01 1.131785511970520020e-01
2.775698900222778320e-02 -1.487308144569396973e-01 -1.376895755529403687e-01
-4.290636628866195679e-03 -2.415252178907394409e-01 -1.960285305976867676e-01
-4.290636628866195679e-03 -5.727192163467407227e-01 -2.644845247268676758e-01
2.775698900222778320e-02 -4.515578746795654297e-01 1.233625560998916626e-01
-4.290636628866195679e-03 7.697186470031738281e-01 5.579871684312820435e-02
-3.331732749938964844e-02 -5.242235660552978516e-01 -3.039542138576507568e-01
-4.290636628866195679e-03 -6.832346916198730469e-01 2.339686453342437744e-01
-6.413906812667846680e-02 -1.357245892286300659e-01 -3.597949147224426270e-01
2.775698900222778320e-02 -4.564607739448547363e-01 -6.040365993976593018e-02
-5.396382510662078857e-02 8.306651711463928223e-01 1.844104826450347900e-01
2.775698900222778320e-02 5.525349378585815430e-01 -2.706141769886016846e-02
-6.076157093048095703e-02 2.416617721319198608e-01 -3.681079447269439697e-01
-4.290636628866195679e-03 4.629340469837188721e-01 -2.368206828832626343e-01
2.775698900222778320e-02 7.747584581375122070e-01 -1.698811650276184082e-01
2.775698900222778320e-02 -1.064598858356475830e-01 2.842547558248043060e-02
-4.290636628866195679e-03 1.268371194601058960e-01 -2.301353961229324341e-01
-4.290636628866195679e-03 5.797615647315979004e-01 2.465928047895431519e-01
-5.396382510662078857e-02 -6.366701126098632812e-01 -3.269317448139190674e-01
-4.290636628866195679e-03 -6.732673645019531250e-01 -1.299880594015121460e-01
2.442360110580921173e-02 -7.484726905822753906e-01 3.049504458904266357e-01
-3.694387385621666908e-03 -4.036979004740715027e-02 3.290456533432006836e-01
2.775698900222778320e-02 7.550777792930603027e-01 1.106056943535804749e-02
-5.396382510662078857e-02 1.883793622255325317e-01 -3.148127496242523193e-01
-2.312327735126018524e-03 7.359219789505004883e-01 3.049504458904266357e-01
2.615464664995670319e-02 6.508979797363281250e-01 3.077835142612457275e-01
-4.290636628866195679e-03 -7.188600301742553711e-01 3.803056478500366211e-02
