6.976144760847091675e-02 6.895478814840316772e-02 5.565957725048065186e-02
-4.159519448876380920e-02 -5.427157282829284668e-01 -1.895678341388702393e-01
7.997879758477210999e-03 -1.901499032974243164e-01 -2.984578907489776611e-01
-9.983695298433303833e-02 -2.211734205484390259e-01 -6.558502912521362305e-01
1.286025941371917725e-01 -3.080112040042877197e-01 -2.633197903633117676e-01
-1.886427998542785645e-01 -5.160710811614990234e-01 -3.368854820728302002e-01
2.700726985931396484e-01 -2.131861448287963867e-02 -4.984017312526702881e-01
1.187964975833892822e-01 -2.703121118247509003e-02 2.750703096389770508e-01
2.093587815761566162e-01 -4.414292052388191223e-03 -1.780794411897659302e-01
2.019927501678466797e-01 6.681811809539794922e-01 1.848942339420318604e-01
-1.970377117395401001e-01 5.160945653915405273e-01 5.310244560241699219e-01
9.220116585493087769e-02 -1.176208630204200745e-02 -7.075958251953125000e-01
-1.438975632190704346e-01 -5.629306435585021973e-01 -6.149210929870605469e-01
-6.472986936569213867e-02 -3.335868939757347107e-03 4.761771485209465027e-02
-7.718912512063980103e-02 6.221876740455627441e-01 3.871816098690032959e-01
7.332412153482437134e-02 -1.995268762111663818e-01 2.001929283142089844e-01
2.342948168516159058e-01 6.965754926204681396e-02 3.933880627155303955e-01
-2.126474976539611816e-01 5.590980499982833862e-02 -4.980652928352355957e-01
3.539233207702636719e-01 6.537612080574035645e-01 2.564519047737121582e-01
5.775637179613113403e-02 6.971440315246582031e-01 3.752504587173461914e-01
-1.940856426954269409e-01 4.989507794380187988e-01 2.065915018320083618e-01
2.026812583208084106e-01 6.885901838541030884e-02 1.568686068058013916e-01
5.550073087215423584e-02 -5.429527163505554199e-01 2.644644975662231445e-01
-3.775030076503753662e-01 5.144376754760742188e-01 4.636857211589813232e-01
-2.954770326614379883e-01 2.153191715478897095e-02 -6.901852041482925415e-02
-9.855157881975173950e-02 -2.701502107083797455e-02 2.701199948787689209e-01
1.037543118000030518e-01 5.458844304084777832e-01 5.317071080207824707e-01
-1.973585635423660278e-01 -1.878336817026138306e-01 -4.198359549045562744e-01
-3.297783732414245605e-01 1.356659922748804092e-02 -4.457803964614868164e-01
3.329350650310516357e-01 1.423464342951774597e-02 -2.001550942659378052e-01
3.578408658504486084e-01 3.221972882747650146e-01 3.901980519294738770e-01
2.436991184949874878e-01 -1.088222190737724304e-01 -6.152146458625793457e-01
-1.111595556139945984e-01 4.990863427519798279e-02 3.951142430305480957e-01
9.786919504404067993e-02 -2.780731320381164551e-01 -1.073013991117477417e-01
-1.494437754154205322e-01 6.222013235092163086e-01 4.394040703773498535e-01
-1.458792686462402344e-01 -9.328851103782653809e-02 5.797918420284986496e-03
2.988687455654144287e-01 -1.749964989721775055e-02 -4.727113619446754456e-02
2.831175625324249268e-01 -1.080147176980972290e-01 -3.460820317268371582e-01
6.756022572517395020e-02 4.965633451938629150e-01 1.896056681871414185e-01
-2.654092609882354736e-01 6.954364180564880371e-01 2.927632033824920654e-01
3.681726157665252686e-01 4.816850125789642334e-01 3.058412671089172363e-01
-1.890046149492263794e-01 -6.857666969299316406e-01 1.483927518129348755e-01
1.844773292541503906e-01 -6.660326123237609863e-01 -5.491750240325927734e-01
-4.923526942729949951e-02 -6.326168179512023926e-01 -2.303063124418258667e-02
6.257125735282897949e-02 3.312680125236511230e-01 5.254178047180175781e-01
1.951182335615158081e-01 -4.871911108493804932e-01 -3.945995271205902100e-01
-3.688651695847511292e-02 1.959848850965499878e-01 2.008307278156280518e-01
-3.285895586013793945e-01 6.606132984161376953e-01 5.342876315116882324e-01
5.666458979249000549e-02 -3.051849603652954102e-01 3.814988434314727783e-01
6.282540038228034973e-03 -4.345298111438751221e-01 1.090767011046409607e-01
-2.217504382133483887e-01 -2.156925350427627563e-01 -2.012805342674255371e-01
-2.058022469282150269e-01 6.957289576530456543e-01 4.397814571857452393e-01
6.487194914370775223e-03 -5.506902933120727539e-01 -7.375758886337280273e-02
7.342789322137832642e-02 -2.968944013118743896e-01 6.022665649652481079e-02
-1.394504457712173462e-01 1.075940057635307312e-01 2.217000275850296021e-01
-7.417473196983337402e-02 -4.104022383689880371e-01 -1.321212947368621826e-01
-1.832965016365051270e-01 -4.391076266765594482e-01 -3.399302065372467041e-01
2.835174202919006348e-01 1.348779797554016113e-01 5.201066136360168457e-01
-6.562290340662002563e-02 6.221505999565124512e-01 2.418534606695175171e-01
-3.446684181690216064e-01 2.743205130100250244e-01 3.392170965671539307e-01
-2.711154222488403320e-01 4.456935822963714600e-01 5.288233160972595215e-01
1.309665240114554763e-04 1.836197525262832642e-01 5.224715471267700195e-01
8.447293192148208618e-02 2.837579846382141113e-01 1.983077675104141235e-01
-1.182037517428398132e-01 -1.621554233133792877e-02 -7.028931379318237305e-01
-2.531562745571136475e-01 2.607772946357727051e-01 5.238417983055114746e-01
3.406199812889099121e-01 4.323356449604034424e-01 5.260546207427978516e-01
7.101073861122131348e-02 -1.303566098213195801e-01 -7.152377963066101074e-01
1.498619765043258667e-01 -4.341299533843994141e-01 -5.835435986518859863e-01
-2.002248167991638184e-01 5.802043154835700989e-02 -1.607706993818283081e-01
-2.516436576843261719e-01 -1.004955451935529709e-02 -3.322686553001403809e-01
1.951572448015213013e-01 -1.884939223527908325e-01 -3.860436975955963135e-01
2.613520324230194092e-01 -1.226316764950752258e-02 -2.996594011783599854e-01
1.283295303583145142e-01 -1.914791464805603027e-01 -5.054449439048767090e-01
7.437074929475784302e-02 -6.364349126815795898e-01 -1.433482170104980469e-01
8.002258837223052979e-02 4.978400096297264099e-02 -7.845523953437805176e-01
3.863805159926414490e-02 -1.859007477760314941e-01 -1.147721707820892334e-01
1.953562051057815552e-01 -6.417031288146972656e-01 -2.317813336849212646e-01
1.786453723907470703e-01 6.944630742073059082e-01 4.989291429519653320e-01
1.432284433394670486e-02 -3.097344376146793365e-02 3.543694913387298584e-01
8.382166177034378052e-02 6.901281327009201050e-02 3.008938431739807129e-01
-1.116003617644309998e-01 -2.705452144145965576e-01 -6.170452237129211426e-01
-1.029333546757698059e-01 6.968865990638732910e-01 3.127781748771667480e-01
-1.357259750366210938e-01 4.335127770900726318e-02 1.144815236330032349e-01
-1.328177899122238159e-01 -3.860942423343658447e-01 -6.017065644264221191e-01
2.283663153648376465e-01 5.516910552978515625e-01 2.155618220567703247e-01
-6.616874784231185913e-02 -1.781270653009414673e-01 3.011347353458404541e-01
2.256190478801727295e-01 -1.291443854570388794e-01 -7.012427598237991333e-02
5.703098699450492859e-02 -1.354678627103567123e-02 -1.680193282663822174e-02
-1.812582463026046753e-01 -3.214491307735443115e-01 -3.895565569400787354e-01
-1.570799499750137329e-01 5.007500294595956802e-04 -7.517032027244567871e-01
-3.683708012104034424e-01 4.187992215156555176e-01 4.300973117351531982e-01
-8.220364339649677277e-03 -1.413544714450836182e-01 7.863149791955947876e-02
-8.741681277751922607e-02 -6.364406943321228027e-01 2.308088093996047974e-01
2.789093852043151855e-01 6.729969978332519531e-01 5.348591208457946777e-01
3.103767149150371552e-02 -3.881676197052001953e-01 -6.854869723320007324e-01
9.490884095430374146e-02 1.470968592911958694e-02 3.804153501987457275e-01
2.302914410829544067e-01 6.898180395364761353e-02 2.907969290390610695e-03
-3.928864896297454834e-01 6.113780140876770020e-01 3.477914333343505859e-01
-2.087747901678085327e-01 -6.874948740005493164e-01 -3.237986564636230469e-01
-1.930801570415496826e-01 -1.697584837675094604e-01 -5.587002038955688477e-01
-3.100364506244659424e-01 1.029755473136901855e-01 4.726140797138214111e-01
-5.476306658238172531e-03 -3.140001744031906128e-02 1.671564728021621704e-01
1.787214428186416626e-01 -3.095208853483200073e-02 1.367936097085475922e-02
2.985674142837524414e-01 2.554748654365539551e-01 2.658991217613220215e-01
7.994740456342697144e-02 -6.885666251182556152e-01 -7.008753418922424316e-01
-1.113604605197906494e-01 2.459272146224975586e-01 5.235629081726074219e-01
-2.831509113311767578e-01 3.732250332832336426e-01 2.479253411293029785e-01
-3.423171350732445717e-03 6.222149729728698730e-01 5.011878013610839844e-01
2.711015641689300537e-01 6.893312931060791016e-02 -5.193666219711303711e-01
-3.390032052993774414e-01 -1.744064874947071075e-02 -1.984611004590988159e-01
-1.283102035522460938e-01 -1.895052641630172729e-01 -3.029898703098297119e-01
-3.435040416661649942e-04 -5.531381964683532715e-01 -7.138256430625915527e-01
-9.231917560100555420e-02 -4.991544485092163086e-01 -2.187774032354354858e-01
1.424618065357208252e-01 -2.849963903427124023e-01 -5.705630779266357422e-01
6.817931681871414185e-02 -2.143691331148147583e-01 3.334192633628845215e-01
-2.466611266136169434e-01 -2.449177019298076630e-02 -6.519960761070251465e-01
-2.763895392417907715e-01 -1.041634753346443176e-01 -4.178318381309509277e-01
2.483334988355636597e-01 7.265242934226989746e-02 2.856848835945129395e-01
-1.870160847902297974e-01 -5.146784186363220215e-01 -4.937937259674072266e-01
-1.078933663666248322e-02 -2.332693710923194885e-02 4.040319025516510010e-01
-7.285172119736671448e-03 -1.553326547145843506e-01 -7.128738164901733398e-01
5.994706973433494568e-02 -2.924599647521972656e-01 1.250073313713073730e-01
1.425759196281433105e-01 -6.378343701362609863e-01 5.734090507030487061e-02
1.719571352005004883e-01 -3.138129413127899170e-01 -3.372950851917266846e-01
-2.552198767662048340e-01 5.542500615119934082e-01 2.244531363248825073e-01
-3.141676187515258789e-01 1.944186724722385406e-02 -4.931617379188537598e-01
-2.011005021631717682e-02 5.221772193908691406e-01 1.870680600404739380e-01
3.367726504802703857e-01 6.221691370010375977e-01 4.372243881225585938e-01
-4.513466265052556992e-03 -4.431451261043548584e-01 2.622341215610504150e-01
-3.446333110332489014e-01 1.754413731396198273e-02 -3.016274273395538330e-01
-5.159116908907890320e-02 -1.804891079664230347e-01 -1.113702356815338135e-02
1.152309998869895935e-01 1.245150435715913773e-02 1.549239754676818848e-01
-3.014503233134746552e-02 -3.553369641304016113e-01 4.109912216663360596e-01
-2.199257463216781616e-01 -2.278129011392593384e-01 -3.160640001296997070e-01
1.609759591519832611e-02 -1.839132010936737061e-01 -6.718247532844543457e-01
-3.048383630812168121e-02 -6.159586310386657715e-01 4.085570573806762695e-01
-1.908039450645446777e-01 -1.883057057857513428e-01 -2.830002307891845703e-01
5.977640300989151001e-02 -4.509841501712799072e-01 -2.044842243194580078e-01
2.109611034393310547e-01 6.221720576286315918e-01 2.947283685207366943e-01
2.271551266312599182e-02 6.945830583572387695e-01 5.020509362220764160e-01
6.366606801748275757e-02 -5.976083874702453613e-01 1.734575331211090088e-01
-1.654436588287353516e-01 -2.332274615764617920e-01 -5.417241454124450684e-01
3.100050846114754677e-03 6.958050727844238281e-01 2.422679513692855835e-01
9.337789565324783325e-02 1.210053935647010803e-01 2.126702070236206055e-01
3.226013481616973877e-01 5.614522695541381836e-01 5.320689082145690918e-01
-3.755953535437583923e-02 -1.277390569448471069e-01 2.289850860834121704e-01
4.059945940971374512e-01 6.844434142112731934e-01 3.607066273689270020e-01
1.602239608764648438e-01 -4.808291327208280563e-03 -6.190786361694335938e-01
-1.594069004058837891e-01 -6.628240942955017090e-01 -6.057089567184448242e-01
-1.159772649407386780e-01 -2.653929889202117920e-01 -1.465094834566116333e-01
-2.496668398380279541e-01 6.390194594860076904e-02 4.244891181588172913e-02
1.186171453446149826e-02 1.593673974275588989e-02 2.681168317794799805e-01
-3.735287860035896301e-02 -4.081796407699584961e-01 1.171043887734413147e-02
-3.192291557788848877e-01 1.431626677513122559e-01 3.548336923122406006e-01
-3.761366605758666992e-01 5.356424450874328613e-01 3.228953778743743896e-01
2.838802039623260498e-01 -6.491141021251678467e-02 -1.088895797729492188e-01
-7.786164432764053345e-02 4.557532370090484619e-01 5.291588306427001953e-01
1.194109022617340088e-01 -6.371077895164489746e-01 2.476581186056137085e-01
-2.649089395999908447e-01 -1.732459291815757751e-02 -2.017350047826766968e-01
2.694378197193145752e-01 6.954813003540039062e-01 3.010167479515075684e-01
1.743855029344558716e-01 -9.098108857870101929e-02 -7.191026806831359863e-01
-2.213671654462814331e-01 6.204859018325805664e-01 5.298980474472045898e-01
2.076257616281509399e-01 -1.863425374031066895e-01 -2.891832888126373291e-01
-3.566844165325164795e-01 6.940739750862121582e-01 2.987863421440124512e-01
-5.450442433357238770e-02 6.897760927677154541e-02 -7.545880079269409180e-01
1.835118532180786133e-01 -5.168200731277465820e-01 -5.125720500946044922e-01
3.207766711711883545e-01 1.376164555549621582e-01 3.664849698543548584e-01
-1.549734324216842651e-01 -6.388846635818481445e-01 -7.046964764595031738e-02
1.836708039045333862e-01 2.842846214771270752e-01 2.144276052713394165e-01
-1.773854531347751617e-02 6.898999959230422974e-02 5.626813322305679321e-02
1.927298754453659058e-01 3.308174610137939453e-01 5.254080295562744141e-01
3.107413649559020996e-03 6.525812149047851562e-01 1.669984757900238037e-01
5.631017498672008514e-03 -3.647656142711639404e-01 1.922661215066909790e-01
2.700990997254848480e-02 -1.910802870988845825e-01 -4.241299629211425781e-01
2.487791776657104492e-01 6.868445128202438354e-02 -2.261970639228820801e-01
1.112978383898735046e-01 -1.875967085361480713e-01 -5.890537500381469727e-01
-1.674000024795532227e-01 3.724935948848724365e-01 2.077520489692687988e-01
-3.521943688392639160e-01 3.179939687252044678e-01 5.057002902030944824e-01
-3.002918362617492676e-01 6.221983432769775391e-01 4.362569451332092285e-01
-1.369644608348608017e-02 6.915120035409927368e-02 3.131926655769348145e-01
3.410061895847320557e-01 2.275096923112869263e-01 3.526949882507324219e-01
1.738666743040084839e-01 -5.309718847274780273e-01 -2.868329584598541260e-01
3.282577693462371826e-01 -8.301918208599090576e-02 -2.599864006042480469e-01
2.893787249922752380e-02 -2.275730073451995850e-01 -4.264720529317855835e-02
-6.122025847434997559e-02 6.965735554695129395e-02 4.951218068599700928e-01
3.327917158603668213e-01 -5.224228650331497192e-02 -4.018504917621612549e-01
1.104591265320777893e-01 4.018738567829132080e-01 1.966713219881057739e-01
1.898646056652069092e-01 6.965735554695129395e-02 5.052038431167602539e-01
1.557349115610122681e-01 -1.822542995214462280e-01 -9.066282957792282104e-02
-5.722964927554130554e-02 -1.887777298688888550e-01 -2.108711153268814087e-01
2.169666737318038940e-01 5.819402337074279785e-01 5.314262509346008301e-01
1.746361404657363892e-01 -2.490225285291671753e-01 -4.911741912364959717e-01
-2.429600656032562256e-01 -1.253184974193572998e-01 -1.654893308877944946e-01
-8.731812238693237305e-02 -1.912743449211120605e-01 -4.716809988021850586e-01
-1.456520259380340576e-01 -2.582756578922271729e-01 -2.849721908569335938e-01
3.226101100444793701e-01 6.946220397949218750e-01 4.364480972290039062e-01
-8.518174290657043457e-02 5.712466835975646973e-01 5.317851305007934570e-01
1.247162446379661560e-01 6.221623420715332031e-01 2.743944823741912842e-01
1.412476450204849243e-01 6.964253187179565430e-01 2.939462065696716309e-01
1.123413518071174622e-01 4.254250526428222656e-01 5.281523466110229492e-01
-1.726770550012588501e-01 -1.489516198635101318e-01 -4.397344216704368591e-02
3.195897936820983887e-01 3.331561088562011719e-01 2.745114862918853760e-01
-3.984521701931953430e-02 -4.181105792522430420e-01 4.054606258869171143e-01
3.689908683300018311e-01 4.085776805877685547e-01 4.526547193527221680e-01
3.118424415588378906e-01 6.543102860450744629e-01 2.272452563047409058e-01
4.086063429713249207e-02 6.910789757966995239e-02 1.635441482067108154e-01
2.268263995647430420e-01 -2.706632018089294434e-02 2.497055754065513611e-02
-1.811919212341308594e-01 3.749031946063041687e-02 -5.801809430122375488e-01
4.376412834972143173e-03 6.221681237220764160e-01 3.481083810329437256e-01
2.636311948299407959e-01 2.360860109329223633e-01 5.233834385871887207e-01
1.243973448872566223e-01 6.222130060195922852e-01 4.901382625102996826e-01
-2.083222717046737671e-01 6.147133708000183105e-01 1.999422758817672729e-01
1.450384110212326050e-01 -1.862518489360809326e-01 -1.612096577882766724e-01
9.805399924516677856e-02 -5.986772775650024414e-01 -1.992832422256469727e-01
-1.980255544185638428e-02 -1.976729333400726318e-01 3.747823536396026611e-01
-2.860727608203887939e-01 1.745450943708419800e-01 2.650291919708251953e-01
-1.364866644144058228e-01 -6.278302669525146484e-01 -2.071261703968048096e-01
-1.232955083250999451e-01 5.587849617004394531e-01 1.934452056884765625e-01
-1.022243574261665344e-01 -6.366513371467590332e-01 1.146092712879180908e-01
-1.298003941774368286e-01 4.748973250389099121e-02 3.390552103519439697e-01
3.089518249034881592e-01 4.132455214858055115e-02 -1.275438964366912842e-01
2.819345891475677490e-01 -1.714807748794555664e-01 -3.219749331474304199e-01
1.808504015207290649e-01 -2.406685650348663330e-01 -2.222941666841506958e-01
-1.476951688528060913e-01 6.221672296524047852e-01 2.896424233913421631e-01
1.386885941028594971e-01 4.656529799103736877e-02 8.202826976776123047e-02
1.429670006036758423e-01 1.098743304610252380e-01 5.212271213531494141e-01
-1.731344461441040039e-01 -6.039143800735473633e-01 -2.693126797676086426e-01
-1.338232755661010742e-01 4.471330344676971436e-01 1.987300515174865723e-01
-1.011953782290220261e-02 -2.326393872499465942e-01 -6.998045444488525391e-01
-2.768595814704895020e-01 1.686877757310867310e-01 5.222170352935791016e-01
-2.150982767343521118e-01 3.679850399494171143e-01 5.263491272926330566e-01
-4.362634196877479553e-02 -2.662824094295501709e-01 3.917993903160095215e-01
-1.443832367658615112e-01 2.099650353193283081e-01 2.108523696660995483e-01
3.800150156021118164e-01 5.964938402175903320e-01 3.462300896644592285e-01
2.337213754653930664e-01 3.769283648580312729e-03 -4.121120274066925049e-01
1.609768420457839966e-01 3.568220138549804688e-02 -7.426256537437438965e-01
4.444515332579612732e-02 -9.295103140175342560e-03 6.019545346498489380e-02
1.675470769405364990e-01 -2.703530900180339813e-02 2.150927186012268066e-01
-1.547140181064605713e-01 6.962146162986755371e-01 2.860047519207000732e-01
-3.082127869129180908e-01 -6.594164669513702393e-02 -3.509309589862823486e-01
3.637596964836120605e-02 2.879544496536254883e-01 5.244015455245971680e-01
4.805297404527664185e-02 6.221476793289184570e-01 2.416232973337173462e-01
1.476764529943466187e-01 -6.424433588981628418e-01 2.966993153095245361e-01
-1.244638487696647644e-01 -1.002683416008949280e-01 -7.495000958442687988e-01
-2.503856122493743896e-01 6.854908913373947144e-02 -4.046484827995300293e-01
-2.055681794881820679e-01 -2.705130167305469513e-02 3.566510230302810669e-02
-2.378595322370529175e-01 6.236700415611267090e-01 1.976738721132278442e-01
7.923322916030883789e-02 -4.656177386641502380e-02 4.466667175292968750e-01
1.546874940395355225e-01 -6.226203404366970062e-03 -9.446092694997787476e-02
3.576858714222908020e-02 -4.647741317749023438e-01 3.002365231513977051e-01
6.971307843923568726e-02 -1.059442758560180664e-01 3.430722355842590332e-01
1.352859586477279663e-01 6.862798333168029785e-02 -6.834701299667358398e-01
-2.396764159202575684e-01 -1.369492709636688232e-01 -4.888677299022674561e-01
6.130372639745473862e-03 -4.929294586181640625e-01 -4.485754761844873428e-03
2.724513113498687744e-01 2.032273449003696442e-03 -6.033742427825927734e-01
-2.536671981215476990e-02 -2.448036074638366699e-01 3.603276982903480530e-02
-3.557394146919250488e-01 3.216803967952728271e-01 3.774145245552062988e-01
4.106300324201583862e-02 8.215737342834472656e-02 5.207522511482238770e-01
7.457663118839263916e-02 -6.361256837844848633e-01 -3.126716241240501404e-02
1.143630295991897583e-01 -3.965820372104644775e-01 -2.397442162036895752e-01
-4.638989269733428955e-02 -5.484199523925781250e-01 2.196159213781356812e-01
1.906233280897140503e-01 -4.337291121482849121e-01 -4.376254081726074219e-01
4.847554862499237061e-02 1.771129220724105835e-01 5.223613381385803223e-01
3.383848071098327637e-02 6.912457942962646484e-02 4.116651415824890137e-01
4.223680868744850159e-02 -2.474436014890670776e-01 4.380059614777565002e-02
6.363759189844131470e-02 -5.413123965263366699e-01 3.179489374160766602e-01
5.422140285372734070e-02 1.589772850275039673e-02 2.315694838762283325e-01
-2.289554663002490997e-02 -6.332439184188842773e-01 -1.320509761571884155e-01
1.934515535831451416e-01 -5.560560822486877441e-01 -4.757077693939208984e-01
-1.118119060993194580e-02 3.274067863821983337e-02 -8.062350749969482422e-01
-2.437753826379776001e-01 5.644609332084655762e-01 5.320143699645996094e-01
3.470146656036376953e-01 1.214810460805892944e-02 -3.081996142864227295e-01
-7.507781684398651123e-02 -3.242276012897491455e-01 -2.118931710720062256e-01
1.557983011007308960e-01 -4.131007492542266846e-01 -2.802802920341491699e-01
1.986856907606124878e-01 -1.767763495445251465e-01 -5.377197265625000000e-01
-5.165202543139457703e-02 1.573125123977661133e-01 5.220277905464172363e-01
-3.771753013134002686e-01 5.895442366600036621e-01 5.052896738052368164e-01
-1.962037943303585052e-02 -1.534016523510217667e-02 -7.395886778831481934e-01
-3.996400162577629089e-02 2.830537594854831696e-02 -2.945993840694427490e-02
-5.393254011869430542e-02 -1.053162142634391785e-01 3.003696352243423462e-02
9.643802046775817871e-02 -6.365587711334228516e-01 1.704703569412231445e-01
-2.555846273899078369e-01 -1.397677138447761536e-02 -4.411821365356445312e-01
-7.395111024379730225e-02 -5.254616737365722656e-01 -6.824451684951782227e-01
9.858658537268638611e-03 -2.514976859092712402e-01 2.593181729316711426e-01
-2.632900476455688477e-01 4.596737772226333618e-02 -5.973296761512756348e-01
1.259509027004241943e-01 -1.903049498796463013e-01 -3.699950575828552246e-01
-1.565835475921630859e-01 -1.919111609458923340e-02 -3.566162288188934326e-02
5.332515016198158264e-02 -3.781177103519439697e-01 3.879481256008148193e-01
3.070169389247894287e-01 6.221866607666015625e-01 3.225150108337402344e-01
-1.503351628780364990e-01 2.265027910470962524e-02 2.976745367050170898e-01
-2.013951092958450317e-01 3.150565326213836670e-01 2.191497534513473511e-01
1.439783275127410889e-01 1.846076697111129761e-01 2.121133357286453247e-01
-1.628933995962142944e-01 -6.842266768217086792e-02 -6.863022446632385254e-01
-2.450802624225616455e-01 -1.944243535399436951e-02 -5.405742526054382324e-01
-1.976296752691268921e-01 -5.627619624137878418e-01 -4.472267031669616699e-01
6.161121651530265808e-03 -4.919942319393157959e-01 1.130430251359939575e-01
2.516064047813415527e-01 6.847370415925979614e-02 -3.272052109241485596e-01
-5.712754279375076294e-02 -3.371086418628692627e-01 8.754913508892059326e-02
5.694857984781265259e-02 -7.468960434198379517e-02 -7.886484265327453613e-01
-1.696518361568450928e-01 -6.892805099487304688e-01 2.640851736068725586e-01
1.265048533678054810e-01 6.965159773826599121e-01 4.104957878589630127e-01
-3.513995707035064697e-01 6.200986504554748535e-01 2.568702995777130127e-01
2.092017531394958496e-01 -6.809967756271362305e-01 -3.140979111194610596e-01
-1.444866061210632324e-01 4.890530183911323547e-02 4.403286278247833252e-01
1.832135021686553955e-02 4.155594706535339355e-01 1.901673972606658936e-01
-1.790083497762680054e-01 -2.428511679172515869e-01 -4.769999682903289795e-01
-2.335460335016250610e-01 -1.351168006658554077e-01 -6.075044274330139160e-01
-2.013775557279586792e-01 -9.260389208793640137e-02 -6.354037672281265259e-02
-3.118094503879547119e-01 6.782857328653335571e-02 -1.783788502216339111e-01
-1.453603431582450867e-02 6.222013235092163086e-01 4.573163986206054688e-01
-1.851377636194229126e-01 6.766483187675476074e-01 5.340740084648132324e-01
-5.101304501295089722e-02 -8.877604454755783081e-02 3.317057490348815918e-01
-3.060477375984191895e-01 6.895488500595092773e-02 -3.699346184730529785e-01
2.669119238853454590e-01 -1.120697930455207825e-01 -4.462446272373199463e-01
1.434468030929565430e-01 6.900130212306976318e-02 4.148434698581695557e-01
3.601941466331481934e-01 3.869886994361877441e-01 3.357149958610534668e-01
2.681329250335693359e-01 6.897712498903274536e-02 -1.843278408050537109e-01
6.050958856940269470e-02 -4.752453565597534180e-01 -6.835481524467468262e-01
-4.060025513172149658e-02 6.910663098096847534e-02 1.509664207696914673e-01
-2.962406277656555176e-01 6.952822804450988770e-01 3.918530344963073730e-01
-1.455291360616683960e-01 5.529114976525306702e-03 -8.528847247362136841e-02
1.753763407468795776e-01 -1.691674888134002686e-01 -6.478474140167236328e-01
-1.313997805118560791e-01 -2.699190750718116760e-02 2.104983329772949219e-01
3.116512894630432129e-01 5.496381521224975586e-01 2.520145475864410400e-01
-7.001189887523651123e-02 -1.748648583889007568e-01 1.597250998020172119e-01
-1.222392264753580093e-02 -9.793555736541748047e-02 -7.423262000083923340e-01
1.646876484155654907e-01 6.965735554695129395e-02 2.505370676517486572e-01
-1.624106466770172119e-01 -3.738870918750762939e-01 -3.008901476860046387e-01
1.568817943334579468e-01 4.849559962749481201e-01 2.007848918437957764e-01
-1.538635939359664917e-01 -4.852337837219238281e-01 -2.649396955966949463e-01
2.009121775627136230e-01 -5.952444076538085938e-01 -3.659146428108215332e-01
-2.846078574657440186e-02 3.787069022655487061e-01 5.266788005828857422e-01
1.500355750322341919e-01 -1.384648084640502930e-01 -7.131235003471374512e-01
-2.091024667024612427e-01 5.842106416821479797e-02 1.990489512681961060e-01
-1.500055193901062012e-01 -1.869803518056869507e-01 -1.904816478490829468e-01
-1.228644400835037231e-01 -1.882042884826660156e-01 -5.697340965270996094e-01
6.489018909633159637e-03 -4.881809949874877930e-01 -1.463830024003982544e-01
-1.912866830825805664e-01 -1.906804293394088745e-01 -9.429161995649337769e-02
1.457835827022790909e-02 -5.752528086304664612e-02 5.437713116407394409e-02
-1.264884620904922485e-01 6.897165626287460327e-02 6.666034460067749023e-02
-6.216829270124435425e-02 -5.890467166900634766e-01 3.171619176864624023e-01
5.759837571531534195e-03 4.338102042675018311e-01 5.284146666526794434e-01
-1.278011351823806763e-01 -1.229866817593574524e-01 -6.866670250892639160e-01
3.099699616432189941e-01 1.651027649641036987e-01 3.002443313598632812e-01
-2.584742605686187744e-01 -2.718442119657993317e-02 -2.446345984935760498e-02
3.194816038012504578e-02 -3.863126933574676514e-01 5.527046322822570801e-02
-3.295842707157135010e-01 -7.612809538841247559e-02 -2.614073455333709717e-01
2.128326147794723511e-01 3.980955854058265686e-02 -5.004078149795532227e-01
-9.193415194749832153e-02 -4.503970444202423096e-01 -6.574555039405822754e-01
3.244855403900146484e-01 3.619938716292381287e-02 -4.496823847293853760e-01
-3.189423307776451111e-02 -1.870700716972351074e-01 -1.384095847606658936e-01
-7.159374654293060303e-02 -2.578114271163940430e-01 -7.589865475893020630e-02
-6.857282668352127075e-02 -1.907418668270111084e-01 -3.784680068492889404e-01
-2.136412709951400757e-01 6.897585839033126831e-02 -5.053947493433952332e-02
-2.249092459678649902e-01 8.028402179479598999e-02 2.542722225189208984e-01
-1.076574474573135376e-01 1.633483022451400757e-01 2.093553692102432251e-01
-7.181659340858459473e-02 2.838818430900573730e-01 1.977557837963104248e-01
2.713395357131958008e-01 -1.796571724116802216e-02 -2.108398973941802979e-01
-6.132187321782112122e-02 -1.398262530565261841e-01 -7.620223164558410645e-01
4.677462205290794373e-02 -1.915952116250991821e-01 -5.063743591308593750e-01
-2.938610613346099854e-01 4.688410162925720215e-01 2.461503893136978149e-01
1.004414036870002747e-01 6.662989854812622070e-01 5.346494317054748535e-01
-3.454037010669708252e-02 6.970289349555969238e-01 3.889146149158477783e-01
2.746933698654174805e-01 -8.614678680896759033e-02 -5.629532337188720703e-01
9.703624248504638672e-02 -3.623772263526916504e-01 -6.402317285537719727e-01
1.385774165391921997e-01 -6.372706890106201172e-01 -6.346386671066284180e-01
-2.045939117670059204e-01 -6.771513819694519043e-01 -5.309208482503890991e-02
-2.261390388011932373e-01 6.936672925949096680e-01 2.084600925445556641e-01
3.031608164310455322e-01 -1.142270416021347046e-01 -1.972576379776000977e-01
3.723535239696502686e-01 6.667973399162292480e-01 5.344602465629577637e-01
8.394425362348556519e-02 -3.505875170230865479e-01 -1.384625434875488281e-01
5.131546407938003540e-02 5.536327883601188660e-02 -2.939830347895622253e-02
-5.563210323452949524e-02 2.233714610338211060e-02 2.269770801067352295e-01
-2.457083314657211304e-01 6.965735554695129395e-02 5.066023468971252441e-01
-1.051764264702796936e-01 -6.187819242477416992e-01 -6.695076227188110352e-01
-4.248004406690597534e-03 2.689518034458160400e-01 1.953430175781250000e-01
3.620247542858123779e-02 -1.945843398571014404e-01 -7.234298586845397949e-01
3.341882526874542236e-01 3.727813065052032471e-01 5.243596434593200684e-01
1.833187490701675415e-01 6.965735554695129395e-02 3.476266264915466309e-01
-2.856007516384124756e-01 -1.493670791387557983e-01 -2.198121547698974609e-01
2.129876613616943359e-01 -6.978802382946014404e-02 -6.039198860526084900e-02
-1.913491040468215942e-01 -4.427882134914398193e-01 -4.209711551666259766e-01
6.517057865858078003e-02 -6.347515583038330078e-01 3.280056715011596680e-01
3.054156526923179626e-02 -1.883593499660491943e-01 -1.896790266036987305e-01
2.809427678585052490e-01 4.999055266380310059e-01 5.306538939476013184e-01
2.160294502973556519e-01 -3.211340680718421936e-02 -6.451410651206970215e-01
4.190795123577117920e-02 -3.390561938285827637e-01 3.059787452220916748e-01
-3.726355135440826416e-01 4.890295863151550293e-01 3.688908815383911133e-01
-2.774740159511566162e-01 -1.720191091299057007e-01 -3.758758008480072021e-01
-7.879349589347839355e-02 6.960293650627136230e-02 2.749367058277130127e-01
-3.986365497112274170e-01 6.118705272674560547e-01 4.436922073364257812e-01
9.514133632183074951e-02 -1.896583735942840576e-01 -3.123595379292964935e-02
6.829692423343658447e-02 -5.941745638847351074e-01 -6.949400305747985840e-01
-1.598818451166152954e-01 1.057103462517261505e-02 1.910650916397571564e-02
-2.491723895072937012e-01 6.893869638442993164e-01 5.223281979560852051e-01
3.051815032958984375e-01 7.581895589828491211e-02 4.340412020683288574e-01
-3.354805707931518555e-02 -5.457038879394531250e-01 4.714959859848022461e-02
2.991779148578643799e-01 4.328496158123016357e-01 2.526572346687316895e-01
-4.648547619581222534e-03 -3.242256343364715576e-01 -6.839480400085449219e-01
1.295418478548526764e-02 -1.134312376379966736e-01 1.436325907707214355e-01
2.026822417974472046e-01 -6.632941365242004395e-01 -4.494102895259857178e-01
5.959588289260864258e-02 6.850958615541458130e-02 -7.234444618225097656e-01
-1.323789358139038086e-01 6.965374350547790527e-01 4.053104519844055176e-01
1.983726322650909424e-01 1.671498119831085205e-01 5.221917033195495605e-01
-2.781771421432495117e-01 3.564313352108001709e-01 5.260575413703918457e-01
-6.808901205658912659e-03 -5.103443935513496399e-02 2.939920425415039062e-01
1.749199330806732178e-01 -2.668490260839462280e-02 8.864726871252059937e-02
-1.336262822151184082e-01 6.894455105066299438e-02 1.924943327903747559e-01
3.769088685512542725e-01 5.458542108535766602e-01 3.105975389480590820e-01
1.965313702821731567e-01 -2.378042787313461304e-01 -3.098273277282714844e-01
1.608988195657730103e-01 -6.389091014862060547e-01 -1.292452067136764526e-01
-8.008033782243728638e-02 -1.583587937057018280e-02 4.423317611217498779e-01
-8.079323917627334595e-02 6.949692964553833008e-01 2.204809635877609253e-01
-8.679177612066268921e-02 6.527128815650939941e-01 5.341979265213012695e-01
-2.214442044496536255e-01 -8.485068380832672119e-02 -6.022546291351318359e-01
1.801862567663192749e-01 -2.708992362022399902e-01 -4.176738560199737549e-01
-2.313643135130405426e-02 -5.387065410614013672e-01 -3.923979401588439941e-02
-2.170673012733459473e-01 1.503102481365203857e-01 2.353651374578475952e-01
2.599915564060211182e-01 4.882864654064178467e-01 2.309911847114562988e-01
1.279803961515426636e-01 5.458239912986755371e-01 1.943161040544509888e-01
2.036545723676681519e-01 6.956753134727478027e-01 4.425579905509948730e-01
2.178999781608581543e-01 -2.172275781631469727e-01 -4.307548105716705322e-01
-3.636837601661682129e-01 3.664344251155853271e-01 4.366275370121002197e-01
3.807542920112609863e-01 5.841852426528930664e-01 4.367513954639434814e-01
-3.515019714832305908e-01 4.300321042537689209e-01 5.222413539886474609e-01
1.595959067344665527e-01 -9.970466047525405884e-02 -2.389362780377268791e-03
-4.898677766323089600e-02 6.221603751182556152e-01 2.978354692459106445e-01
-4.039379954338073730e-01 6.655665636062622070e-01 5.159852504730224609e-01
-1.531155705451965332e-01 4.486673977226018906e-03 -6.300618648529052734e-01
-2.925425171852111816e-01 -2.506219036877155304e-02 -4.745287001132965088e-01
3.886421024799346924e-02 -2.929056584835052490e-01 -7.823581993579864502e-02
4.012920334935188293e-02 5.805583596229553223e-01 1.886645555496215820e-01
7.829797267913818359e-02 -3.568300604820251465e-01 -1.711449958384037018e-02
-3.331868648529052734e-01 2.483029216527938843e-01 5.142258405685424805e-01
-1.764873415231704712e-01 -5.771204829216003418e-01 -5.502467751502990723e-01
4.557867720723152161e-02 -6.232583522796630859e-01 4.008116424083709717e-01
1.645891517400741577e-01 4.879460930824279785e-01 5.302510857582092285e-01
1.104171872138977051e-01 -2.733334600925445557e-01 -2.022899091243743896e-01
-1.965442299842834473e-01 6.221895813941955566e-01 3.939098417758941650e-01
-2.051702886819839478e-01 -1.921774074435234070e-02 -7.800222188234329224e-02
-8.070936799049377441e-02 6.802771687507629395e-01 1.689255684614181519e-01
-2.167610079050064087e-02 -4.583872556686401367e-01 -7.708989083766937256e-02
8.519128896296024323e-03 -2.595620155334472656e-01 1.813189983367919922e-01
-3.384843766689300537e-01 2.062035202980041504e-01 3.654931485652923584e-01
-3.603523075580596924e-01 3.937568962574005127e-01 3.387041091918945312e-01
-1.419841349124908447e-01 -4.671420156955718994e-01 -6.012735366821289062e-01
3.780948370695114136e-02 -5.433028340339660645e-01 -1.871589720249176025e-01
3.381964983418583870e-03 -4.676725864410400391e-01 1.900737732648849487e-01
6.874193251132965088e-02 6.966574192047119141e-01 2.883775532245635986e-01
-4.455019161105155945e-02 -3.949777483940124512e-01 3.126582205295562744e-01
1.659252345561981201e-01 -3.674875497817993164e-01 -5.346350669860839844e-01
4.355084896087646484e-02 -1.610046774148941040e-01 3.547048661857843399e-03
-8.260270208120346069e-02 -4.194222986698150635e-01 -2.172472476959228516e-01
-1.497568339109420776e-01 -3.112217187881469727e-01 -5.584827065467834473e-01
2.506926059722900391e-01 3.139301240444183350e-01 2.368338555097579956e-01
3.215344548225402832e-01 -4.045312479138374329e-02 -4.610127806663513184e-01
-1.143806986510753632e-02 -4.708684682846069336e-01 -7.018135786056518555e-01
-9.127859026193618774e-02 -6.365977525711059570e-01 -8.772012591361999512e-02
-6.784754805266857147e-03 -3.622406721115112305e-02 9.996108710765838623e-02
-3.048354983329772949e-01 6.221768856048583984e-01 3.509834408760070801e-01
-1.911287009716033936e-01 6.867323815822601318e-02 -9.819035977125167847e-02
-6.269239634275436401e-02 -6.081234812736511230e-01 6.319140642881393433e-02
-2.672865986824035645e-01 -1.702714711427688599e-01 -4.395993053913116455e-01
5.730337277054786682e-02 1.925647109746932983e-01 2.018430382013320923e-01
-7.772687077522277832e-02 -3.810473680496215820e-01 -4.763656109571456909e-02
-1.874842047691345215e-01 2.129570841789245605e-01 5.229689478874206543e-01
2.719295322895050049e-01 6.891948729753494263e-02 -6.248048320412635803e-02
2.579904533922672272e-02 -5.388010740280151367e-01 1.716562509536743164e-01
-1.102847531437873840e-01 1.450897604227066040e-01 5.218220353126525879e-01
5.408574640750885010e-02 -3.009748160839080811e-01 -1.942183077335357666e-02
-1.775775849819183350e-02 6.972659826278686523e-01 3.211779594421386719e-01
2.441594153642654419e-01 -1.189677044749259949e-01 -1.570670008659362793e-01
2.804931998252868652e-01 -1.206080690026283264e-01 -5.174083113670349121e-01
2.019615322351455688e-01 -5.946651101112365723e-01 -4.322459697723388672e-01
-1.834710687398910522e-01 -1.881018728017807007e-01 -4.809487462043762207e-01
2.508525550365447998e-01 3.858320415019989014e-01 5.269079208374023438e-01
3.655677437782287598e-01 3.982391357421875000e-01 3.896236121654510498e-01
-1.818268001079559326e-01 4.892119392752647400e-02 3.629721105098724365e-01
2.489040046930313110e-01 6.189244985580444336e-01 2.009887248277664185e-01
-2.012254148721694946e-01 -6.168080568313598633e-01 -3.650466799736022949e-01
5.604803934693336487e-02 -1.744133383035659790e-01 1.213609054684638977e-01
3.067887425422668457e-01 6.894445419311523438e-02 -2.843226790428161621e-01
-2.652336955070495605e-01 -9.907269477844238281e-02 -9.896422177553176880e-02
1.105616148561239243e-02 5.714904665946960449e-01 5.317763686180114746e-01
1.534089446067810059e-01 -2.279855161905288696e-01 -1.110457554459571838e-01
-2.559815347194671631e-01 6.220368668437004089e-03 6.793792545795440674e-02
-6.797041743993759155e-02 2.986070513725280762e-01 5.246220231056213379e-01
1.233362704515457153e-01 -3.344061970710754395e-02 -7.709467411041259766e-01
-2.405122071504592896e-01 -1.656234413385391235e-01 -2.638279199600219727e-01
1.559660434722900391e-01 -6.401642560958862305e-01 1.286742687225341797e-01
1.345467269420623779e-01 2.434411458671092987e-02 3.257343173027038574e-01
2.640622556209564209e-01 6.222130060195922852e-01 4.927665889263153076e-01
1.875971555709838867e-01 -4.096493422985076904e-01 -3.731158375740051270e-01
1.629019826650619507e-01 -5.526008605957031250e-01 -5.803623199462890625e-01
5.681614205241203308e-02 6.221700906753540039e-01 3.304876685142517090e-01
-2.284620702266693115e-01 1.113589759916067123e-02 -2.406355887651443481e-01
2.802796065807342529e-01 -1.667186468839645386e-01 -3.912778496742248535e-01
2.016855478286743164e-01 -6.655039787292480469e-01 3.434314392507076263e-03
-2.404741644859313965e-01 6.222062110900878906e-01 4.581111967563629150e-01
-1.927377656102180481e-02 2.165216393768787384e-02 4.506378769874572754e-01
-1.087009608745574951e-01 -3.002979606389999390e-02 -7.796635031700134277e-01
-3.373306691646575928e-01 1.757982820272445679e-01 4.373043179512023926e-01
3.550253510475158691e-01 6.942397356033325195e-01 3.027731478214263916e-01
-1.018576622009277344e-01 -3.344930410385131836e-01 -6.302929520606994629e-01
-6.539957970380783081e-02 -6.359306573867797852e-01 3.411110043525695801e-01
2.384718060493469238e-01 2.212310731410980225e-01 2.365490943193435669e-01
-2.451485097408294678e-01 4.442687630653381348e-01 2.282429188489913940e-01
1.141816377639770508e-01 -5.302043259143829346e-02 6.939444690942764282e-03
-2.916979789733886719e-01 6.967793405055999756e-02 4.041186869144439697e-01
-6.710108369588851929e-02 -5.956920385360717773e-01 -1.849090903997421265e-01
-9.104706346988677979e-02 -1.360052376985549927e-01 -2.148350141942501068e-02
-7.682408392429351807e-02 -4.027407243847846985e-02 1.661066152155399323e-02
-1.571706533432006836e-01 -2.490312792360782623e-02 1.012064814567565918e-01
6.601660698652267456e-02 -6.341099143028259277e-01 7.352802902460098267e-02
2.718895375728607178e-01 6.928607225418090820e-01 2.105851471424102783e-01
6.910150498151779175e-02 2.676368877291679382e-02 4.694816172122955322e-01
1.908905506134033203e-01 2.127484232187271118e-02 -5.585227012634277344e-01
-3.286256194114685059e-01 5.506846308708190918e-01 2.659439444541931152e-01
2.614954859018325806e-02 -1.526117175817489624e-01 3.315750658512115479e-01
-5.298060178756713867e-02 1.621136628091335297e-02 -7.119424343109130859e-01
1.463550031185150146e-01 -6.896988749504089355e-01 3.394570052623748779e-01
-2.279549390077590942e-01 -1.553608942776918411e-02 -1.359743922948837280e-01
3.240350261330604553e-02 -6.348930001258850098e-01 -8.193675428628921509e-02
3.447550237178802490e-01 2.803738713264465332e-01 3.289974927902221680e-01
-6.641080975532531738e-02 -1.900708973407745361e-01 -3.020409345626831055e-01
5.734511464834213257e-02 -4.269931316375732422e-01 -1.211112588644027710e-01
-2.741025984287261963e-01 6.889822334051132202e-02 -5.424780249595642090e-01
-8.369234949350357056e-02 -3.391342461109161377e-01 -1.101110801100730896e-01
-3.078987300395965576e-01 -7.539080083370208740e-02 -1.680329442024230957e-01
-6.874369923025369644e-03 -3.608607351779937744e-01 1.127260774374008179e-01
-3.207817375659942627e-01 6.943343877792358398e-01 4.645351767539978027e-01
-5.009124986827373505e-03 -4.929051101207733154e-01 2.565670013427734375e-01
5.783078446984291077e-02 -1.266584843397140503e-01 -7.703732848167419434e-01
6.098394840955734253e-02 -4.133962392807006836e-01 3.458038866519927979e-01
-2.939459085464477539e-01 2.508795261383056641e-01 2.642177939414978027e-01
-1.444914937019348145e-01 -5.545678734779357910e-01 -2.402913272380828857e-01
-3.466441854834556580e-02 -5.395100712776184082e-01 4.143412113189697266e-01
-1.982226222753524780e-01 2.934429608285427094e-02 -7.058286666870117188e-01
-4.138268902897834778e-02 -1.866828948259353638e-01 -6.280596256256103516e-01
3.749184012413024902e-01 4.831449687480926514e-01 4.879673719406127930e-01
-1.427818834781646729e-01 -6.379523277282714844e-01 3.621124103665351868e-02
1.521245539188385010e-01 -1.463526040315628052e-01 -2.728669904172420502e-02
-3.436014428734779358e-02 6.911803781986236572e-02 4.271062016487121582e-01
1.843037456274032593e-01 -4.275089874863624573e-02 -6.772851347923278809e-01
-6.143247708678245544e-03 -7.885488122701644897e-02 2.149854302406311035e-01
2.032361775636672974e-01 -2.159812301397323608e-01 -1.550675481557846069e-01
1.088616773486137390e-01 -4.105280339717864990e-01 -6.351057887077331543e-01
-1.779697239398956299e-01 -4.424799978733062744e-01 -5.108498334884643555e-01
1.395760625600814819e-01 -1.883125305175781250e-01 -2.332705408334732056e-01
-3.157250583171844482e-01 6.408216804265975952e-02 -4.526988267898559570e-01
-6.937857717275619507e-02 -2.409397065639495850e-01 3.259117901325225830e-01
-2.023683935403823853e-01 4.405520856380462646e-01 5.286477804183959961e-01
2.344840168952941895e-01 -1.669029742479324341e-01 -1.218023225665092468e-01
-2.190655767917633057e-01 -1.850298494100570679e-01 -3.544437885284423828e-01
-9.553270787000656128e-02 -1.865336894989013672e-01 -7.019744515419006348e-01
2.388433665037155151e-01 -1.453237086534500122e-01 -5.836391448974609375e-01
-3.351968228816986084e-01 3.958221897482872009e-02 -2.567388415336608887e-01
3.994790464639663696e-02 6.960322856903076172e-01 4.483236372470855713e-01
-1.128574609756469727e-01 6.889227777719497681e-02 -7.526687383651733398e-01
-1.983367353677749634e-01 -1.067088618874549866e-01 -6.819507479667663574e-01
1.571997106075286865e-01 6.879436224699020386e-02 -1.522964332252740860e-02
7.345440983772277832e-02 -3.363372385501861572e-01 -2.159911245107650757e-01
2.923025190830230713e-02 -2.442359924316406250e-02 -7.568076252937316895e-01
1.840375065803527832e-01 -4.867630004882812500e-01 -3.254507184028625488e-01
-3.230072259902954102e-01 6.742569804191589355e-01 2.318913191556930542e-01
-3.508105278015136719e-01 -2.167847752571105957e-02 -3.522514700889587402e-01
3.997852653264999390e-02 6.945362687110900879e-01 2.044391483068466187e-01
2.028412073850631714e-01 6.951291561126708984e-01 2.511953413486480713e-01
1.162803620100021362e-01 6.951574683189392090e-01 4.776960611343383789e-01
-8.114480972290039062e-02 4.969066679477691650e-01 1.902649402618408203e-01
-3.163034021854400635e-01 8.336747996509075165e-03 -1.290189474821090698e-01
2.638671994209289551e-01 1.251411437988281250e-02 4.180329293012619019e-02
-1.877553313970565796e-01 -2.190151959657669067e-01 -1.381960064172744751e-01
1.375436484813690186e-01 3.390212357044219971e-01 2.037915885448455811e-01
8.908934891223907471e-03 -6.209333539009094238e-01 -7.220225930213928223e-01
-6.469778716564178467e-02 -1.498859077692031860e-01 3.708979189395904541e-01
-2.136412709951400757e-01 6.965959817171096802e-02 4.152520895004272461e-01
2.013940364122390747e-02 -4.235466122627258301e-01 -1.161090005189180374e-02
-1.403457224369049072e-01 6.965491920709609985e-02 4.915797114372253418e-01
1.990154013037681580e-02 -1.889308393001556396e-01 -5.981235504150390625e-01
1.407453864812850952e-01 -4.081640392541885376e-02 -7.167045474052429199e-01
-1.897838264703750610e-01 -2.398064583539962769e-01 -3.743690550327301025e-01
6.889532785862684250e-03 -1.948876380920410156e-01 1.816159114241600037e-02
2.842341959476470947e-01 -1.598636507987976074e-01 -2.507674098014831543e-01
-1.091456711292266846e-01 8.482059463858604431e-03 1.630389839410781860e-01
-1.781706064939498901e-01 3.007428646087646484e-01 5.246668457984924316e-01
-7.334002107381820679e-02 -1.011275276541709900e-01 -7.273094058036804199e-01
-2.064137309789657593e-01 -6.620448827743530273e-01 -2.455439865589141846e-01
-2.610078826546669006e-02 2.520303130149841309e-01 5.236750245094299316e-01
1.832758337259292603e-01 -6.032618880271911621e-01 -2.896972894668579102e-01
3.773770034313201904e-01 5.655210614204406738e-01 5.087791085243225098e-01
5.121891573071479797e-02 -2.649385333061218262e-01 -6.720422506332397461e-01
-1.208261027932167053e-02 -2.904948294162750244e-01 -5.965158343315124512e-02
1.899279952049255371e-01 6.222140192985534668e-01 4.992568194866180420e-01
6.224873475730419159e-03 -4.894741475582122803e-01 4.082805290818214417e-02
1.831704974174499512e-01 2.609235644340515137e-01 5.238437056541442871e-01
-3.380104303359985352e-01 3.276410698890686035e-01 2.909716963768005371e-01
-2.815397270023822784e-02 -4.387848079204559326e-01 -1.696763485670089722e-01
1.846480071544647217e-01 -6.016371250152587891e-01 -5.323051810264587402e-01
2.083552479743957520e-01 -6.754758954048156738e-01 -1.879245340824127197e-01
-4.746598005294799805e-02 6.876159459352493286e-02 1.315546408295631409e-02
4.043318033218383789e-01 6.428472399711608887e-01 4.145245552062988281e-01
-2.739875018596649170e-01 -1.806666105985641479e-01 -3.066138923168182373e-01
-2.185691893100738525e-01 6.781979650259017944e-02 1.341941654682159424e-01
2.233993858098983765e-01 6.961951851844787598e-01 3.271747529506683350e-01
7.984353601932525635e-02 -1.908062398433685303e-01 -3.982615768909454346e-01
-2.320265918970108032e-01 -1.608749777078628540e-01 -2.097027450799942017e-01
2.035677582025527954e-01 6.134592369198799133e-02 2.328997403383255005e-01
1.302156597375869751e-01 3.513132333755493164e-01 5.259268879890441895e-01
-1.124946698546409607e-01 -2.588324993848800659e-02 3.399670422077178955e-01
3.394194841384887695e-01 -5.108691006898880005e-02 -3.293214738368988037e-01
1.829725354909896851e-01 -3.217075765132904053e-01 -4.004861116409301758e-01
4.217663407325744629e-02 -2.133704535663127899e-02 -8.101545572280883789e-01
2.640417814254760742e-01 6.221905946731567383e-01 3.831577301025390625e-01
-3.141841888427734375e-01 -8.548459410667419434e-02 -4.508907198905944824e-01
4.904011636972427368e-02 6.221886277198791504e-01 4.007423818111419678e-01
-6.356299668550491333e-02 -2.292494475841522217e-01 8.905491232872009277e-02
-3.232305645942687988e-01 2.161461412906646729e-01 2.970006465911865234e-01
-2.809595465660095215e-01 -2.217204868793487549e-02 -5.890322327613830566e-01
2.327432157471776009e-03 -1.232422068715095520e-01 -8.396974881179630756e-04
3.232596516609191895e-01 -2.499997057020664215e-02 -1.443152874708175659e-01
1.309334337711334229e-01 6.895312666893005371e-02 1.721380203962326050e-01
4.698049277067184448e-03 -3.860328197479248047e-01 2.658581435680389404e-01
-5.565696954727172852e-02 -1.911153793334960938e-01 -5.617127418518066406e-01
2.425112575292587280e-01 8.074940741062164307e-02 5.206810235977172852e-01
2.199363708496093750e-02 4.382641986012458801e-02 1.072315350174903870e-01
-4.773280769586563110e-02 6.911423802375793457e-02 3.629428744316101074e-01
