5.685236454010009766e-01 1.815718710422515869e-01 -3.906967490911483765e-02
-1.040331199765205383e-01 2.765456140041351318e-01 1.499821245670318604e-01
9.481777548789978027e-01 1.621022820472717285e-01 7.782146334648132324e-02
-8.085086941719055176e-02 -1.016630530357360840e-01 -7.488659024238586426e-02
-4.234315454959869385e-02 1.815718710422515869e-01 -3.286683931946754456e-02
-5.870199203491210938e-01 1.815718710422515869e-01 -2.485567331314086914e-02
2.068175002932548523e-03 2.765456140041351318e-01 9.402909129858016968e-02
2.688632905483245850e-01 -3.017320334911346436e-01 1.896336078643798828e-01
7.740237712860107422e-01 -1.421071290969848633e-01 -7.488659024238586426e-02
2.538645267486572266e-01 -1.766279935836791992e-01 -8.656595647335052490e-02
-4.776538312435150146e-01 -1.737029552459716797e-01 -7.488659024238586426e-02
4.507203102111816406e-01 -1.536428183317184448e-01 -7.488659024238586426e-02
5.096056461334228516e-01 1.815718710422515869e-01 2.698688767850399017e-03
6.760823726654052734e-01 -3.017320334911346436e-01 1.425983756780624390e-01
2.456650733947753906e-01 -5.576127208769321442e-03 -7.488659024238586426e-02
-3.916762173175811768e-01 -1.507058888673782349e-01 -7.488659024238586426e-02
-1.507020294666290283e-01 -1.564468489959836006e-03 -7.488659024238586426e-02
-2.212419360876083374e-01 6.896881014108657837e-02 -7.488659024238586426e-02
8.132948279380798340e-01 -1.619175672531127930e-01 -7.488659024238586426e-02
-1.426720172166824341e-01 -3.017320334911346436e-01 1.301919221878051758e-01
-2.817364037036895752e-01 -1.273540854454040527e-01 -7.488659024238586426e-02
-5.436169505119323730e-01 2.765456140041351318e-01 1.408161073923110962e-01
9.481777548789978027e-01 1.591267287731170654e-01 3.808956826105713844e-03
3.783730268478393555e-01 2.450716644525527954e-01 -6.191017851233482361e-02
-4.480358064174652100e-01 -3.017320334911346436e-01 -3.546093404293060303e-02
6.519992947578430176e-01 2.765456140041351318e-01 1.746824085712432861e-01
9.138431549072265625e-01 -2.618019878864288330e-01 -6.191017851233482361e-02
3.519109189510345459e-01 1.815718710422515869e-01 5.876504350453615189e-03
-9.437850117683410645e-01 -2.165203392505645752e-01 6.406338512897491455e-02
-3.290711641311645508e-01 2.137077003717422485e-01 -7.488659024238586426e-02
2.518084645271301270e-01 2.765456140041351318e-01 1.601491272449493408e-01
9.215640425682067871e-01 2.765456140041351318e-01 -5.596892908215522766e-02
-7.048738002777099609e-01 -3.844794258475303650e-02 -7.488659024238586426e-02
-5.448505282402038574e-01 2.327303886413574219e-01 -7.303860783576965332e-02
6.123259663581848145e-02 1.815718710422515869e-01 -3.028027713298797607e-02
1.145266443490982056e-01 -2.403744868934154510e-02 -7.488659024238586426e-02
-7.158724069595336914e-01 2.085036486387252808e-01 -7.488659024238586426e-02
2.486921697854995728e-01 1.048400178551673889e-01 -7.488659024238586426e-02
4.863876104354858398e-02 2.765456140041351318e-01 1.476002782583236694e-01
4.367589652538299561e-01 -2.225349098443984985e-01 -7.488659024238586426e-02
5.980257391929626465e-01 -2.288903445005416870e-01 -7.488659024238586426e-02
-6.182065010070800781e-01 2.765456140041351318e-01 1.743415445089340210e-01
-5.239422321319580078e-01 -3.017320334911346436e-01 1.746269166469573975e-01
2.174332588911056519e-01 -2.690947949886322021e-01 -6.191017851233482361e-02
-3.201930224895477295e-01 2.765456140041351318e-01 1.048715710639953613e-01
-5.335982441902160645e-01 1.815718710422515869e-01 -3.141620755195617676e-02
-9.120385646820068359e-01 -2.937971353530883789e-01 -6.191017851233482361e-02
-1.122840791940689087e-01 1.335593461990356445e-01 -1.108170673251152039e-02
9.481777548789978027e-01 2.540974915027618408e-01 1.364874988794326782e-01
9.481777548789978027e-01 2.232586890459060669e-01 2.812694385647773743e-02
6.362356543540954590e-01 2.765456140041351318e-01 1.320321559906005859e-01
2.433256357908248901e-01 2.765456140041351318e-01 7.348097115755081177e-02
-9.123715162277221680e-01 2.765456140041351318e-01 1.562339216470718384e-01
-6.239634752273559570e-01 -3.017320334911346436e-01 1.338422745466232300e-01
9.481777548789978027e-01 -2.170831561088562012e-01 1.459271013736724854e-01
3.108800649642944336e-01 1.937238723039627075e-01 -7.488659024238586426e-02
-9.437850117683410645e-01 -8.958343416452407837e-03 6.905368715524673462e-02
7.196082174777984619e-02 -3.017320334911346436e-01 1.083193719387054443e-02
3.138516843318939209e-01 -3.017320334911346436e-01 2.930013462901115417e-02
6.038668751716613770e-01 -2.771396338939666748e-01 -6.191017851233482361e-02
4.332740902900695801e-01 -2.909573316574096680e-01 -6.191017851233482361e-02
1.456973701715469360e-01 2.765456140041351318e-01 6.647840887308120728e-02
4.840590804815292358e-02 1.566387480124831200e-03 -7.488659024238586426e-02
7.529469728469848633e-01 -2.422551661729812622e-01 -7.488659024238586426e-02
4.649640023708343506e-01 -3.017320334911346436e-01 3.253472596406936646e-02
6.656594574451446533e-02 -2.911733388900756836e-01 -6.191017851233482361e-02
-2.567724883556365967e-01 -1.584842056035995483e-01 -7.573477178812026978e-02
-5.946218967437744141e-01 1.464366614818572998e-01 9.460374712944030762e-03
-9.435442090034484863e-01 -2.725539505481719971e-01 1.497467160224914551e-01
-3.609234234318137169e-03 -3.017320334911346436e-01 1.443444937467575073e-01
9.481777548789978027e-01 -2.305153608322143555e-01 5.242152139544487000e-03
-6.161801815032958984e-01 2.621017396450042725e-01 -6.191017851233482361e-02
9.481777548789978027e-01 5.333756655454635620e-02 1.708417981863021851e-01
5.495891571044921875e-01 1.335593461990356445e-01 -3.782712668180465698e-02
9.481777548789978027e-01 -7.509411126375198364e-02 8.209160715341567993e-02
9.481777548789978027e-01 -2.707991003990173340e-01 5.331005901098251343e-02
2.888005375862121582e-01 1.647548526525497437e-01 9.460374712944030762e-03
-5.375032424926757812e-01 1.952210664749145508e-01 -7.488659024238586426e-02
-1.091023981571197510e-01 1.335593461990356445e-01 -5.236217379570007324e-02
4.971127212047576904e-01 2.765456140041351318e-01 1.169184446334838867e-01
-7.103255391120910645e-01 2.765456140041351318e-01 -4.880377964582294226e-04
-9.437850117683410645e-01 -2.528564631938934326e-01 7.509776949882507324e-02
-5.400735735893249512e-01 7.499230653047561646e-02 -9.287283569574356079e-02
1.018276736140251160e-01 -5.821735039353370667e-02 -7.488659024238586426e-02
-3.636524975299835205e-01 -3.017320334911346436e-01 8.235904574394226074e-02
9.481777548789978027e-01 1.965517997741699219e-01 1.516483724117279053e-01
-6.364801526069641113e-01 -2.934503555297851562e-01 -6.191017851233482361e-02
4.565188586711883545e-01 2.765456140041351318e-01 4.744204133749008179e-02
-3.950887620449066162e-01 -7.379747182130813599e-02 -7.488659024238586426e-02
-9.437850117683410645e-01 2.177167534828186035e-01 9.340029209852218628e-02
-6.290823221206665039e-01 7.450658362358808517e-03 -1.229000985622406006e-01
-8.299610018730163574e-01 -1.342397183179855347e-02 -7.488659024238586426e-02
7.583482265472412109e-01 -5.620598793029785156e-02 -8.644010871648788452e-02
1.263764351606369019e-01 2.765456140041351318e-01 1.895298250019550323e-03
9.481777548789978027e-01 -1.668193787336349487e-01 1.013988777995109558e-01
7.199035286903381348e-01 9.677733480930328369e-02 -7.488659024238586426e-02
-4.728570580482482910e-01 2.659264802932739258e-01 -6.191017851233482361e-02
7.282069921493530273e-01 1.373632848262786865e-01 -7.488659024238586426e-02
5.047236084938049316e-01 9.496602416038513184e-02 -7.488659024238586426e-02
-2.322009354829788208e-01 -8.472168445587158203e-02 -7.488659024238586426e-02
2.832269072532653809e-01 -8.594104647636413574e-02 -7.488659024238586426e-02
5.902662277221679688e-01 -3.017320334911346436e-01 -2.265089005231857300e-02
2.290809154510498047e-01 2.765456140041351318e-01 -4.290136322379112244e-02
9.481777548789978027e-01 -1.235848106443881989e-02 1.973723024129867554e-01
8.132799267768859863e-01 2.978918701410293579e-02 -7.488659024238586426e-02
-8.688595294952392578e-01 2.765456140041351318e-01 7.419681176543235779e-03
-9.437850117683410645e-01 1.418320983648300171e-01 9.379088878631591797e-02
7.368166446685791016e-01 -3.017320334911346436e-01 3.945603594183921814e-02
-5.910547375679016113e-01 -3.017320334911346436e-01 7.854202389717102051e-02
8.815766125917434692e-02 -3.017320334911346436e-01 1.829065978527069092e-01
7.725037336349487305e-01 2.765456140041351318e-01 7.329796254634857178e-02
-5.115118026733398438e-01 2.765456140041351318e-01 -2.567115612328052521e-02
-1.942179948091506958e-01 2.765456140041351318e-01 1.080679148435592651e-01
2.411318570375442505e-01 2.765456140041351318e-01 -2.891092561185359955e-03
5.947816371917724609e-01 1.141432896256446838e-01 -7.488659024238586426e-02
-5.197181701660156250e-01 1.335593461990356445e-01 -2.938720397651195526e-02
3.676855266094207764e-01 1.335593461990356445e-01 -6.435861438512802124e-02
-3.889493644237518311e-01 1.214856132864952087e-01 -7.488659024238586426e-02
-9.437850117683410645e-01 -1.603965759277343750e-01 1.382847428321838379e-01
1.461234539747238159e-01 -9.339772164821624756e-02 -7.488659024238586426e-02
5.872014760971069336e-01 2.269754260778427124e-01 -7.488659024238586426e-02
5.790902376174926758e-01 -1.528967022895812988e-01 -7.488659024238586426e-02
6.865112781524658203e-01 2.203722745180130005e-01 -7.488659024238586426e-02
1.590037494897842407e-01 -1.502223461866378784e-01 -7.488659024238586426e-02
2.254602760076522827e-01 1.375723481178283691e-01 9.460374712944030762e-03
-4.497430622577667236e-01 2.765456140041351318e-01 1.095262356102466583e-02
-9.317528605461120605e-01 2.719291448593139648e-01 3.810310736298561096e-02
6.397115439176559448e-02 -6.776317209005355835e-02 -7.488659024238586426e-02
4.022113680839538574e-01 -3.017320334911346436e-01 9.262394160032272339e-02
-7.257820963859558105e-01 2.765456140041351318e-01 1.443229913711547852e-01
-7.793682813644409180e-01 -3.017320334911346436e-01 1.077213063836097717e-01
1.772248148918151855e-01 -3.017320334911346436e-01 1.052400767803192139e-01
-9.437850117683410645e-01 -4.015382006764411926e-02 4.827813431620597839e-02
-5.598850250244140625e-01 2.765456140041351318e-01 1.287956349551677704e-02
-4.819314181804656982e-01 -3.017320334911346436e-01 8.381829410791397095e-02
-4.186179041862487793e-01 1.815718710422515869e-01 8.427593857049942017e-03
4.064562320709228516e-01 -1.458811387419700623e-02 -7.488659024238586426e-02
-2.864271700382232666e-01 2.765456140041351318e-01 -3.906472027301788330e-02
-2.257721722126007080e-01 2.765456140041351318e-01 1.450671255588531494e-01
-5.967274904251098633e-01 -3.017320334911346436e-01 -4.407813772559165955e-03
-3.878851532936096191e-01 -2.605455815792083740e-01 -6.191017851233482361e-02
-3.359339237213134766e-01 -7.447492331266403198e-02 -7.488659024238586426e-02
1.685061752796173096e-01 -2.993034124374389648e-01 -6.191017851233482361e-02
-9.356113672256469727e-01 2.685810029506683350e-01 -1.945385150611400604e-02
-1.047901436686515808e-01 -3.017320334911346436e-01 2.701241709291934967e-02
9.481777548789978027e-01 -2.093533873558044434e-01 3.823053091764450073e-02
9.481777548789978027e-01 1.804868578910827637e-01 -4.658342897891998291e-02
-3.138474822044372559e-01 2.765456140041351318e-01 2.230014652013778687e-02
9.481777548789978027e-01 -1.718024611473083496e-01 2.956935204565525055e-02
-9.437850117683410645e-01 -1.711504608392715454e-01 -1.574235782027244568e-02
6.967330574989318848e-01 -4.402147606015205383e-02 -7.488659024238586426e-02
-3.019164502620697021e-01 1.335593461990356445e-01 -5.647327378392219543e-02
4.898268878459930420e-01 1.335593461990356445e-01 -3.564721718430519104e-02
2.194685041904449463e-01 6.592149287462234497e-02 -7.488659024238586426e-02
-4.030821025371551514e-01 -2.274783551692962646e-01 -7.488659024238586426e-02
6.160120293498039246e-02 1.335593461990356445e-01 -1.709649368422105908e-04
7.339559793472290039e-01 2.765456140041351318e-01 1.598186939954757690e-01
4.263033270835876465e-01 2.765456140041351318e-01 1.584708094596862793e-01
-8.480156660079956055e-01 2.420326620340347290e-01 -6.191017851233482361e-02
5.819310545921325684e-01 2.765456140041351318e-01 9.067099541425704956e-03
-6.008386015892028809e-01 1.335593461990356445e-01 -4.023294895887374878e-02
5.148354172706604004e-01 -3.017320334911346436e-01 1.213469430804252625e-01
1.874535530805587769e-01 2.368484437465667725e-01 -6.191017851233482361e-02
9.481777548789978027e-01 -2.613452374935150146e-01 -3.208504244685173035e-02
8.970440030097961426e-01 -3.017320334911346436e-01 3.159839427098631859e-03
-1.547645777463912964e-01 2.765456140041351318e-01 -4.017349705100059509e-02
7.885439395904541016e-01 -3.017320334911346436e-01 4.847848787903785706e-02
4.439011514186859131e-01 -3.017320334911346436e-01 1.407035440206527710e-01
-1.889029741287231445e-01 -3.017320334911346436e-01 4.481891170144081116e-02
2.291364073753356934e-01 -3.017320334911346436e-01 9.051527827978134155e-02
-8.657758682966232300e-02 2.765456140041351318e-01 -4.555553663522005081e-03
-4.898167550563812256e-01 -3.184380382299423218e-02 -1.229000985622406006e-01
6.208959221839904785e-01 -3.017320334911346436e-01 1.925229728221893311e-01
-8.567213416099548340e-01 2.765456140041351318e-01 1.592386215925216675e-01
-2.042802423238754272e-01 2.765456140041351318e-01 -3.170058876276016235e-02
-9.437850117683410645e-01 -1.834312640130519867e-02 -1.607954874634742737e-02
-3.341770917177200317e-02 2.765456140041351318e-01 1.076824665069580078e-01
5.013893246650695801e-01 1.335593461990356445e-01 6.276716012507677078e-03
-8.159570395946502686e-02 -2.084388136863708496e-01 -7.488659024238586426e-02
7.890681028366088867e-01 2.765456140041351318e-01 -2.820232696831226349e-02
5.774880051612854004e-01 2.765456140041351318e-01 1.871584206819534302e-01
7.309963107109069824e-01 -3.017320334911346436e-01 1.921890377998352051e-01
-9.437850117683410645e-01 -2.006743848323822021e-01 1.212158426642417908e-01
1.640680581331253052e-01 2.765456140041351318e-01 -1.613018475472927094e-02
9.481777548789978027e-01 2.077357321977615356e-01 8.395731449127197266e-02
-1.456565260887145996e-01 2.765456140041351318e-01 3.695954382419586182e-02
-4.444984197616577148e-01 2.765456140041351318e-01 1.558433175086975098e-01
4.919959008693695068e-01 -2.992469072341918945e-01 -6.191017851233482361e-02
-2.281443178653717041e-01 1.457202732563018799e-01 9.460374712944030762e-03
-6.646296977996826172e-01 -3.017320334911346436e-01 1.960147917270660400e-01
-4.195453524589538574e-01 -3.017320334911346436e-01 2.354071289300918579e-02
3.571981787681579590e-01 9.328352659940719604e-02 -7.488659024238586426e-02
-1.313355118036270142e-01 2.765456140041351318e-01 1.129303053021430969e-01
6.025639176368713379e-01 -3.082816489040851593e-02 -7.488659024238586426e-02
5.753586292266845703e-01 2.765456140041351318e-01 4.252376779913902283e-02
-1.600112318992614746e-01 1.767968684434890747e-01 9.460374712944030762e-03
-9.437850117683410645e-01 -9.923908859491348267e-02 -2.092340588569641113e-02
2.231505811214447021e-01 -3.017320334911346436e-01 7.824850268661975861e-03
7.944623827934265137e-01 -1.158936065621674061e-03 -7.488659024238586426e-02
-4.652689993381500244e-01 2.765456140041351318e-01 7.424788922071456909e-02
-8.517373204231262207e-01 -5.887112021446228027e-02 -7.488659024238586426e-02
4.216115772724151611e-01 1.815718710422515869e-01 -6.735499948263168335e-02
6.452614068984985352e-01 -3.017320334911346436e-01 5.389348417520523071e-02
-2.963666021823883057e-01 -1.905823796987533569e-01 -7.488659024238586426e-02
3.084573745727539062e-01 2.765456140041351318e-01 -4.290631785988807678e-02
-5.236717462539672852e-01 2.465996425598859787e-03 -1.229000985622406006e-01
3.569673299789428711e-01 1.335593461990356445e-01 -1.252084504812955856e-02
-9.001669883728027344e-01 -3.017320334911346436e-01 5.306065827608108521e-02
-5.767783522605895996e-01 2.118726223707199097e-01 -7.488659024238586426e-02
4.529725611209869385e-01 1.335593461990356445e-01 -4.299945384263992310e-02
-7.702463269233703613e-01 1.371165513992309570e-01 -7.488659024238586426e-02
5.398300886154174805e-01 -6.006759405136108398e-02 -7.488659024238586426e-02
-6.444070339202880859e-01 1.725500077009201050e-01 4.922295920550823212e-03
4.854611158370971680e-01 1.815718710422515869e-01 -2.128924056887626648e-02
-9.437850117683410645e-01 -7.617172319442033768e-03 1.903301775455474854e-01
-7.297049164772033691e-01 -3.017320334911346436e-01 1.739029400050640106e-02
-6.718194484710693359e-01 2.749909460544586182e-01 -6.191017851233482361e-02
5.335023999214172363e-01 3.456358984112739563e-02 -7.488659024238586426e-02
3.206034600734710693e-01 2.765456140041351318e-01 3.140226006507873535e-02
-4.423046112060546875e-01 1.042296439409255981e-01 -7.488659024238586426e-02
1.507418751716613770e-01 -3.017320334911346436e-01 1.228849589824676514e-01
-1.809294149279594421e-02 -3.703655302524566650e-02 -7.488659024238586426e-02
9.481777548789978027e-01 -1.602122634649276733e-01 -2.439947612583637238e-02
9.222358465194702148e-01 -3.002120256423950195e-01 5.881119146943092346e-02
-1.555315107107162476e-01 -8.070094138383865356e-02 -7.488659024238586426e-02
9.286130666732788086e-01 2.765456140041351318e-01 1.910872161388397217e-01
5.220945477485656738e-01 2.765456140041351318e-01 9.089943766593933105e-02
-6.983538866043090820e-01 2.578697204589843750e-01 -6.191017851233482361e-02
-9.437850117683410645e-01 7.554104551672935486e-03 -5.082434415817260742e-02
-4.406429231166839600e-01 6.653930991888046265e-02 -8.656595647335052490e-02
-9.437850117683410645e-01 1.553772836923599243e-01 1.362350955605506897e-02
-7.939647436141967773e-01 -2.367063164710998535e-01 -7.488659024238586426e-02
9.208624958992004395e-01 2.765456140041351318e-01 2.521745860576629639e-02
-7.925478219985961914e-01 -3.017320334911346436e-01 -2.972875721752643585e-02
-4.428208768367767334e-01 -3.017320334911346436e-01 6.283615529537200928e-02
9.481777548789978027e-01 1.427397280931472778e-01 1.511565148830413818e-01
-4.229430556297302246e-01 2.765456140041351318e-01 8.328134566545486450e-02
-3.179001063108444214e-02 -2.695516049861907959e-01 -6.191017851233482361e-02
-6.055204868316650391e-01 2.765456140041351318e-01 5.213944986462593079e-02
-5.096469521522521973e-01 -1.296816468238830566e-01 -7.488659024238586426e-02
7.032014131546020508e-01 -3.017320334911346436e-01 1.555054914206266403e-02
2.916641533374786377e-01 1.087678223848342896e-01 -7.488659024238586426e-02
-7.145842909812927246e-01 -3.017320334911346436e-01 -2.535764127969741821e-02
6.782989501953125000e-01 -1.688367873430252075e-01 -7.488659024238586426e-02
8.494555950164794922e-01 -1.113386899232864380e-01 -7.488659024238586426e-02
-2.640692293643951416e-01 1.335593461990356445e-01 -4.536862298846244812e-02
8.512777686119079590e-01 -2.435829341411590576e-01 -6.191017851233482361e-02
3.231876492500305176e-01 1.335593461990356445e-01 -7.188624143600463867e-02
4.709577858448028564e-01 2.328086830675601959e-02 -7.488659024238586426e-02
-3.922311067581176758e-01 -3.017320334911346436e-01 1.664566993713378906e-01
5.442751049995422363e-01 -3.017320334911346436e-01 1.078625023365020752e-01
-8.894993066787719727e-01 -3.017320334911346436e-01 -2.711039036512374878e-02
-1.875989735126495361e-01 2.765456140041351318e-01 6.808429211378097534e-02
-6.529562473297119141e-01 -3.017320334911346436e-01 8.780738338828086853e-03
-5.704912543296813965e-01 -3.017320334911346436e-01 -2.327563054859638214e-02
9.481777548789978027e-01 -7.804303616285324097e-02 1.549831479787826538e-01
-9.437850117683410645e-01 9.523454308509826660e-02 -2.070987969636917114e-02
9.481777548789978027e-01 1.508410833775997162e-02 4.485468566417694092e-02
-4.248029291629791260e-01 -7.743544131517410278e-02 -8.656595647335052490e-02
9.032537937164306641e-01 2.503965795040130615e-01 -6.191017851233482361e-02
-2.844504117965698242e-01 2.327303886413574219e-01 -6.229067593812942505e-02
4.618735015392303467e-01 2.765456140041351318e-01 1.968491077423095703e-01
-7.296643406152725220e-02 1.879035085439682007e-01 -7.488659024238586426e-02
-8.160799145698547363e-01 2.765456140041351318e-01 5.830292403697967529e-02
5.177723169326782227e-01 -1.865941435098648071e-01 -8.656595647335052490e-02
1.604048311710357666e-01 3.606861457228660583e-02 -7.488659024238586426e-02
7.440292239189147949e-01 2.431632429361343384e-01 -6.191017851233482361e-02
2.034996747970581055e-01 -3.017320334911346436e-01 4.429315775632858276e-02
-3.729279935359954834e-01 1.815718710422515869e-01 -3.506062179803848267e-02
3.163853287696838379e-01 -1.536319106817245483e-01 -7.488659024238586426e-02
6.979210972785949707e-01 -8.811629563570022583e-02 -7.488659024238586426e-02
8.525778055191040039e-01 2.765456140041351318e-01 1.969789266586303711e-01
-4.039927124977111816e-01 -3.017320334911346436e-01 1.033242344856262207e-01
6.882730722427368164e-01 -2.035875320434570312e-01 -7.488659024238586426e-02
4.029812812805175781e-01 1.335593461990356445e-01 -2.124712243676185608e-02
-9.437850117683410645e-01 -1.427333503961563110e-01 4.582246392965316772e-02
-4.899168312549591064e-01 -4.323026910424232483e-02 -7.637289166450500488e-02
-5.803226828575134277e-01 2.765456140041351318e-01 -5.770493298768997192e-02
9.481777548789978027e-01 1.461384147405624390e-01 -2.824017778038978577e-02
7.463567256927490234e-01 -3.017320334911346436e-01 -5.350067839026451111e-02
1.465742886066436768e-01 1.335593461990356445e-01 -2.686435915529727936e-02
-5.401529073715209961e-01 1.409967988729476929e-01 9.460374712944030762e-03
9.481777548789978027e-01 -2.227063179016113281e-01 -3.252399340271949768e-02
3.700695633888244629e-01 2.765456140041351318e-01 4.933984950184822083e-02
-6.203675866127014160e-01 -2.494082227349281311e-02 -1.229000985622406006e-01
-1.411787867546081543e-01 -2.460997402667999268e-01 -6.880562007427215576e-02
-7.374614477157592773e-01 -2.561649680137634277e-01 -6.191017851233482361e-02
1.906114518642425537e-01 -3.017320334911346436e-01 1.757961362600326538e-01
-8.044808506965637207e-01 -3.017320334911346436e-01 1.668969541788101196e-01
-3.331030309200286865e-01 1.335593461990356445e-01 -2.012932486832141876e-02
9.481777548789978027e-01 1.428140550851821899e-01 1.103534474968910217e-01
4.997138082981109619e-01 2.765456140041351318e-01 -2.829012088477611542e-02
1.607278436422348022e-01 -3.017320334911346436e-01 3.385168686509132385e-02
3.278397768735885620e-02 -3.017320334911346436e-01 1.345863193273544312e-01
-4.119236171245574951e-01 2.141724079847335815e-01 -7.488659024238586426e-02
-1.686456501483917236e-01 1.815718710422515869e-01 -3.382005169987678528e-02
-9.437850117683410645e-01 1.984968781471252441e-01 6.575840711593627930e-02
3.350899517536163330e-01 -3.017320334911346436e-01 -4.436586797237396240e-02
-2.686787545680999756e-01 -5.912656709551811218e-02 -7.488659024238586426e-02
-2.755434811115264893e-01 4.256137832999229431e-02 -7.488659024238586426e-02
-2.362218648195266724e-01 1.252974867820739746e-01 -7.488659024238586426e-02
9.481777548789978027e-01 -2.509708330035209656e-02 8.050394058227539062e-02
-2.564385533332824707e-01 2.765456140041351318e-01 -1.107715163379907608e-02
-6.398461014032363892e-02 -3.017320334911346436e-01 6.267341226339340210e-02
-8.277454376220703125e-01 1.784228831529617310e-01 -7.930289208889007568e-02
-9.034120440483093262e-01 -3.017320334911346436e-01 5.268706940114498138e-03
-8.675605058670043945e-01 -1.765992492437362671e-01 -7.150673121213912964e-02
-7.662996649742126465e-01 2.765456140041351318e-01 1.870741993188858032e-01
7.376083731651306152e-02 9.273061901330947876e-02 -7.488659024238586426e-02
-2.925676107406616211e-01 2.765456140041351318e-01 1.032164245843887329e-01
-9.100875258445739746e-02 -3.017320334911346436e-01 1.606656759977340698e-01
6.621418595314025879e-01 -3.500210121273994446e-02 -7.488659024238586426e-02
8.078133463859558105e-01 1.249774396419525146e-01 -7.488659024238586426e-02
5.321102142333984375e-01 1.815718710422515869e-01 -3.430855274200439453e-02
-6.971608400344848633e-01 2.765456140041351318e-01 4.629976674914360046e-02
8.980200290679931641e-01 -1.363400649279356003e-02 -6.191017851233482361e-02
-7.694219350814819336e-01 2.327303886413574219e-01 -7.266902178525924683e-02
-4.702579975128173828e-01 -3.017320334911346436e-01 1.368053853511810303e-01
-1.046563759446144104e-01 4.859784618020057678e-02 -7.488659024238586426e-02
6.008605957031250000e-01 2.765456140041351318e-01 -1.712501235306262970e-02
3.966287970542907715e-01 -2.912585437297821045e-01 -6.191017851233482361e-02
1.248445510864257812e-01 -3.017320334911346436e-01 1.871524602174758911e-01
-2.950140535831451416e-01 9.419314563274383545e-02 -7.488659024238586426e-02
4.712520837783813477e-01 -7.410185039043426514e-02 -7.488659024238586426e-02
-5.425596833229064941e-01 -1.141636520624160767e-01 -7.488659024238586426e-02
8.059921115636825562e-02 2.765456140041351318e-01 5.121615901589393616e-02
8.871848583221435547e-01 7.394544780254364014e-02 -6.191017851233482361e-02
-5.298725962638854980e-01 -2.544864416122436523e-01 -6.191017851233482361e-02
-1.435766648501157761e-02 1.815718710422515869e-01 -9.162496775388717651e-03
-6.594741940498352051e-01 -3.017320334911346436e-01 1.499640941619873047e-01
-5.170874595642089844e-01 -1.981991827487945557e-01 -7.488659024238586426e-02
8.040629029273986816e-01 -3.017320334911346436e-01 1.307177692651748657e-01
8.185365796089172363e-01 2.765456140041351318e-01 1.237492933869361877e-01
-4.530317485332489014e-01 1.815718710422515869e-01 -7.115101069211959839e-02
-8.894993066787719727e-01 -3.017320334911346436e-01 1.855750083923339844e-01
5.787394642829895020e-01 -3.017320334911346436e-01 8.426800370216369629e-03
-3.666052520275115967e-01 -2.349821925163269043e-01 -7.488659024238586426e-02
-3.118112683296203613e-01 -3.017320334911346436e-01 3.308970853686332703e-02
6.046546697616577148e-01 2.654845416545867920e-01 -6.191017851233482361e-02
-6.868508458137512207e-01 -2.754383385181427002e-01 -6.191017851233482361e-02
5.277157425880432129e-01 2.628835141658782959e-01 -6.191017851233482361e-02
-6.675656437873840332e-01 2.765456140041351318e-01 -1.704346574842929840e-02
9.481777548789978027e-01 -2.584033310413360596e-01 1.848962754011154175e-01
-4.119067788124084473e-01 2.425221502780914307e-01 -6.191017851233482361e-02
-2.068882137537002563e-01 -1.059128940105438232e-01 -7.488659024238586426e-02
5.209540128707885742e-01 -3.017320334911346436e-01 -4.762744531035423279e-03
3.327772766351699829e-02 -3.017320334911346436e-01 7.754141092300415039e-02
-3.882874548435211182e-01 -3.017320334911346436e-01 8.782026357948780060e-03
-1.456168666481971741e-02 2.111928761005401611e-01 -7.488659024238586426e-02
5.803822875022888184e-01 -1.031323149800300598e-01 -7.488659024238586426e-02
9.481777548789978027e-01 -1.115220040082931519e-01 8.555399626493453979e-02
5.867664813995361328e-01 -3.017320334911346436e-01 1.805641949176788330e-01
-6.162346899509429932e-02 2.765456140041351318e-01 7.932877540588378906e-02
1.467922776937484741e-01 1.127531006932258606e-01 -7.488659024238586426e-02
-9.033259153366088867e-01 8.339723944664001465e-02 -6.191017851233482361e-02
-2.328539043664932251e-01 2.674008905887603760e-01 -6.191017851233482361e-02
-6.698377132415771484e-01 -2.207711637020111084e-01 -7.488659024238586426e-02
-6.624121069908142090e-01 1.916212588548660278e-02 -1.229000985622406006e-01
8.574578762054443359e-01 -6.010772660374641418e-02 -7.488659024238586426e-02
-5.184488296508789062e-01 -3.017320334911346436e-01 -2.049575001001358032e-02
1.705542951822280884e-01 2.765456140041351318e-01 1.600970029830932617e-01
7.969048619270324707e-01 -8.816198259592056274e-02 -7.488659024238586426e-02
-2.767067551612854004e-01 2.765456140041351318e-01 1.456602383404970169e-02
1.873277127742767334e-01 2.765456140041351318e-01 1.283963620662689209e-01
-5.489210486412048340e-01 -1.816486939787864685e-02 -1.229000985622406006e-01
-4.496727287769317627e-01 -3.017320334911346436e-01 -3.841735422611236572e-03
2.814047038555145264e-01 -2.460997402667999268e-01 -7.017599791288375854e-02
-7.103424072265625000e-01 -3.017320334911346436e-01 1.102185994386672974e-01
-8.073651790618896484e-02 -3.017320334911346436e-01 9.504176676273345947e-02
-7.240808010101318359e-01 -3.017320334911346436e-01 5.104334652423858643e-02
-8.324034810066223145e-01 -3.017320334911346436e-01 9.447924047708511353e-02
-7.976338863372802734e-01 -1.969219595193862915e-01 -7.488659024238586426e-02
3.101517856121063232e-01 2.765456140041351318e-01 1.133202090859413147e-01
-5.513209700584411621e-01 -3.017320334911346436e-01 4.275632277131080627e-02
-2.829571664333343506e-01 -3.017320334911346436e-01 8.544015139341354370e-02
6.434699296951293945e-01 -3.017320334911346436e-01 -5.931310355663299561e-02
9.363557398319244385e-02 1.335593461990356445e-01 -1.739660836756229401e-02
-9.393052458763122559e-01 -2.848050296306610107e-01 3.373783454298973083e-02
-9.038490653038024902e-01 -2.198229134082794189e-01 -6.191017851233482361e-02
-3.425014019012451172e-01 -3.017320334911346436e-01 1.651486605405807495e-01
-5.593826174736022949e-01 -1.855458021163940430e-01 -7.488659024238586426e-02
6.235564351081848145e-01 3.237446025013923645e-02 -7.488659024238586426e-02
-2.485928535461425781e-01 -3.017320334911346436e-01 1.177633088082075119e-02
3.515522181987762451e-01 -8.973448723554611206e-02 -7.488659024238586426e-02
4.107278585433959961e-01 3.992755338549613953e-02 -7.488659024238586426e-02
3.993586599826812744e-01 2.765456140041351318e-01 2.803667820990085602e-02
-3.083620369434356689e-01 -2.799180448055267334e-01 -6.191017851233482361e-02
-6.712021231651306152e-01 2.021303921937942505e-01 -7.488659024238586426e-02
1.290319561958312988e-01 1.815718710422515869e-01 -1.035570073872804642e-02
4.311120212078094482e-01 1.335593461990356445e-01 -7.242791820317506790e-03
8.973829448223114014e-02 -1.970151066780090332e-01 -8.656595647335052490e-02
5.961381196975708008e-01 1.703611761331558228e-01 -2.912571281194686890e-02
-9.437850117683410645e-01 -9.042571485042572021e-02 1.375955790281295776e-01
-9.437850117683410645e-01 7.024900615215301514e-02 9.160900115966796875e-02
-8.743142485618591309e-01 -3.017320334911346436e-01 1.074588224291801453e-01
4.313131272792816162e-01 -3.017320334911346436e-01 3.230543807148933411e-02
-2.099391072988510132e-01 -2.559697628021240234e-02 -7.488659024238586426e-02
-4.854787290096282959e-01 2.765456140041351318e-01 1.794127970933914185e-01
9.982879459857940674e-02 -3.017320334911346436e-01 -5.767222866415977478e-02
-1.028579287230968475e-02 8.933590352535247803e-02 -7.488659024238586426e-02
-4.002323374152183533e-02 -3.017320334911346436e-01 3.224443877115845680e-03
5.150831341743469238e-01 1.335593461990356445e-01 -2.190000563859939575e-02
-2.096051722764968872e-01 1.815718710422515869e-01 -5.941814184188842773e-02
-7.394957542419433594e-01 2.257517166435718536e-02 -7.488659024238586426e-02
4.313488006591796875e-01 -6.071176007390022278e-02 -7.488659024238586426e-02
3.034881949424743652e-01 -1.989552229642868042e-01 -8.656595647335052490e-02
-9.437850117683410645e-01 1.198734715580940247e-01 3.509631752967834473e-02
-4.392834901809692383e-01 -3.011959493160247803e-01 -6.191017851233482361e-02
9.481777548789978027e-01 2.473565936088562012e-01 -1.888831146061420441e-03
-1.031859293580055237e-01 1.815718710422515869e-01 -2.349382266402244568e-02
8.699833750724792480e-01 -1.310797482728958130e-01 -6.226589903235435486e-02
-6.800337433815002441e-01 -8.243228495121002197e-02 -7.488659024238586426e-02
7.874361276626586914e-01 2.765456140041351318e-01 1.919621378183364868e-01
-6.488540768623352051e-01 1.531715989112854004e-01 -7.488659024238586426e-02
1.343955248594284058e-01 -3.017320334911346436e-01 -2.610594406723976135e-02
6.846900582313537598e-01 -2.431093007326126099e-01 -7.488659024238586426e-02
3.839050829410552979e-01 -3.017320334911346436e-01 1.629540771245956421e-01
-2.163807451725006104e-01 -2.742453217506408691e-01 -6.191017851233482361e-02
-2.867403030395507812e-01 1.815718710422515869e-01 -4.862758889794349670e-02
2.107746303081512451e-01 -1.174652278423309326e-01 -7.488659024238586426e-02
-9.437850117683410645e-01 6.806533783674240112e-02 1.944779604673385620e-01
2.765097916126251221e-01 2.765456140041351318e-01 1.854352951049804688e-01
6.116531491279602051e-01 -3.017320334911346436e-01 1.272656917572021484e-01
9.263479113578796387e-01 -1.131519749760627747e-01 -6.191017851233482361e-02
-2.261863648891448975e-01 -1.540847420692443848e-01 -7.488659024238586426e-02
-6.546258181333541870e-02 -2.802480161190032959e-01 -6.191017851233482361e-02
7.003309577703475952e-02 2.765456140041351318e-01 8.945217728614807129e-02
5.236124992370605469e-01 -3.017320334911346436e-01 4.942000657320022583e-02
8.762932419776916504e-01 -3.017320334911346436e-01 2.600212581455707550e-02
2.876779139041900635e-01 -1.423469185829162598e-01 -7.488659024238586426e-02
-5.444116145372390747e-02 -1.376819163560867310e-01 -7.488659024238586426e-02
-1.680055558681488037e-01 -2.189945429563522339e-01 -7.488659024238586426e-02
-3.689516484737396240e-01 -8.514974266290664673e-02 -8.656595647335052490e-02
-9.371402114629745483e-02 2.765456140041351318e-01 1.789837628602981567e-01
6.067879796028137207e-01 2.765456140041351318e-01 1.155887991189956665e-01
9.481777548789978027e-01 1.027096714824438095e-02 1.083269268274307251e-01
9.451813697814941406e-01 7.316473871469497681e-02 -6.191017851233482361e-02
-4.801339656114578247e-02 2.765456140041351318e-01 1.416407078504562378e-01
-5.496592521667480469e-01 2.765456140041351318e-01 1.696012169122695923e-01
3.606691956520080566e-01 -2.029117643833160400e-01 -7.511943578720092773e-02
-2.951773349195718765e-03 -3.017320334911346436e-01 2.516464702785015106e-02
-7.966103553771972656e-01 2.765456140041351318e-01 -2.773077413439750671e-02
-1.173702105879783630e-01 -2.706920914351940155e-02 -7.488659024238586426e-02
8.592978715896606445e-01 -3.017320334911346436e-01 -3.783009573817253113e-02
3.214546144008636475e-01 -2.612728774547576904e-01 -6.191017851233482361e-02
2.150185108184814453e-01 -2.165807783603668213e-01 -7.488659024238586426e-02
-4.777816832065582275e-01 -8.669421076774597168e-02 -7.488659024238586426e-02
-3.173769712448120117e-01 6.258594244718551636e-02 -7.488659024238586426e-02
-4.545547366142272949e-01 -1.538726985454559326e-01 -7.488659024238586426e-02
-6.998461484909057617e-01 -3.017320334911346436e-01 3.187956288456916809e-02
-3.509852290153503418e-01 2.765456140041351318e-01 9.452858567237854004e-02
-2.319512367248535156e-01 -2.978556323796510696e-03 -7.488659024238586426e-02
-4.832334071397781372e-02 1.335593461990356445e-01 4.859381821006536484e-03
2.196101993322372437e-01 2.765456140041351318e-01 4.744134470820426941e-02
-9.437850117683410645e-01 1.983442902565002441e-01 1.236544698476791382e-01
-3.451705910265445709e-03 -1.611902564764022827e-01 -8.656595647335052490e-02
-4.169849753379821777e-01 -1.188832428306341171e-02 -8.656595647335052490e-02
-4.935880005359649658e-01 2.137770652770996094e-01 -7.488659024238586426e-02
-8.049237132072448730e-01 -3.017320334911346436e-01 3.739126771688461304e-02
7.546404004096984863e-01 -3.017320334911346436e-01 1.429174542427062988e-01
4.817740991711616516e-02 -3.017320334911346436e-01 -2.634147554636001587e-02
2.716783285140991211e-01 2.327303886413574219e-01 -7.288205623626708984e-02
2.818951904773712158e-01 -3.017320334911346436e-01 1.560631841421127319e-01
-6.115419864654541016e-01 1.976675242185592651e-01 -7.488659024238586426e-02
-4.321264326572418213e-01 2.765456140041351318e-01 1.251470148563385010e-01
6.558181643486022949e-01 -3.017320334911346436e-01 1.654766350984573364e-01
1.534350663423538208e-01 -2.493299543857574463e-01 -6.191017851233482361e-02
2.557075321674346924e-01 1.815718710422515869e-01 5.275742616504430771e-03
-1.511003524065017700e-01 2.765456140041351318e-01 1.369159370660781860e-01
-9.437850117683410645e-01 -2.703641057014465332e-01 1.832702457904815674e-01
3.423341810703277588e-01 -4.582981020212173462e-02 -7.488659024238586426e-02
1.784455627202987671e-01 -6.660425662994384766e-02 -7.488659024238586426e-02
7.024136781692504883e-01 1.218641325831413269e-01 -7.488659024238586426e-02
7.642706036567687988e-01 2.765456140041351318e-01 1.619023680686950684e-01
-8.965701460838317871e-01 -1.730680838227272034e-02 -6.191017851233482361e-02
-4.504842460155487061e-01 2.765456140041351318e-01 -2.613170817494392395e-02
6.578474044799804688e-01 -1.908429861068725586e-01 -7.488659024238586426e-02
-1.414175927639007568e-01 -3.017320334911346436e-01 -1.688433438539505005e-02
9.481777548789978027e-01 4.966570809483528137e-02 -5.618957336992025375e-03
-9.437850117683410645e-01 6.004654243588447571e-02 -2.850860729813575745e-02
-4.795672297477722168e-01 1.454012095928192139e-01 9.460374712944030762e-03
-4.685725569725036621e-01 -3.017320334911346436e-01 -4.872370138764381409e-02
6.503297090530395508e-01 1.885485649108886719e-02 -7.488659024238586426e-02
-7.030802965164184570e-01 2.765456140041351318e-01 9.585249423980712891e-02
8.486589193344116211e-01 -3.017320334911346436e-01 7.196027040481567383e-02
-5.344672501087188721e-02 -2.563334070146083832e-02 -7.488659024238586426e-02
-7.469114065170288086e-01 -3.017320334911346436e-01 -5.681513249874114990e-02
-9.437850117683410645e-01 -4.397708922624588013e-02 1.860499940812587738e-02
-6.077657341957092285e-01 -1.105747297406196594e-01 -9.358823299407958984e-02
-9.167293310165405273e-01 -1.450965851545333862e-01 -6.191017851233482361e-02
7.828078269958496094e-01 1.086142361164093018e-01 -7.488659024238586426e-02
-6.885403394699096680e-01 2.765456140041351318e-01 1.952736228704452515e-01
-7.519747018814086914e-01 2.765456140041351318e-01 1.632471568882465363e-02
-7.761568427085876465e-01 -2.180938422679901123e-01 -7.488659024238586426e-02
1.916805952787399292e-01 1.628682389855384827e-02 -7.488659024238586426e-02
-4.110189378261566162e-01 -3.017320334911346436e-01 -4.174600914120674133e-02
3.887979686260223389e-01 1.815718710422515869e-01 -3.122645430266857147e-02
5.124811455607414246e-02 2.608066499233245850e-01 -6.191017851233482361e-02
-8.437251448631286621e-01 -2.321582287549972534e-01 -7.488659024238586426e-02
1.184702962636947632e-01 1.504605710506439209e-01 9.460374712944030762e-03
-6.769618485122919083e-03 2.765456140041351318e-01 -1.186677441000938416e-02
7.120192050933837891e-01 -3.017320334911346436e-01 7.131370902061462402e-02
8.309193849563598633e-01 -3.017320334911346436e-01 -1.630893163383007050e-02
8.327782154083251953e-01 -1.871985644102096558e-01 -7.488659024238586426e-02
7.653368115425109863e-01 -3.017320334911346436e-01 -2.018293552100658417e-02
-9.437850117683410645e-01 1.677046567201614380e-01 1.660036742687225342e-01
6.713014245033264160e-01 1.746813505887985229e-01 -7.488659024238586426e-02
1.684576272964477539e-01 -1.148334667086601257e-01 -7.488659024238586426e-02
5.979058146476745605e-01 2.765456140041351318e-01 6.906700134277343750e-02
-3.448428213596343994e-01 1.602454036474227905e-01 9.460374712944030762e-03
9.274398684501647949e-01 1.617010124027729034e-02 -6.191017851233482361e-02
6.731664761900901794e-03 -8.197589218616485596e-02 -7.488659024238586426e-02
8.979209065437316895e-01 -3.017320334911346436e-01 8.512366563081741333e-02
-8.232349753379821777e-01 -1.449509263038635254e-01 -7.488659024238586426e-02
9.481777548789978027e-01 1.226865500211715698e-01 -4.613753780722618103e-02
5.549972653388977051e-01 8.564562350511550903e-02 -7.488659024238586426e-02
4.607092440128326416e-01 2.765456140041351318e-01 1.598711013793945312e-01
3.012844920158386230e-01 2.765456140041351318e-01 7.196154445409774780e-02
7.451558113098144531e-01 -1.507554203271865845e-01 -7.488659024238586426e-02
4.304798245429992676e-01 2.534197270870208740e-01 -6.191017851233482361e-02
8.904448151588439941e-01 -3.017320334911346436e-01 1.695457398891448975e-01
-6.067897081375122070e-01 -9.289546310901641846e-02 -1.229000985622406006e-01
6.387345790863037109e-01 -3.017320334911346436e-01 1.400409489870071411e-01
6.185991168022155762e-01 1.813082993030548096e-01 -7.488659024238586426e-02
2.281712889671325684e-01 -3.039426542818546295e-02 -7.488659024238586426e-02
-3.831626772880554199e-01 2.103526294231414795e-01 -7.488659024238586426e-02
5.638566613197326660e-02 3.237307444214820862e-02 -7.488659024238586426e-02
9.359127879142761230e-01 -2.903350591659545898e-01 1.302782297134399414e-01
6.539344787597656250e-01 -2.575194835662841797e-01 -6.191017851233482361e-02
8.838070034980773926e-01 2.765456140041351318e-01 1.487508863210678101e-01
-5.895387530326843262e-01 1.048281267285346985e-01 -7.488659024238586426e-02
-3.256952762603759766e-02 -2.151450216770172119e-01 -7.488659024238586426e-02
6.707386374473571777e-01 2.765456140041351318e-01 -6.160796806216239929e-02
-2.583974897861480713e-01 2.765456140041351318e-01 1.643792539834976196e-01
9.481777548789978027e-01 1.400703340768814087e-01 5.480865016579627991e-02
6.429814100265502930e-01 -9.511292725801467896e-02 -7.488659024238586426e-02
2.494422644376754761e-01 -2.062202692031860352e-01 -7.488659024238586426e-02
-8.301294445991516113e-01 3.751458972692489624e-02 -7.488659024238586426e-02
5.652557015419006348e-01 -3.017320334911346436e-01 6.273825466632843018e-02
-1.505514085292816162e-01 2.765456140041351318e-01 -1.140949223190546036e-02
-9.437850117683410645e-01 1.826211959123611450e-01 -3.616742044687271118e-02
6.648191809654235840e-01 2.765456140041351318e-01 6.686235964298248291e-02
7.115524411201477051e-01 2.766813337802886963e-02 -7.488659024238586426e-02
-2.008211314678192139e-01 -2.445658743381500244e-01 -7.488659024238586426e-02
9.481777548789978027e-01 -2.878984995186328888e-02 1.598172038793563843e-01
1.885672807693481445e-01 8.266081660985946655e-02 -7.488659024238586426e-02
8.334491252899169922e-01 5.170986801385879517e-02 -7.488659024238586426e-02
-9.437850117683410645e-01 -1.451054960489273071e-01 1.711073368787765503e-01
-8.654558658599853516e-01 7.959903776645660400e-02 -7.488659024238586426e-02
2.479470372200012207e-01 1.335593461990356445e-01 -1.648778840899467468e-02
7.853464037179946899e-02 -3.017320334911346436e-01 8.406869322061538696e-02
-4.401138126850128174e-01 1.335593461990356445e-01 -3.752391785383224487e-02
2.832526899874210358e-02 -2.000362575054168701e-01 -8.656595647335052490e-02
-4.726301431655883789e-01 2.765456140041351318e-01 1.310174018144607544e-01
2.591705918312072754e-01 -3.017320334911346436e-01 6.695389002561569214e-02
-3.531889021396636963e-01 -1.272351890802383423e-01 -7.981219887733459473e-02
-7.588117122650146484e-01 1.608904600143432617e-01 -8.938794583082199097e-02
-1.153864860534667969e-01 2.360765486955642700e-01 -6.191017851233482361e-02
9.481777548789978027e-01 2.450201362371444702e-01 9.743560105562210083e-02
4.449257254600524902e-02 -8.904414623975753784e-02 -7.488659024238586426e-02
-1.310204118490219116e-01 -1.817785203456878662e-01 -8.628949522972106934e-02
2.130506485700607300e-01 -3.017320334911346436e-01 -1.918859593570232391e-02
-9.437850117683410645e-01 -2.230125069618225098e-01 -4.783093184232711792e-02
9.481777548789978027e-01 -1.915435343980789185e-01 1.871197819709777832e-01
-4.283026456832885742e-01 2.765456140041351318e-01 1.842601299285888672e-01
4.802570939064025879e-01 1.815718710422515869e-01 -4.960954189300537109e-02
2.503964602947235107e-01 2.728793919086456299e-01 -6.191017851233482361e-02
-8.602845668792724609e-01 1.127154454588890076e-01 -7.488659024238586426e-02
-6.154657602310180664e-01 1.815718710422515869e-01 -4.478301852941513062e-02
-9.437850117683410645e-01 -2.466169595718383789e-01 -2.237443625926971436e-02
-5.233486741781234741e-02 -3.017320334911346436e-01 9.945785999298095703e-02
7.614674568176269531e-01 2.765456140041351318e-01 -2.025417797267436981e-02
9.481777548789978027e-01 2.186164706945419312e-01 1.720635294914245605e-01
-6.631225347518920898e-01 -3.017320334911346436e-01 7.068891078233718872e-02
1.586321592330932617e-01 1.897841840982437134e-01 -7.488659024238586426e-02
3.143401741981506348e-01 -3.017320334911346436e-01 7.479876279830932617e-02
4.449950754642486572e-01 1.318679302930831909e-01 -7.488659024238586426e-02
-7.731922268867492676e-01 4.581004008650779724e-02 -7.488659024238586426e-02
-4.523193538188934326e-01 -2.072933763265609741e-01 -7.488659024238586426e-02
-3.241524994373321533e-01 -3.017320334911346436e-01 -1.300389226526021957e-02
-9.437850117683410645e-01 2.342652529478073120e-01 -5.686962977051734924e-02
-5.655379295349121094e-01 -1.110364645719528198e-01 -9.374478459358215332e-02
-9.173347800970077515e-02 -1.815545856952667236e-01 -8.656595647335052490e-02
9.465269446372985840e-01 2.619788646697998047e-01 -5.683891847729682922e-02
-8.830230236053466797e-01 2.765456140041351318e-01 1.383760869503021240e-01
6.158841252326965332e-01 1.353984028100967407e-01 -7.488659024238586426e-02
1.948394775390625000e-01 1.815718710422515869e-01 -1.128156762570142746e-02
1.094801500439643860e-01 -2.460997402667999268e-01 -7.232815772294998169e-02
3.181104362010955811e-01 1.335593461990356445e-01 -8.373170159757137299e-03
3.558139503002166748e-01 -6.566282361745834351e-03 -7.488659024238586426e-02
-6.289831995964050293e-01 -5.873735621571540833e-02 -1.229000985622406006e-01
6.467407941818237305e-01 -3.017320334911346436e-01 1.887372322380542755e-02
5.069223642349243164e-01 -3.017320334911346436e-01 1.743851453065872192e-01
8.618760704994201660e-01 2.765456140041351318e-01 -4.919402301311492920e-03
4.890728294849395752e-01 -3.017320334911346436e-01 1.091405227780342102e-01
-6.556464433670043945e-01 -1.295486465096473694e-02 -1.229000985622406006e-01
-5.881851911544799805e-01 2.765456140041351318e-01 9.522403590381145477e-03
3.325107321143150330e-02 -2.607665657997131348e-01 -6.191017851233482361e-02
3.049100935459136963e-01 1.335593461990356445e-01 -4.469483345746994019e-02
-7.332898974418640137e-01 -3.952313214540481567e-02 -7.629262655973434448e-02
1.919828057289123535e-01 1.335593461990356445e-01 6.637423066422343254e-04
-4.720227718353271484e-01 2.327303886413574219e-01 -6.619766354560852051e-02
1.620724648237228394e-01 2.538507580757141113e-01 -6.191017851233482361e-02
-3.666042983531951904e-01 -3.017320334911346436e-01 -1.426160521805286407e-02
8.066679537296295166e-02 2.765456140041351318e-01 1.291635036468505859e-01
3.006344735622406006e-01 7.756656408309936523e-02 -7.488659024238586426e-02
-8.803109526634216309e-01 2.765456140041351318e-01 -2.800573781132698059e-02
-5.346743464469909668e-01 2.765456140041351318e-01 1.086840331554412842e-01
-6.503611803054809570e-02 2.468175441026687622e-01 -6.191017851233482361e-02
-2.369729578495025635e-01 2.765456140041351318e-01 1.032666638493537903e-01
-9.437850117683410645e-01 -1.696275025606155396e-01 5.456499382853507996e-02
-7.877371311187744141e-01 -5.304412543773651123e-02 -7.488659024238586426e-02
-7.173429131507873535e-01 -1.332408338785171509e-01 -7.488659024238586426e-02
3.645662963390350342e-01 1.815718710422515869e-01 -6.102136522531509399e-02
-5.067387819290161133e-01 2.765456140041351318e-01 5.672825872898101807e-02
7.818813323974609375e-01 -3.017320334911346436e-01 2.110713906586170197e-02
-9.437850117683410645e-01 4.059678316116333008e-02 1.441571265459060669e-01
-3.966602683067321777e-01 -3.007936775684356689e-01 -6.191017851233482361e-02
8.088101148605346680e-01 2.327303886413574219e-01 -7.274729758501052856e-02
-6.406388282775878906e-01 6.842859089374542236e-02 -9.452559053897857666e-02
8.264040350914001465e-01 -2.601630985736846924e-01 -6.191017851233482361e-02
1.184455305337905884e-01 3.637608513236045837e-02 -7.488659024238586426e-02
-1.278565675020217896e-01 3.279865160584449768e-02 -7.488659024238586426e-02
9.481777548789978027e-01 -5.056289210915565491e-02 9.230101853609085083e-02
2.675176970660686493e-02 2.765456140041351318e-01 1.300592422485351562e-01
1.951000839471817017e-01 2.765456140041351318e-01 1.848946511745452881e-02
