1.189720854163169861e-01 1.760122328996658325e-01 9.991385042667388916e-02
-2.548572421073913574e-01 -1.593409478664398193e-01 -1.628437340259552002e-01
4.090403914451599121e-01 1.448563933372497559e-01 7.540918886661529541e-02
-1.841361075639724731e-02 -1.593409478664398193e-01 4.992712754756212234e-03
4.408074915409088135e-01 -6.558920145034790039e-01 -5.160561297088861465e-03
2.923625111579895020e-01 1.998358368873596191e-01 6.314488500356674194e-02
-5.894413590431213379e-02 -8.895719051361083984e-01 6.544537842273712158e-02
2.112818956375122070e-01 2.191741168498992920e-01 6.044751405715942383e-02
-2.584291398525238037e-01 8.595652580261230469e-01 -8.183307945728302002e-03
4.408074915409088135e-01 -5.266945958137512207e-01 -1.056178361177444458e-01
5.746849626302719116e-02 8.747393488883972168e-01 -1.890047043561935425e-01
-3.967605158686637878e-02 8.747393488883972168e-01 1.131871528923511505e-02
-7.322782278060913086e-02 -5.947400331497192383e-01 7.540918886661529541e-02
-1.268942803144454956e-01 5.824562907218933105e-01 -1.190378237515687943e-02
4.408074915409088135e-01 8.310977816581726074e-01 -4.439189285039901733e-02
-4.261745214462280273e-01 -3.669934272766113281e-01 -7.273088395595550537e-02
3.284573853015899658e-01 1.998358368873596191e-01 -1.051924377679824829e-01
4.031231403350830078e-01 -4.787701666355133057e-01 -2.775111468508839607e-03
4.818526282906532288e-02 -8.467839360237121582e-01 9.991385042667388916e-02
4.163995683193206787e-01 -3.896164298057556152e-01 7.540918886661529541e-02
3.940071910619735718e-02 6.286914944648742676e-01 7.540918886661529541e-02
-2.090635895729064941e-02 5.635408163070678711e-01 2.158865518867969513e-02
-3.895451724529266357e-01 5.323011800646781921e-02 7.540918886661529541e-02
3.199165463447570801e-01 -3.405741602182388306e-02 7.540918886661529541e-02
1.764130312949419022e-03 8.747393488883972168e-01 -1.098972335457801819e-01
4.408074915409088135e-01 -7.227189093828201294e-02 -1.868497878313064575e-01
2.653601206839084625e-02 5.824562907218933105e-01 -1.625994145870208740e-01
-4.058809280395507812e-01 1.868854761123657227e-01 7.540918886661529541e-02
3.295223712921142578e-01 -4.787701666355133057e-01 -1.111830305308103561e-02
-4.261745214462280273e-01 -1.440622378140687943e-02 4.012800008058547974e-02
1.521541923284530640e-01 -6.801194548606872559e-01 7.540918886661529541e-02
-4.261745214462280273e-01 1.303603947162628174e-01 -6.001037359237670898e-02
-1.830035299062728882e-01 1.300243586301803589e-01 7.540918886661529541e-02
-1.503878235816955566e-01 -1.593409478664398193e-01 1.803949475288391113e-02
2.656540870666503906e-01 -3.819082379341125488e-01 7.540918886661529541e-02
-4.029113352298736572e-01 6.475022435188293457e-01 7.540918886661529541e-02
-3.284111320972442627e-01 -1.593409478664398193e-01 5.725355446338653564e-02
2.651036381721496582e-01 -3.012335002422332764e-01 9.991385042667388916e-02
2.018984556198120117e-01 5.904746055603027344e-01 9.991385042667388916e-02
-4.981314763426780701e-03 -7.062924504280090332e-01 9.991385042667388916e-02
-3.969641625881195068e-01 -1.593409478664398193e-01 -1.248440369963645935e-01
8.902920037508010864e-02 -1.361106634140014648e-01 -1.533018797636032104e-02
1.367687284946441650e-01 2.191741168498992920e-01 5.694427061825990677e-03
4.408074915409088135e-01 -5.778378844261169434e-01 -1.811269968748092651e-01
-4.261745214462280273e-01 5.007714033126831055e-01 -1.931449919939041138e-01
3.397055566310882568e-01 -4.787701666355133057e-01 -1.797528862953186035e-01
5.184879526495933533e-02 4.457759857177734375e-01 7.540918886661529541e-02
2.653499543666839600e-01 1.152860447764396667e-01 9.991385042667388916e-02
2.686585783958435059e-01 3.335494995117187500e-01 9.991385042667388916e-02
1.316571980714797974e-01 8.366191387176513672e-01 7.540918886661529541e-02
-1.483017206192016602e-01 -7.708427906036376953e-01 9.991385042667388916e-02
4.256984964013099670e-02 8.157841116189956665e-02 9.991385042667388916e-02
-3.393212556838989258e-01 2.199978381395339966e-02 7.540918886661529541e-02
-2.486916780471801758e-01 2.637918889522552490e-01 9.991385042667388916e-02
-1.141493394970893860e-01 4.357623308897018433e-02 7.540918886661529541e-02
-1.468827277421951294e-01 -4.981374144554138184e-01 -1.941381841897964478e-01
-4.724333807826042175e-02 -3.026225566864013672e-01 7.540918886661529541e-02
1.495027095079421997e-01 2.578637003898620605e-02 9.991385042667388916e-02
3.081817328929901123e-01 -4.669795632362365723e-01 9.991385042667388916e-02
4.408074915409088135e-01 -4.116421043872833252e-01 4.042097926139831543e-02
-1.396689098328351974e-02 5.635408163070678711e-01 -1.015893369913101196e-01
3.791320323944091797e-01 4.010325968265533447e-01 7.540918886661529541e-02
2.496952414512634277e-01 -6.154754161834716797e-01 7.540918886661529541e-02
-4.413475990295410156e-01 -1.427541300654411316e-02 -1.810571849346160889e-01
3.217124640941619873e-01 3.797358274459838867e-01 9.991385042667388916e-02
4.408074915409088135e-01 1.543235927820205688e-01 -5.654162727296352386e-03
-4.261745214462280273e-01 -4.499467313289642334e-01 -6.010755430907011032e-03
-2.271635830402374268e-01 8.747393488883972168e-01 -7.738701254129409790e-02
4.256344437599182129e-01 3.724005818367004395e-01 7.193700969219207764e-02
-4.003635644912719727e-01 2.415388524532318115e-01 7.540918886661529541e-02
-2.081872820854187012e-01 8.595652580261230469e-01 4.047402366995811462e-02
8.098217099905014038e-02 1.050789281725883484e-01 9.991385042667388916e-02
2.348801493644714355e-01 1.998358368873596191e-01 -1.303634345531463623e-01
2.296948134899139404e-01 -7.036489248275756836e-01 7.540918886661529541e-02
-8.178481459617614746e-02 -4.440604150295257568e-01 7.540918886661529541e-02
2.182043194770812988e-01 -8.597313165664672852e-01 9.991385042667388916e-02
1.277203261852264404e-01 4.830993711948394775e-01 9.991385042667388916e-02
4.232212603092193604e-01 2.191741168498992920e-01 -1.485842186957597733e-02
1.082155182957649231e-01 5.613420009613037109e-01 9.991385042667388916e-02
-4.413475990295410156e-01 -7.128997445106506348e-01 -5.330900102853775024e-02
-4.261745214462280273e-01 6.690522432327270508e-01 -1.370486021041870117e-01
2.781965732574462891e-01 7.678079009056091309e-01 7.540918886661529541e-02
-4.413475990295410156e-01 -5.858442187309265137e-01 4.409059509634971619e-02
-3.685655295848846436e-01 -7.613257169723510742e-01 9.991385042667388916e-02
-1.377894580364227295e-01 -6.382419466972351074e-01 7.540918886661529541e-02
-3.549949228763580322e-01 -8.895719051361083984e-01 7.361824810504913330e-02
4.256344437599182129e-01 -1.117386296391487122e-01 -1.802783906459808350e-01
-1.716516464948654175e-01 4.689314663410186768e-01 7.540918886661529541e-02
-4.413475990295410156e-01 -4.755253791809082031e-01 -1.474841833114624023e-01
2.840958833694458008e-01 -5.554222464561462402e-01 7.540918886661529541e-02
1.378227472305297852e-01 -8.550475537776947021e-02 7.540918886661529541e-02
-6.404151767492294312e-02 -8.895719051361083984e-01 -2.904239110648632050e-02
3.399668335914611816e-01 5.824562907218933105e-01 -1.601503491401672363e-01
-3.235578835010528564e-01 -5.921693444252014160e-01 9.991385042667388916e-02
-4.373419582843780518e-01 8.747393488883972168e-01 1.324985176324844360e-02
2.319863289594650269e-01 5.044978857040405273e-02 9.991385042667388916e-02
-3.443769514560699463e-01 -4.369874000549316406e-01 9.991385042667388916e-02
1.992270052433013916e-01 5.635408163070678711e-01 -1.334859430789947510e-02
-4.018812477588653564e-01 2.191741168498992920e-01 -1.553020626306533813e-01
2.119141221046447754e-01 5.635408163070678711e-01 6.304116547107696533e-02
-4.413475990295410156e-01 -8.119445443153381348e-01 9.890371561050415039e-02
4.398910999298095703e-01 1.396959871053695679e-01 9.991385042667388916e-02
-3.407103121280670166e-01 8.595652580261230469e-01 -1.011135242879390717e-02
-4.413475990295410156e-01 -5.588545799255371094e-01 -1.386778950691223145e-01
-3.494625687599182129e-01 8.747393488883972168e-01 -7.629390060901641846e-02
-2.002557218074798584e-01 5.836778283119201660e-01 7.540918886661529541e-02
-2.317037433385848999e-01 1.852999627590179443e-01 7.540918886661529541e-02
-2.426697164773941040e-01 -6.337705850601196289e-01 9.991385042667388916e-02
-4.559700191020965576e-02 8.747393488883972168e-01 -8.838928490877151489e-02
-3.293773829936981201e-01 1.998358368873596191e-01 -1.716348528861999512e-01
-3.130775094032287598e-01 -8.895719051361083984e-01 -1.358999460935592651e-01
-4.413475990295410156e-01 9.529560059309005737e-02 5.119907855987548828e-02
2.680841982364654541e-01 1.998358368873596191e-01 -7.142817229032516479e-02
3.624930679798126221e-01 -1.593409478664398193e-01 -1.739313453435897827e-01
4.408074915409088135e-01 -3.858321607112884521e-01 -1.023194715380668640e-01
-1.755845099687576294e-01 3.059834837913513184e-01 7.540918886661529541e-02
4.408074915409088135e-01 4.993484616279602051e-01 -1.932137906551361084e-01
-4.261745214462280273e-01 -1.089225932955741882e-01 4.624254535883665085e-03
-3.977539539337158203e-01 -6.401625275611877441e-01 9.991385042667388916e-02
1.930205821990966797e-01 4.565584659576416016e-01 9.991385042667388916e-02
2.743305265903472900e-01 -1.997885107994079590e-01 9.991385042667388916e-02
2.578661143779754639e-01 5.635408163070678711e-01 -8.028880506753921509e-02
-4.180395305156707764e-01 -2.745101153850555420e-01 9.991385042667388916e-02
-3.392624258995056152e-01 -8.743988275527954102e-01 -1.630252152681350708e-01
1.835116930305957794e-02 4.247444570064544678e-01 9.991385042667388916e-02
4.256344437599182129e-01 3.205762431025505066e-02 -5.154910311102867126e-02
5.781402066349983215e-02 5.310736894607543945e-01 7.540918886661529541e-02
-1.008050963282585144e-01 5.910570025444030762e-01 7.540918886661529541e-02
-2.511985898017883301e-01 -4.787701666355133057e-01 5.790071934461593628e-02
-1.284229606389999390e-01 -4.818813800811767578e-01 9.991385042667388916e-02
-1.319051086902618408e-01 5.627869963645935059e-01 7.540918886661529541e-02
-4.413475990295410156e-01 5.863103866577148438e-01 2.855205535888671875e-02
1.661496013402938843e-01 -7.501533627510070801e-01 9.991385042667388916e-02
-2.523573040962219238e-01 1.998358368873596191e-01 -6.691373884677886963e-02
-3.235359191894531250e-01 -6.288016438484191895e-01 7.540918886661529541e-02
2.660360038280487061e-01 8.747393488883972168e-01 9.958977252244949341e-02
3.430271446704864502e-01 -2.560064494609832764e-01 7.540918886661529541e-02
-2.401787638664245605e-01 4.975614845752716064e-01 7.540918886661529541e-02
-1.426048278808593750e-01 1.099910289049148560e-01 7.540918886661529541e-02
-7.731176912784576416e-02 6.815768480300903320e-01 9.991385042667388916e-02
-7.458458095788955688e-02 1.998358368873596191e-01 -9.287089854478836060e-02
4.256344437599182129e-01 3.503350168466567993e-02 -1.933972686529159546e-01
3.650259375572204590e-01 -8.743988275527954102e-01 -1.708450764417648315e-01
4.256344437599182129e-01 -2.740354537963867188e-01 -3.533389046788215637e-02
-4.261745214462280273e-01 3.874888718128204346e-01 -7.669263519346714020e-03
-4.261745214462280273e-01 6.727368831634521484e-01 -1.052821874618530273e-01
-2.399524152278900146e-01 1.998358368873596191e-01 -1.517569413408637047e-03
1.538184881210327148e-01 -3.321669697761535645e-01 7.540918886661529541e-02
-2.397120743989944458e-01 2.191741168498992920e-01 -1.872686147689819336e-01
-2.521718442440032959e-01 3.468728065490722656e-01 9.991385042667388916e-02
6.857527047395706177e-02 -7.853527665138244629e-01 9.991385042667388916e-02
4.187469184398651123e-01 -1.361106634140014648e-01 3.541643545031547546e-02
2.561322227120399475e-02 -1.361106634140014648e-01 4.245023801922798157e-02
4.133372306823730469e-01 5.824562907218933105e-01 -4.993810132145881653e-02
2.262774854898452759e-01 8.595652580261230469e-01 -1.622174978256225586e-01
-1.674375683069229126e-01 7.398470491170883179e-02 7.540918886661529541e-02
-1.870141774415969849e-01 3.895221352577209473e-01 9.991385042667388916e-02
-4.401719272136688232e-01 -6.770062446594238281e-02 9.991385042667388916e-02
-4.020129144191741943e-01 -1.361106634140014648e-01 -4.903401806950569153e-02
3.927783966064453125e-01 8.747393488883972168e-01 5.894974991679191589e-02
3.678748607635498047e-01 5.635408163070678711e-01 5.314019322395324707e-02
7.506391406059265137e-02 -5.043049454689025879e-01 9.991385042667388916e-02
-2.427833974361419678e-01 6.000644713640213013e-02 9.991385042667388916e-02
-3.391547203063964844e-01 5.635408163070678711e-01 -2.148916013538837433e-02
4.256344437599182129e-01 3.503968417644500732e-01 -1.615094989538192749e-01
1.872887909412384033e-01 -4.670354127883911133e-01 9.991385042667388916e-02
-8.352718502283096313e-02 2.851913273334503174e-01 9.991385042667388916e-02
3.388390243053436279e-01 5.635408163070678711e-01 -2.179300226271152496e-02
4.408074915409088135e-01 5.137755870819091797e-01 5.383223295211791992e-02
4.408074915409088135e-01 6.938361525535583496e-01 -2.129979804158210754e-02
6.692235171794891357e-02 -3.146694228053092957e-02 7.540918886661529541e-02
4.256344437599182129e-01 -8.509930372238159180e-01 -1.563371419906616211e-01
1.192104145884513855e-01 8.723810315132141113e-02 7.540918886661529541e-02
3.205547630786895752e-01 -8.743988275527954102e-01 1.332563627511262894e-02
7.761092390865087509e-03 8.595652580261230469e-01 5.913124233484268188e-02
-4.011094272136688232e-01 4.817242622375488281e-01 9.991385042667388916e-02
-2.675652801990509033e-01 -5.040945410728454590e-01 -4.557038843631744385e-02
-9.704962372779846191e-02 -1.593409478664398193e-01 -1.467069685459136963e-01
-2.180992364883422852e-01 -3.075217008590698242e-01 9.991385042667388916e-02
4.310373961925506592e-02 4.732562601566314697e-02 7.540918886661529541e-02
3.547190725803375244e-01 1.236882731318473816e-01 9.991385042667388916e-02
4.046777486801147461e-01 1.998358368873596191e-01 6.396654993295669556e-02
-2.533255517482757568e-01 6.533706784248352051e-01 7.540918886661529541e-02
-3.518438339233398438e-01 -5.040945410728454590e-01 2.886527031660079956e-02
1.376355066895484924e-02 -4.787701666355133057e-01 2.084835246205329895e-02
-4.413475990295410156e-01 4.621406793594360352e-01 -1.893397569656372070e-01
3.613044321537017822e-01 -1.361106634140014648e-01 1.483825780451297760e-02
1.450754608958959579e-02 5.272195935249328613e-01 7.540918886661529541e-02
3.057875335216522217e-01 -1.314458698034286499e-01 7.540918886661529541e-02
-1.403173059225082397e-01 8.747393488883972168e-01 -1.153261661529541016e-01
-2.442412674427032471e-01 7.633135914802551270e-01 9.991385042667388916e-02
4.905869066715240479e-02 -1.361106634140014648e-01 -4.491620883345603943e-02
-3.096980750560760498e-01 -1.593409478664398193e-01 -1.415689140558242798e-01
-4.046514332294464111e-01 5.824562907218933105e-01 -1.879147887229919434e-01
-4.869672656059265137e-02 -5.385230854153633118e-02 9.991385042667388916e-02
-6.192190945148468018e-02 8.001563549041748047e-01 9.991385042667388916e-02
5.071729794144630432e-02 -5.040945410728454590e-01 -9.826902300119400024e-02
2.522011399269104004e-01 8.595652580261230469e-01 5.063816905021667480e-02
4.408074915409088135e-01 -4.947928488254547119e-01 -1.570900082588195801e-01
4.035289883613586426e-01 -2.375516109168529510e-02 7.540918886661529541e-02
-4.061202704906463623e-01 8.261458277702331543e-01 7.540918886661529541e-02
4.529473930597305298e-02 -3.841728270053863525e-01 9.991385042667388916e-02
6.982982903718948364e-02 -1.593409478664398193e-01 -1.393313556909561157e-01
2.224094271659851074e-01 4.086948931217193604e-01 7.540918886661529541e-02
-3.960946202278137207e-01 -5.397057533264160156e-01 7.540918886661529541e-02
2.043166160583496094e-01 6.349577903747558594e-01 7.540918886661529541e-02
1.095278039574623108e-01 -5.040945410728454590e-01 -3.294541733339428902e-03
-2.721064090728759766e-01 -6.915291547775268555e-01 9.991385042667388916e-02
4.408074915409088135e-01 -7.271673530340194702e-02 6.930345296859741211e-02
-4.261745214462280273e-01 6.049217656254768372e-02 -1.249540969729423523e-02
3.054165840148925781e-01 8.778784424066543579e-02 7.540918886661529541e-02
4.408074915409088135e-01 4.498215317726135254e-01 1.140114269219338894e-03
-2.984130084514617920e-01 5.264716744422912598e-01 7.540918886661529541e-02
4.408074915409088135e-01 5.043034255504608154e-02 -9.734863042831420898e-02
-3.494356572628021240e-01 5.401938557624816895e-01 7.540918886661529541e-02
3.783980607986450195e-01 -8.591250181198120117e-01 9.991385042667388916e-02
1.357735395431518555e-01 5.635408163070678711e-01 2.882867306470870972e-02
-1.614769571460783482e-03 7.693614959716796875e-01 9.991385042667388916e-02
2.846094369888305664e-01 -8.159142732620239258e-02 7.540918886661529541e-02
5.810928344726562500e-02 5.824562907218933105e-01 4.748129844665527344e-02
3.718166947364807129e-01 -7.692452669143676758e-01 7.540918886661529541e-02
-2.966579496860504150e-01 -5.040945410728454590e-01 6.231423467397689819e-02
-3.743890523910522461e-01 5.635408163070678711e-01 -1.088722199201583862e-01
3.462390601634979248e-01 8.595652580261230469e-01 -1.443526416551321745e-04
-4.225258529186248779e-01 6.214878559112548828e-01 9.991385042667388916e-02
-1.503748446702957153e-01 5.635408163070678711e-01 -3.932316601276397705e-02
4.408074915409088135e-01 -8.500108122825622559e-01 -1.054392755031585693e-02
-4.413475990295410156e-01 8.068304508924484253e-02 -9.422426670789718628e-02
1.226636394858360291e-01 8.595652580261230469e-01 3.891045227646827698e-02
1.071515306830406189e-01 -8.009526133537292480e-01 7.540918886661529541e-02
3.461552858352661133e-01 3.211137056350708008e-01 9.991385042667388916e-02
-4.261745214462280273e-01 7.992150187492370605e-01 -1.691299378871917725e-01
4.408074915409088135e-01 5.863432884216308594e-01 6.465574551839381456e-05
-2.883036136627197266e-01 -8.702774643898010254e-01 9.991385042667388916e-02
2.711228094995021820e-02 -7.091214060783386230e-01 7.540918886661529541e-02
2.960570752620697021e-01 2.929953113198280334e-02 9.991385042667388916e-02
-4.261745214462280273e-01 -4.193134009838104248e-01 -7.758684456348419189e-02
4.408074915409088135e-01 5.637292861938476562e-01 -8.152181655168533325e-02
6.059532752260565758e-04 -1.593409478664398193e-01 -4.942752420902252197e-02
-4.261745214462280273e-01 -6.657949835062026978e-02 -1.195365563035011292e-01
-4.261745214462280273e-01 3.578357994556427002e-01 5.592929199337959290e-02
-4.413475990295410156e-01 -6.645764708518981934e-01 -3.923901915550231934e-02
3.756009936332702637e-01 5.635408163070678711e-01 -8.916219323873519897e-02
-3.493339419364929199e-01 -6.608121395111083984e-01 9.991385042667388916e-02
3.845237493515014648e-01 -4.787701666355133057e-01 3.765669837594032288e-02
2.933546900749206543e-01 -4.787701666355133057e-01 1.612591557204723358e-02
3.900999724864959717e-01 -5.554192662239074707e-01 7.540918886661529541e-02
-2.660742774605751038e-02 5.428922176361083984e-01 9.991385042667388916e-02
-4.413475990295410156e-01 -7.450767159461975098e-01 5.011384934186935425e-02
-3.000334203243255615e-01 -1.593409478664398193e-01 -1.017935946583747864e-02
3.986827135086059570e-01 -1.751103252172470093e-01 9.991385042667388916e-02
4.408074915409088135e-01 7.467454671859741211e-01 8.069224655628204346e-02
-3.657385110855102539e-01 -1.015895456075668335e-01 7.540918886661529541e-02
-1.583712249994277954e-01 8.747393488883972168e-01 6.061304360628128052e-02
-3.647234141826629639e-01 7.610160708427429199e-01 9.991385042667388916e-02
-1.892129629850387573e-01 2.191741168498992920e-01 -1.071704402565956116e-01
-4.555252194404602051e-02 -5.040945410728454590e-01 -4.987261444330215454e-02
-2.718551456928253174e-01 1.998358368873596191e-01 7.013212144374847412e-02
-3.608752787113189697e-01 -1.593409478664398193e-01 -7.066612690687179565e-02
4.256344437599182129e-01 -2.466409504413604736e-01 -6.441839784383773804e-02
-3.642247915267944336e-01 2.162095159292221069e-01 9.991385042667388916e-02
1.749666631221771240e-01 8.413707613945007324e-01 7.540918886661529541e-02
3.571811318397521973e-01 1.916769146919250488e-01 7.540918886661529541e-02
2.253301590681076050e-01 -4.550243914127349854e-01 9.991385042667388916e-02
-4.413475990295410156e-01 2.509482204914093018e-01 5.653657764196395874e-02
3.795044496655464172e-03 -5.040945410728454590e-01 -1.478182375431060791e-01
-3.097170293331146240e-01 3.860040903091430664e-01 7.540918886661529541e-02
4.072155654430389404e-01 -4.185605645179748535e-01 7.540918886661529541e-02
-1.127682477235794067e-01 3.680807948112487793e-01 7.540918886661529541e-02
1.716241091489791870e-01 -1.593409478664398193e-01 5.634412169456481934e-02
4.256344437599182129e-01 3.846808373928070068e-01 -1.072319671511650085e-01
4.408074915409088135e-01 5.326781272888183594e-01 8.881626278162002563e-02
3.103336691856384277e-01 -6.424849629402160645e-01 7.540918886661529541e-02
1.460524648427963257e-01 -5.040945410728454590e-01 4.610120505094528198e-02
-4.261745214462280273e-01 7.278589010238647461e-01 -1.587672680616378784e-01
7.997392117977142334e-02 -1.593409478664398193e-01 1.956278644502162933e-02
7.028184086084365845e-02 -4.787701666355133057e-01 5.797450989484786987e-02
-1.186875030398368835e-01 -5.210455656051635742e-01 9.991385042667388916e-02
-2.651700675487518311e-01 1.998358368873596191e-01 -1.526326090097427368e-01
-7.297543436288833618e-02 2.191741168498992920e-01 4.201850853860378265e-03
5.361380428075790405e-02 8.595652580261230469e-01 1.845482364296913147e-02
-4.413475990295410156e-01 6.090420484542846680e-01 -4.701407998800277710e-02
2.452707439661026001e-01 1.998358368873596191e-01 5.477356538176536560e-02
4.408074915409088135e-01 7.132871747016906738e-01 -7.522601634263992310e-02
8.923262357711791992e-02 8.595652580261230469e-01 -8.505012840032577515e-02
-3.736895276233553886e-03 -2.991613745689392090e-01 9.991385042667388916e-02
2.727988660335540771e-01 5.824562907218933105e-01 4.763317108154296875e-02
4.256344437599182129e-01 7.546421140432357788e-02 4.094868525862693787e-02
-4.649037122726440430e-02 3.419277966022491455e-01 7.540918886661529541e-02
-4.182210266590118408e-01 5.824562907218933105e-01 -1.265559941530227661e-01
2.574642300605773926e-01 -5.706312656402587891e-01 9.991385042667388916e-02
-3.798086941242218018e-01 -8.895719051361083984e-01 -1.407669782638549805e-01
-1.484493017196655273e-01 1.641827449202537537e-02 7.540918886661529541e-02
-9.343425184488296509e-02 2.148732990026473999e-01 -1.941381841897964478e-01
4.256344437599182129e-01 4.520362615585327148e-01 -5.109617486596107483e-02
4.383517056703567505e-02 -5.040945410728454590e-01 -3.041430935263633728e-02
-3.571827411651611328e-01 8.747393488883972168e-01 7.216236740350723267e-02
2.435925006866455078e-01 -8.743988275527954102e-01 -4.762388765811920166e-03
-1.114278193563222885e-02 1.836496293544769287e-01 9.991385042667388916e-02
1.410296708345413208e-01 -8.895719051361083984e-01 5.760953947901725769e-02
1.695190668106079102e-01 6.975516676902770996e-01 9.991385042667388916e-02
-4.125441014766693115e-01 7.120147347450256348e-01 7.540918886661529541e-02
6.882856041193008423e-02 -2.888525128364562988e-01 9.991385042667388916e-02
4.256344437599182129e-01 5.544874668121337891e-01 -1.458938866853713989e-01
-8.370986580848693848e-02 5.635408163070678711e-01 -1.553389579057693481e-01
6.777822971343994141e-02 3.720186650753021240e-01 7.540918886661529541e-02
-3.683379292488098145e-02 -8.178637623786926270e-01 7.540918886661529541e-02
-1.677855849266052246e-01 5.635408163070678711e-01 -1.161283925175666809e-01
4.408074915409088135e-01 -8.476135730743408203e-01 -6.016184389591217041e-02
4.072793722152709961e-01 -5.969896912574768066e-01 7.540918886661529541e-02
4.256344437599182129e-01 4.484643936157226562e-01 -1.768271476030349731e-01
-2.011601626873016357e-01 -5.418137907981872559e-01 7.540918886661529541e-02
2.293627411127090454e-01 -1.361106634140014648e-01 5.487727373838424683e-02
-4.333572089672088623e-01 -4.497832059860229492e-01 9.991385042667388916e-02
2.288492023944854736e-01 -1.361106634140014648e-01 -7.064339518547058105e-02
-1.167828887701034546e-01 -2.190200835466384888e-01 9.991385042667388916e-02
-1.975730992853641510e-02 -8.895719051361083984e-01 8.445060253143310547e-02
-4.413475990295410156e-01 2.656346559524536133e-01 -3.527026996016502380e-02
-2.710773348808288574e-01 -8.083516359329223633e-01 9.991385042667388916e-02
3.897240459918975830e-01 6.247865557670593262e-01 9.991385042667388916e-02
-1.122656762599945068e-01 -8.194024115800857544e-02 9.991385042667388916e-02
-4.413475990295410156e-01 7.622486352920532227e-01 1.522805355489253998e-02
-2.812086641788482666e-01 -1.305952817201614380e-01 7.540918886661529541e-02
9.950615465641021729e-02 1.236663851886987686e-02 9.991385042667388916e-02
-8.836579322814941406e-02 -8.743988275527954102e-01 -1.651691496372222900e-01
-3.560249805450439453e-01 -1.743853688240051270e-01 9.991385042667388916e-02
4.408074915409088135e-01 -7.769634723663330078e-01 -1.134452992118895054e-03
-4.413475990295410156e-01 -3.948745429515838623e-01 2.090259455144405365e-02
2.783152461051940918e-01 -7.082378864288330078e-01 7.540918886661529541e-02
1.124635040760040283e-01 -8.743988275527954102e-01 -8.902617543935775757e-02
-3.625126481056213379e-01 1.116074547171592712e-01 9.991385042667388916e-02
1.876338273286819458e-01 3.810600936412811279e-01 7.540918886661529541e-02
1.485364288091659546e-01 -8.895719051361083984e-01 -1.651212871074676514e-01
3.134987056255340576e-01 5.163816735148429871e-03 7.540918886661529541e-02
-4.261745214462280273e-01 3.292058110237121582e-01 -8.328162878751754761e-02
4.246372580528259277e-01 -4.596752226352691650e-01 9.991385042667388916e-02
4.408074915409088135e-01 2.124331891536712646e-01 -1.792163997888565063e-01
3.756757974624633789e-01 7.932897806167602539e-01 9.991385042667388916e-02
3.770807981491088867e-01 -4.787701666355133057e-01 -1.550298333168029785e-01
4.256344437599182129e-01 -4.389657974243164062e-01 -3.995806723833084106e-02
-1.507398188114166260e-01 5.780627727508544922e-01 -1.941381841897964478e-01
-4.387237504124641418e-02 3.801546394824981689e-01 9.991385042667388916e-02
-2.689842879772186279e-01 -8.838630318641662598e-01 -1.941381841897964478e-01
4.081349372863769531e-01 -8.743988275527954102e-01 -2.263841032981872559e-02
2.290486395359039307e-01 -4.787701666355133057e-01 5.799345672130584717e-02
-4.261745214462280273e-01 4.208863973617553711e-01 -1.435477137565612793e-01
-4.011941850185394287e-01 7.434238791465759277e-01 9.991385042667388916e-02
-7.192829996347427368e-02 -1.593409478664398193e-01 3.035495802760124207e-02
-4.261745214462280273e-01 -2.933836877346038818e-01 -8.831010758876800537e-02
6.173843517899513245e-03 -3.376454710960388184e-01 7.540918886661529541e-02
4.334044456481933594e-01 -1.524584144353866577e-01 -1.941381841897964478e-01
1.113446652889251709e-01 -2.465482056140899658e-01 7.540918886661529541e-02
2.650707066059112549e-01 -4.787701666355133057e-01 -1.789471656084060669e-01
3.550025075674057007e-02 -4.616097509860992432e-01 7.540918886661529541e-02
1.335390936583280563e-02 7.830786705017089844e-02 7.540918886661529541e-02
1.000984832644462585e-01 -5.040945410728454590e-01 -1.394837200641632080e-01
2.645952999591827393e-02 1.998358368873596191e-01 3.009927645325660706e-02
-1.599457710981369019e-01 2.191741168498992920e-01 5.625637248158454895e-02
-3.148963749408721924e-01 1.998358368873596191e-01 -3.555746003985404968e-02
-3.516284525394439697e-01 5.009847879409790039e-01 7.540918886661529541e-02
4.408074915409088135e-01 2.658819556236267090e-01 -1.324498057365417480e-01
4.408074915409088135e-01 2.431762069463729858e-01 1.387717761099338531e-02
-3.273700773715972900e-01 -4.762343466281890869e-01 9.991385042667388916e-02
-2.313447594642639160e-01 -1.593409478664398193e-01 5.452427268028259277e-02
-4.201864600181579590e-01 -1.361106634140014648e-01 -1.769208908081054688e-01
-9.399337321519851685e-02 2.191741168498992920e-01 -6.632919609546661377e-02
-2.811488509178161621e-01 -1.950519084930419922e-01 7.540918886661529541e-02
-4.261745214462280273e-01 7.869018316268920898e-01 -5.390550568699836731e-02
-2.913051247596740723e-01 -8.895719051361083984e-01 -1.792813837528228760e-02
-1.325293332338333130e-01 -5.672228932380676270e-01 9.991385042667388916e-02
-1.374773383140563965e-01 6.780338883399963379e-01 9.991385042667388916e-02
3.483810126781463623e-01 5.854299068450927734e-01 9.991385042667388916e-02
7.304512709379196167e-02 -8.895719051361083984e-01 -2.604194451123476028e-03
-3.451677262783050537e-01 -3.594408035278320312e-01 7.540918886661529541e-02
4.408074915409088135e-01 6.203909516334533691e-01 8.620463311672210693e-02
-1.138140633702278137e-02 -4.787701666355133057e-01 -1.718312948942184448e-01
3.720662370324134827e-02 -1.005291491746902466e-01 7.540918886661529541e-02
-1.528159528970718384e-01 7.793891429901123047e-01 9.991385042667388916e-02
-1.395794004201889038e-01 1.998358368873596191e-01 -8.992019109427928925e-03
4.256344437599182129e-01 -7.846218347549438477e-01 -1.081549599766731262e-01
4.196663498878479004e-01 5.824562907218933105e-01 -1.794746667146682739e-01
1.691341549158096313e-01 -8.639144897460937500e-01 9.991385042667388916e-02
3.830558955669403076e-01 4.619671702384948730e-01 7.540918886661529541e-02
4.408074915409088135e-01 1.215353682637214661e-01 -7.912798225879669189e-02
4.256344437599182129e-01 -8.774730563163757324e-02 -3.873958438634872437e-02
4.134857952594757080e-01 -8.493436574935913086e-01 7.540918886661529541e-02
4.408074915409088135e-01 7.940087318420410156e-01 -6.285632401704788208e-02
5.585217103362083435e-02 4.743162095546722412e-01 9.991385042667388916e-02
-4.413475990295410156e-01 -3.832793533802032471e-01 -1.563181877136230469e-01
1.668775528669357300e-01 1.800647825002670288e-01 7.540918886661529541e-02
-2.799602150917053223e-01 1.998358368873596191e-01 -1.087232455611228943e-01
-2.087676376104354858e-01 8.227185010910034180e-01 7.540918886661529541e-02
4.408074915409088135e-01 -3.685051202774047852e-02 1.663556881248950958e-02
-4.096502661705017090e-01 -5.040945410728454590e-01 -8.912350237369537354e-02
2.110216468572616577e-01 2.191741168498992920e-01 2.200418338179588318e-02
3.429434001445770264e-01 -1.361106634140014648e-01 -8.885087072849273682e-02
-4.341529309749603271e-01 7.766857147216796875e-01 9.991385042667388916e-02
-1.167370229959487915e-01 4.675852656364440918e-01 9.991385042667388916e-02
-2.279722988605499268e-01 -5.040945410728454590e-01 -8.855720609426498413e-02
3.480828404426574707e-01 2.191741168498992920e-01 -1.297570466995239258e-01
-4.413475990295410156e-01 6.651573181152343750e-01 -3.242512047290802002e-02
7.695448584854602814e-03 1.202749237418174744e-01 7.540918886661529541e-02
2.200421243906021118e-01 -1.059823185205459595e-01 7.540918886661529541e-02
-4.261745214462280273e-01 -7.753829360008239746e-01 -1.257131844758987427e-01
3.107885830104351044e-02 -1.593409478664398193e-01 -8.994138985872268677e-02
-1.893007159233093262e-01 -2.595833241939544678e-01 9.991385042667388916e-02
1.763647049665451050e-01 -2.938823103904724121e-01 7.540918886661529541e-02
3.943210542201995850e-01 5.785962343215942383e-01 9.991385042667388916e-02
-4.261745214462280273e-01 -6.088261604309082031e-01 -8.038602769374847412e-02
-4.261745214462280273e-01 -5.122893452644348145e-01 3.029582463204860687e-02
2.990755140781402588e-01 8.595652580261230469e-01 -5.339724197983741760e-02
-5.058299377560615540e-02 5.635408163070678711e-01 -5.164807289838790894e-02
4.256344437599182129e-01 7.285460084676742554e-02 -1.635766476392745972e-01
3.499356210231781006e-01 -5.237608551979064941e-01 7.540918886661529541e-02
2.281821072101593018e-01 -7.741943597793579102e-01 7.540918886661529541e-02
1.601126790046691895e-01 5.824562907218933105e-01 -8.979799598455429077e-02
1.762141287326812744e-01 -4.353350698947906494e-01 7.540918886661529541e-02
4.090014994144439697e-01 -7.440665960311889648e-01 7.540918886661529541e-02
-1.837952882051467896e-01 -3.546394109725952148e-01 9.991385042667388916e-02
-3.551046252250671387e-01 6.369072198867797852e-01 7.540918886661529541e-02
-4.261745214462280273e-01 2.518037855625152588e-01 -1.207913011312484741e-01
2.147710323333740234e-01 -8.743988275527954102e-01 -1.332438737154006958e-01
-1.280390471220016479e-01 -8.895719051361083984e-01 -7.080543041229248047e-02
4.256344437599182129e-01 -3.816898167133331299e-02 -1.874939799308776855e-01
-7.112237811088562012e-02 4.369140565395355225e-01 9.991385042667388916e-02
1.645082384347915649e-01 -4.787701666355133057e-01 -1.521120816469192505e-01
-4.261745214462280273e-01 8.407834172248840332e-01 -6.402201950550079346e-02
1.532431095838546753e-01 -1.593409478664398193e-01 -1.818889938294887543e-02
1.777001470327377319e-02 -1.520286351442337036e-01 9.991385042667388916e-02
4.408074915409088135e-01 -3.427719771862030029e-01 6.400344520807266235e-02
1.953140795230865479e-01 -5.040945410728454590e-01 -1.645389348268508911e-01
1.561528891324996948e-01 2.678234577178955078e-01 7.540918886661529541e-02
7.565304636955261230e-02 -5.024800896644592285e-01 -1.941381841897964478e-01
3.022206127643585205e-01 -8.016087412834167480e-01 7.540918886661529541e-02
2.704823911190032959e-01 -2.503674030303955078e-01 9.991385042667388916e-02
-2.956438362598419189e-01 7.485094666481018066e-01 7.540918886661529541e-02
-2.569124400615692139e-01 2.379450574517250061e-02 9.991385042667388916e-02
3.226199150085449219e-01 5.824562907218933105e-01 1.166942063719034195e-02
-1.915114521980285645e-01 2.191741168498992920e-01 -5.963742733001708984e-02
4.408074915409088135e-01 -6.122934222221374512e-01 1.641101017594337463e-02
-3.931609392166137695e-01 -6.549915671348571777e-02 7.540918886661529541e-02
1.201597228646278381e-01 5.285508036613464355e-01 7.540918886661529541e-02
3.896093666553497314e-01 -5.040945410728454590e-01 -6.649452447891235352e-02
-4.413475990295410156e-01 3.470403254032135010e-01 -4.195667058229446411e-02
-6.506581604480743408e-02 2.288437634706497192e-01 7.540918886661529541e-02
-3.676869869232177734e-01 -2.980385124683380127e-01 7.540918886661529541e-02
-2.111499011516571045e-01 -8.207565546035766602e-02 7.540918886661529541e-02
3.170287311077117920e-01 7.796772718429565430e-01 7.540918886661529541e-02
2.200520932674407959e-01 8.442496061325073242e-01 7.540918886661529541e-02
-6.555024534463882446e-02 -5.513059496879577637e-01 9.991385042667388916e-02
-3.947584033012390137e-01 8.595652580261230469e-01 -1.391995251178741455e-01
-4.261745214462280273e-01 -8.720115423202514648e-01 -6.922809034585952759e-02
4.053919389843940735e-02 5.635408163070678711e-01 2.106015384197235107e-02
4.408074915409088135e-01 6.341869235038757324e-01 -5.934844911098480225e-02
-2.001181095838546753e-01 4.294930696487426758e-01 9.991385042667388916e-02
-9.358292818069458008e-02 -5.053858757019042969e-01 7.540918886661529541e-02
-3.393960595130920410e-01 -2.429553717374801636e-01 9.991385042667388916e-02
-7.739191874861717224e-03 -5.954231023788452148e-01 7.540918886661529541e-02
-1.681992039084434509e-02 8.747393488883972168e-01 -1.416600644588470459e-01
-3.146251440048217773e-01 -1.593409478664398193e-01 -5.083494260907173157e-02
-4.073338210582733154e-01 -3.622498512268066406e-01 7.540918886661529541e-02
3.703767955303192139e-01 -6.971293687820434570e-01 7.540918886661529541e-02
-1.918534934520721436e-01 5.824562907218933105e-01 -1.609630584716796875e-01
-1.074931770563125610e-01 1.690429449081420898e-01 7.540918886661529541e-02
-3.259221613407135010e-01 5.635408163070678711e-01 -1.523743420839309692e-01
-3.118509650230407715e-01 -2.060856483876705170e-02 9.991385042667388916e-02
2.898595929145812988e-01 -3.948924839496612549e-01 9.991385042667388916e-02
-1.206928342580795288e-01 4.120883047580718994e-01 9.991385042667388916e-02
1.792046725749969482e-01 -5.729526877403259277e-01 9.991385042667388916e-02
-4.261745214462280273e-01 -8.078261613845825195e-01 -1.571947038173675537e-01
-4.358611106872558594e-01 8.747393488883972168e-01 -1.260394603013992310e-01
9.367039427161216736e-03 -5.577267333865165710e-02 9.991385042667388916e-02
2.049049437046051025e-01 -2.588653564453125000e-01 7.540918886661529541e-02
1.616194248199462891e-01 5.635408163070678711e-01 -4.376333951950073242e-02
-2.825239598751068115e-01 -1.197869144380092621e-02 7.540918886661529541e-02
1.019552275538444519e-01 5.824562907218933105e-01 -3.853335604071617126e-02
3.082385957241058350e-01 -3.669605255126953125e-01 7.540918886661529541e-02
9.580104053020477295e-02 -8.377714753150939941e-01 9.991385042667388916e-02
-2.741337120532989502e-01 5.824562907218933105e-01 -1.357433050870895386e-01
4.408074915409088135e-01 8.004884123802185059e-01 9.736690670251846313e-03
-1.513441056013107300e-01 -1.361106634140014648e-01 7.253631204366683960e-02
-1.935187727212905884e-01 6.098498106002807617e-01 9.991385042667388916e-02
-4.201934635639190674e-01 2.981197535991668701e-01 7.540918886661529541e-02
4.408074915409088135e-01 -5.051744580268859863e-01 -7.345931977033615112e-02
2.341621667146682739e-01 -5.261880159378051758e-01 7.540918886661529541e-02
-2.321325391530990601e-01 5.683711767196655273e-01 -1.941381841897964478e-01
-2.223920971155166626e-01 -4.035749435424804688e-01 9.991385042667388916e-02
-4.537183791399002075e-02 4.564976394176483154e-01 7.540918886661529541e-02
2.320673316717147827e-02 -3.003998398780822754e-01 7.540918886661529541e-02
3.807354569435119629e-01 -4.920216798782348633e-01 9.991385042667388916e-02
-4.069140255451202393e-01 1.998358368873596191e-01 -4.029772430658340454e-02
1.047234013676643372e-01 -7.074282169342041016e-01 9.991385042667388916e-02
-2.173284143209457397e-01 -8.743988275527954102e-01 4.326802119612693787e-02
1.591055244207382202e-01 -1.204280089586973190e-02 9.991385042667388916e-02
-3.770345747470855713e-01 -1.361106634140014648e-01 3.193638473749160767e-02
2.212726473808288574e-01 -8.743988275527954102e-01 -1.676501333713531494e-01
-2.976142764091491699e-01 -5.668489933013916016e-01 9.991385042667388916e-02
9.539847820997238159e-02 -2.914551496505737305e-01 7.540918886661529541e-02
6.994003430008888245e-03 3.795872628688812256e-01 9.991385042667388916e-02
3.832224309444427490e-01 2.191741168498992920e-01 -1.055489759892225266e-02
-3.606626391410827637e-02 -4.787701666355133057e-01 -1.132720857858657837e-01
1.171263083815574646e-01 4.023269116878509521e-01 9.991385042667388916e-02
-1.325991451740264893e-01 -8.895719051361083984e-01 -1.595440655946731567e-01
1.927603036165237427e-01 -3.329228460788726807e-01 9.991385042667388916e-02
-3.070834875106811523e-01 3.083627521991729736e-01 9.991385042667388916e-02
-3.942089676856994629e-01 3.879934549331665039e-01 9.991385042667388916e-02
6.406732648611068726e-02 -8.895719051361083984e-01 -1.776647865772247314e-01
4.310132265090942383e-01 2.513530850410461426e-01 -1.941381841897964478e-01
4.408074915409088135e-01 3.715031147003173828e-01 -1.526607014238834381e-02
-3.827763199806213379e-01 5.635408163070678711e-01 -1.530404686927795410e-01
1.280184835195541382e-01 -3.550622165203094482e-01 9.991385042667388916e-02
-2.157309353351593018e-01 -8.743988275527954102e-01 -1.077850982546806335e-01
1.601196676492691040e-01 8.595652580261230469e-01 -7.624644041061401367e-02
-3.499591648578643799e-01 -2.153075933456420898e-01 7.540918886661529541e-02
4.408074915409088135e-01 1.446738988161087036e-01 5.790371447801589966e-02
3.001195788383483887e-01 4.298909306526184082e-01 9.991385042667388916e-02
4.408074915409088135e-01 3.810600936412811279e-01 -1.857100278139114380e-01
-2.361800819635391235e-01 -1.361106634140014648e-01 -1.709523145109415054e-03
4.408074915409088135e-01 4.903927445411682129e-01 1.931737922132015228e-02
-4.563100263476371765e-02 -1.361106634140014648e-01 2.274708077311515808e-02
4.408074915409088135e-01 2.647711038589477539e-01 -6.548019498586654663e-02
2.385467737913131714e-01 8.573086559772491455e-02 9.991385042667388916e-02
3.756259381771087646e-01 -3.101692199707031250e-01 9.991385042667388916e-02
4.408074915409088135e-01 4.456194341182708740e-01 9.286580234766006470e-02
-2.758119702339172363e-01 -4.787701666355133057e-01 -1.413439661264419556e-01
3.989190161228179932e-01 6.642379164695739746e-01 7.540918886661529541e-02
-9.660179167985916138e-02 6.338708102703094482e-02 9.991385042667388916e-02
6.119196116924285889e-02 -6.166929602622985840e-01 9.991385042667388916e-02
-2.192158624529838562e-02 2.191741168498992920e-01 -1.079266071319580078e-01
3.090891838073730469e-01 -1.593409478664398193e-01 -7.788041234016418457e-02
-3.966819941997528076e-01 -8.352355957031250000e-01 9.991385042667388916e-02
5.700979381799697876e-02 -8.895719051361083984e-01 -9.237719327211380005e-02
1.471712887287139893e-01 2.191741168498992920e-01 -1.274705082178115845e-01
-4.261745214462280273e-01 -4.175842553377151489e-02 -1.640592962503433228e-01
1.797730624675750732e-01 3.017055988311767578e-01 7.540918886661529541e-02
4.408074915409088135e-01 7.913622856140136719e-01 8.888107538223266602e-02
-3.060942888259887695e-01 8.595652580261230469e-01 -1.162540391087532043e-01
3.641554117202758789e-01 -5.510526895523071289e-01 9.991385042667388916e-02
-1.576313227415084839e-01 7.316033244132995605e-01 7.540918886661529541e-02
2.866646349430084229e-01 2.191741168498992920e-01 -1.385585367679595947e-01
-4.622891172766685486e-02 -4.420989453792572021e-01 7.540918886661529541e-02
-3.153161704540252686e-01 -4.237797856330871582e-01 7.540918886661529541e-02
-4.378116130828857422e-01 1.052713841199874878e-01 9.991385042667388916e-02
-7.889428734779357910e-02 -3.216317892074584961e-01 7.540918886661529541e-02
-9.073588997125625610e-02 -2.630445659160614014e-01 9.991385042667388916e-02
-4.261745214462280273e-01 6.920861005783081055e-01 2.982914447784423828e-02
-3.233604133129119873e-01 -5.040945410728454590e-01 -1.662641949951648712e-02
-1.863261312246322632e-01 -7.624226212501525879e-01 7.540918886661529541e-02
4.092597961425781250e-01 6.703755259513854980e-02 7.540918886661529541e-02
3.512708544731140137e-01 4.819825589656829834e-01 9.991385042667388916e-02
-4.132201969623565674e-01 -4.945684969425201416e-01 9.991385042667388916e-02
-9.331019967794418335e-02 -6.924655437469482422e-01 7.540918886661529541e-02
3.984573185443878174e-01 -1.593409478664398193e-01 -6.165551766753196716e-02
-1.862902343273162842e-01 -6.644378304481506348e-01 9.991385042667388916e-02
-9.141277521848678589e-02 8.747393488883972168e-01 5.688459426164627075e-02
4.408074915409088135e-01 8.457114696502685547e-01 -5.503090098500251770e-03
-4.261745214462280273e-01 8.281421661376953125e-01 -1.065915822982788086e-01
3.226697444915771484e-01 -8.715568780899047852e-01 7.540918886661529541e-02
-2.943654656410217285e-01 -2.347116917371749878e-01 7.540918886661529541e-02
-4.413475990295410156e-01 -3.056460022926330566e-01 -1.263874769210815430e-01
1.464513391256332397e-01 7.974919080734252930e-01 7.540918886661529541e-02
-5.183993652462959290e-02 5.824562907218933105e-01 6.356470286846160889e-02
2.741360962390899658e-01 -2.774786949157714844e-01 7.540918886661529541e-02
-2.686382532119750977e-01 -5.725697800517082214e-02 7.540918886661529541e-02
4.114595651626586914e-01 5.079161524772644043e-01 9.991385042667388916e-02
-1.026279404759407043e-01 -7.523740530014038086e-01 9.991385042667388916e-02
3.946162164211273193e-01 1.239854246377944946e-01 9.991385042667388916e-02
2.181973308324813843e-01 5.824562907218933105e-01 -8.969259262084960938e-02
-4.346874654293060303e-01 5.782142877578735352e-01 9.991385042667388916e-02
-3.317801281809806824e-03 6.852664351463317871e-01 7.540918886661529541e-02
3.189941644668579102e-01 5.344690680503845215e-01 7.540918886661529541e-02
-3.320408463478088379e-01 -5.040945410728454590e-01 -8.844332396984100342e-02
4.252375662326812744e-01 8.595652580261230469e-01 -1.372952014207839966e-01
2.475293576717376709e-01 -1.593409478664398193e-01 -1.469847466796636581e-02
4.408074915409088135e-01 -1.187487989664077759e-01 -3.184426575899124146e-02
1.464306190609931946e-02 -8.895719051361083984e-01 6.913577206432819366e-03
2.478763759136199951e-01 -6.761217862367630005e-02 7.540918886661529541e-02
-4.717991873621940613e-02 3.025771379470825195e-01 9.991385042667388916e-02
1.761213839054107666e-01 -4.787701666355133057e-01 -8.571644127368927002e-02
-4.413475990295410156e-01 -7.184699773788452148e-01 2.396433986723423004e-02
4.256344437599182129e-01 4.235000014305114746e-01 4.086193069815635681e-02
1.352629810571670532e-01 -1.361106634140014648e-01 -7.994986325502395630e-02
3.567104339599609375e-01 3.829208016395568848e-01 9.991385042667388916e-02
-3.383260965347290039e-01 1.292186379432678223e-01 7.540918886661529541e-02
8.010175824165344238e-02 7.461262345314025879e-01 9.991385042667388916e-02
-4.413475990295410156e-01 -3.120249807834625244e-01 -6.270514428615570068e-02
4.408074915409088135e-01 -7.098483443260192871e-01 -7.356083393096923828e-02
3.435496985912322998e-01 -8.895719051361083984e-01 -6.571403145790100098e-02
6.654980033636093140e-02 -1.361106634140014648e-01 -1.739951670169830322e-01
2.245752960443496704e-01 -2.534556202590465546e-02 7.540918886661529541e-02
-1.917178779840469360e-01 2.191741168498992920e-01 -1.494725495576858521e-01
-1.249557659029960632e-01 -5.040945410728454590e-01 -1.674427092075347900e-01
-4.413475990295410156e-01 2.376877367496490479e-01 -1.599618792533874512e-01
2.858738601207733154e-01 1.906518191099166870e-01 9.991385042667388916e-02
-4.413475990295410156e-01 5.966581106185913086e-01 -6.020328495651483536e-03
-3.165476918220520020e-01 -7.963047623634338379e-01 9.991385042667388916e-02
3.148508667945861816e-01 6.974050998687744141e-01 9.991385042667388916e-02
-8.368533849716186523e-02 7.159845232963562012e-01 9.991385042667388916e-02
-9.028635919094085693e-02 -4.787701666355133057e-01 -1.604614704847335815e-01
1.284056250005960464e-02 4.608642756938934326e-01 9.991385042667388916e-02
-3.191582858562469482e-01 -1.593409478664398193e-01 -1.752366572618484497e-01
-3.726668953895568848e-01 -5.040945410728454590e-01 -7.817408442497253418e-02
-3.076618313789367676e-01 -2.946341931819915771e-01 9.991385042667388916e-02
3.650239109992980957e-01 2.191741168498992920e-01 4.774475470185279846e-02
3.091719448566436768e-01 -1.361106634140014648e-01 -1.631917357444763184e-01
1.510732471942901611e-01 5.093022584915161133e-01 7.540918886661529541e-02
3.402350544929504395e-01 -5.040945410728454590e-01 -6.855848431587219238e-02
-2.482070475816726685e-01 -5.040945410728454590e-01 -1.525388807058334351e-01
1.876318305730819702e-01 -1.446465253829956055e-01 9.991385042667388916e-02
-2.421023249626159668e-01 -5.607871413230895996e-01 7.540918886661529541e-02
-4.261745214462280273e-01 -1.611338704824447632e-01 -4.585414379835128784e-02
-2.542726881802082062e-02 -8.743988275527954102e-01 -8.070123195648193359e-02
-4.372422099113464355e-01 1.781990937888622284e-02 -1.941381841897964478e-01
3.092836439609527588e-01 -4.787701666355133057e-01 -1.626981347799301147e-01
-2.776836454868316650e-01 5.635408163070678711e-01 -3.540279716253280640e-02
1.966186054050922394e-02 -8.743988275527954102e-01 4.782512784004211426e-02
4.217357188463211060e-02 5.824562907218933105e-01 -7.754386216402053833e-02
2.226098626852035522e-01 -4.787701666355133057e-01 -5.024102702736854553e-02
4.408074915409088135e-01 -7.870309948921203613e-01 3.220831230282783508e-02
2.441987693309783936e-01 -8.094894289970397949e-01 7.540918886661529541e-02
-1.482129693031311035e-01 -4.787701666355133057e-01 5.736722424626350403e-02
1.998402774333953857e-01 -1.662354469299316406e-01 7.540918886661529541e-02
-2.265612930059432983e-01 7.803992629051208496e-01 7.540918886661529541e-02
-2.987241148948669434e-01 -8.743988275527954102e-01 6.151848286390304565e-02
-3.288199603557586670e-01 -1.122083067893981934e-01 9.991385042667388916e-02
-4.104270935058593750e-01 4.033490642905235291e-02 9.991385042667388916e-02
3.123112954199314117e-02 8.747393488883972168e-01 -7.553694397211074829e-02
-2.092403024435043335e-01 -1.942003220319747925e-01 9.991385042667388916e-02
