3.419379293918609619e-01 4.685185551643371582e-01 2.458336055278778076e-01
-3.264582455158233643e-01 -1.903627067804336548e-01 -4.261934459209442139e-01
-1.502417773008346558e-01 -1.903627067804336548e-01 1.585891097784042358e-01
-2.268030792474746704e-01 -1.493627279996871948e-01 2.296153455972671509e-01
3.696659505367279053e-01 -1.002045720815658569e-01 -3.842348158359527588e-01
3.696659505367279053e-01 2.708660066127777100e-01 2.425226867198944092e-01
3.074186444282531738e-01 -2.426664382219314575e-01 1.402182728052139282e-01
-1.733111441135406494e-01 7.577299838885664940e-04 -4.097948074340820312e-01
7.321651093661785126e-03 3.823771178722381592e-01 2.285657972097396851e-01
-3.267365097999572754e-01 -1.874551475048065186e-01 2.147031426429748535e-01
-3.357211947441101074e-01 1.581829339265823364e-01 1.836243420839309692e-01
-2.747916877269744873e-01 8.668991178274154663e-02 1.692931205034255981e-01
-2.619840204715728760e-01 -9.882392734289169312e-02 -5.260099172592163086e-01
1.523192226886749268e-01 -1.903627067804336548e-01 -6.351523846387863159e-02
3.442708849906921387e-01 -7.672999501228332520e-01 2.630859911441802979e-01
6.616380810737609863e-02 1.215247437357902527e-02 2.616095542907714844e-01
-3.694039285182952881e-01 -4.690884947776794434e-01 -4.623605012893676758e-01
3.654867410659790039e-01 -2.340225726366043091e-01 1.329149007797241211e-01
-3.098973818123340607e-02 5.630148053169250488e-01 3.534202277660369873e-01
-3.735840022563934326e-01 -1.191551163792610168e-01 -4.251121580600738525e-01
8.794724196195602417e-02 1.956552453339099884e-02 1.558383256196975708e-01
2.854631543159484863e-01 7.577299838885664940e-04 -4.490344226360321045e-01
3.430455029010772705e-01 -1.903627067804336548e-01 5.991280451416969299e-02
3.696659505367279053e-01 -8.416651934385299683e-02 2.183040678501129150e-01
-1.550825834274291992e-01 -1.467290520668029785e-01 2.301437407732009888e-01
-1.067260131239891052e-01 7.577299838885664940e-04 -2.696266472339630127e-01
-2.624000608921051025e-01 4.388203471899032593e-02 1.607126891613006592e-01
1.417076960206031799e-02 -1.903627067804336548e-01 -8.427673578262329102e-02
-6.683020386844873428e-03 -1.903627067804336548e-01 -3.573016524314880371e-01
2.622497268021106720e-02 -1.903627067804336548e-01 -4.546274840831756592e-01
-4.742751270532608032e-02 6.041232347488403320e-01 2.730160057544708252e-01
1.929926574230194092e-01 7.577299838885664940e-04 1.602726429700851440e-02
7.860149443149566650e-02 7.577299838885664940e-04 -1.541744172573089600e-01
-8.362347632646560669e-02 7.577299838885664940e-04 -4.462600648403167725e-01
3.200024366378784180e-02 6.156348586082458496e-01 2.753235399723052979e-01
3.696659505367279053e-01 -1.900554448366165161e-01 -4.829206690192222595e-02
-2.064065635204315186e-01 6.348413825035095215e-01 3.338665962219238281e-01
-9.674164652824401855e-02 -1.903627067804336548e-01 -1.014305502176284790e-01
-9.718847274780273438e-02 -1.903627067804336548e-01 1.680323779582977295e-01
3.464506864547729492e-01 -1.903627067804336548e-01 1.529534012079238892e-01
-1.787120699882507324e-01 5.254415795207023621e-03 1.529697179794311523e-01
-3.735840022563934326e-01 4.910051524639129639e-01 3.202704191207885742e-01
-1.328824162483215332e-01 2.100189924240112305e-01 2.945871353149414062e-01
1.458288431167602539e-01 6.365425586700439453e-01 3.253332972526550293e-01
-3.694039285182952881e-01 -4.158856272697448730e-01 2.073662430047988892e-01
-2.939800620079040527e-01 -1.903627067804336548e-01 -5.151064991950988770e-01
3.696659505367279053e-01 1.951974183320999146e-01 2.643322348594665527e-01
3.123609721660614014e-01 -3.744517862796783447e-01 2.009728252887725830e-01
3.132700324058532715e-01 5.831629633903503418e-01 3.567782938480377197e-01
-1.312364786863327026e-01 1.359810307621955872e-02 2.618506550788879395e-01
3.696659505367279053e-01 5.841146707534790039e-01 2.897200584411621094e-01
-1.618711650371551514e-01 3.197999298572540283e-01 3.128845691680908203e-01
2.427758276462554932e-01 -7.949043996632099152e-03 1.289532184600830078e-01
2.262974530458450317e-01 1.224382370710372925e-01 1.764596253633499146e-01
2.031229808926582336e-02 -1.903627067804336548e-01 -1.430363357067108154e-01
-5.651422962546348572e-02 -1.054385751485824585e-01 -5.260099172592163086e-01
-3.735840022563934326e-01 -9.147513657808303833e-02 -3.661802709102630615e-01
-1.698416173458099365e-01 2.102183997631072998e-01 1.940555423498153687e-01
1.612794250249862671e-01 -1.903627067804336548e-01 -1.758373975753784180e-01
-2.639780044555664062e-01 7.577299838885664940e-04 -2.893715202808380127e-01
-1.965110152959823608e-01 -1.903627067804336548e-01 -1.820422708988189697e-01
-9.799331426620483398e-02 -1.903627067804336548e-01 2.026268988847732544e-01
-3.731988072395324707e-01 1.048071309924125671e-02 2.613312900066375732e-01
3.696659505367279053e-01 -7.471474260091781616e-02 9.318405389785766602e-02
-3.588530719280242920e-01 -3.914295434951782227e-01 -5.092895627021789551e-01
2.018884867429733276e-01 -1.453422941267490387e-02 -5.097264051437377930e-01
-3.735840022563934326e-01 -1.536113470792770386e-01 -4.634019136428833008e-01
2.799933254718780518e-01 -1.903627067804336548e-01 -1.917637884616851807e-01
-2.293127924203872681e-01 7.577299838885664940e-04 -1.697920262813568115e-01
-1.543864887207746506e-02 4.939453303813934326e-01 3.419086933135986328e-01
-3.694039285182952881e-01 -5.302191376686096191e-01 -4.783738851547241211e-01
-3.396746814250946045e-01 3.722785711288452148e-01 3.216308653354644775e-01
-3.735840022563934326e-01 -1.370855718851089478e-01 -2.423373013734817505e-01
3.696659505367279053e-01 -1.511346399784088135e-01 -2.530694007873535156e-01
-3.725942969322204590e-01 -1.903627067804336548e-01 -4.278611242771148682e-01
6.233021244406700134e-02 -1.574952304363250732e-01 2.279848009347915649e-01
-1.922411918640136719e-01 -1.903627067804336548e-01 7.468106341548264027e-04
3.696659505367279053e-01 -1.679743826389312744e-01 -2.143428176641464233e-01
-2.073808908462524414e-01 5.026427507400512695e-01 3.433579206466674805e-01
3.696659505367279053e-01 -7.594168931245803833e-02 -1.842011958360671997e-01
3.068213462829589844e-01 -2.200158238410949707e-01 1.653414219617843628e-01
3.654867410659790039e-01 -4.204926192760467529e-01 -4.962135851383209229e-01
3.347478508949279785e-01 -1.267691375687718391e-03 -1.398401856422424316e-01
1.680435091257095337e-01 7.577299838885664940e-04 -3.828698396682739258e-01
9.661576896905899048e-02 6.327304840087890625e-01 2.836909890174865723e-01
1.783568859100341797e-01 1.828701347112655640e-01 1.885730177164077759e-01
-3.157098293304443359e-01 -3.594307899475097656e-01 1.933032721281051636e-01
-1.875163763761520386e-01 7.577299838885664940e-04 -1.554618775844573975e-01
-3.735840022563934326e-01 4.208889305591583252e-01 2.871940433979034424e-01
3.325753211975097656e-01 -1.903627067804336548e-01 1.161863505840301514e-01
-7.103551924228668213e-02 7.577299838885664940e-04 -7.601774483919143677e-02
2.986116111278533936e-01 7.577299838885664940e-04 -3.572345972061157227e-01
3.271037042140960693e-01 -7.823925018310546875e-01 -4.929942786693572998e-01
-2.495407313108444214e-01 -2.485766634345054626e-02 1.520679146051406860e-01
-3.479732275009155273e-01 -4.126608371734619141e-01 2.331174761056900024e-01
-3.694039285182952881e-01 -2.914336025714874268e-01 1.529081016778945923e-01
-2.076718360185623169e-01 4.119994342327117920e-01 3.282508552074432373e-01
3.581462204456329346e-01 -4.436308741569519043e-01 2.395797669887542725e-01
3.232299387454986572e-01 -6.806491017341613770e-01 2.556394040584564209e-01
3.519631028175354004e-01 -1.306195463985204697e-02 -4.141507446765899658e-01
-3.735840022563934326e-01 -8.982884138822555542e-02 -2.410566359758377075e-01
2.677920460700988770e-01 7.577299838885664940e-04 -1.564904153347015381e-01
-3.401015698909759521e-01 -1.698570209555327892e-03 -3.673984408378601074e-01
-3.065366297960281372e-02 -1.903627067804336548e-01 -6.472983956336975098e-02
5.433156713843345642e-02 -1.903627067804336548e-01 8.336827158927917480e-02
-8.829462528228759766e-02 8.166239410638809204e-02 2.731945514678955078e-01
-3.735840022563934326e-01 3.183388710021972656e-01 2.925333678722381592e-01
-3.110384941101074219e-01 -1.084388643503189087e-01 -5.260099172592163086e-01
1.321927756071090698e-01 3.759130239486694336e-01 3.222363293170928955e-01
-1.190723404288291931e-01 6.273050308227539062e-01 3.534728288650512695e-01
4.286159947514533997e-02 1.577497124671936035e-01 2.858762145042419434e-01
-2.694759368896484375e-01 1.722141653299331665e-01 1.864376515150070190e-01
2.146880328655242920e-02 3.596349954605102539e-01 3.195236027240753174e-01
-1.124097406864166260e-01 -8.255545049905776978e-02 -5.260099172592163086e-01
-2.478920817375183105e-01 4.087691903114318848e-01 3.277125060558319092e-01
-3.238977864384651184e-02 1.325694322586059570e-01 2.816798090934753418e-01
-3.528031706809997559e-01 -9.122163057327270508e-02 2.412710338830947876e-01
3.113340735435485840e-01 -3.503536880016326904e-01 1.725596189498901367e-01
-1.339809149503707886e-01 -2.809243462979793549e-02 -5.183494091033935547e-01
-3.694039285182952881e-01 -3.569301664829254150e-01 -4.547906219959259033e-01
1.279818713665008545e-01 1.654745340347290039e-01 2.871632277965545654e-01
-3.545044064521789551e-01 -1.992277354001998901e-01 -5.092895627021789551e-01
1.829067617654800415e-01 7.577299838885664940e-04 -4.946796596050262451e-02
3.696659505367279053e-01 -7.955605536699295044e-02 -7.512456178665161133e-02
3.654867410659790039e-01 -2.248058915138244629e-01 -4.489084184169769287e-01
-3.735840022563934326e-01 -1.332226842641830444e-01 -9.129182994365692139e-02
-1.594593673944473267e-01 7.577299838885664940e-04 -8.447100967168807983e-02
1.502962559461593628e-01 1.126116607338190079e-02 2.614609003067016602e-01
3.673683404922485352e-01 -1.903627067804336548e-01 -4.371793270111083984e-01
-2.821639776229858398e-01 7.577299838885664940e-04 3.423677012324333191e-02
6.758695840835571289e-02 1.280857324600219727e-01 2.809320688247680664e-01
-3.483611643314361572e-01 7.407622039318084717e-02 1.667652875185012817e-01
-2.354587465524673462e-01 7.577299838885664940e-04 -2.619009315967559814e-01
9.287162870168685913e-02 -1.903627067804336548e-01 1.562679409980773926e-01
2.065978944301605225e-01 6.313618421554565430e-01 2.799912691116333008e-01
1.127397716045379639e-01 3.203301131725311279e-01 2.161279171705245972e-01
-1.362748891115188599e-01 5.485975742340087891e-02 1.629133075475692749e-01
1.901358366012573242e-01 8.247176557779312134e-02 2.733295857906341553e-01
-3.597893416881561279e-01 -7.729175090789794922e-01 2.644627690315246582e-01
1.751592904329299927e-01 7.577299838885664940e-04 -2.627293169498443604e-01
5.373582243919372559e-02 5.503032207489013672e-01 2.622276842594146729e-01
-7.064814865589141846e-02 6.355129480361938477e-01 3.310714066028594971e-01
3.696659505367279053e-01 -1.685176491737365723e-01 -3.493756353855133057e-01
3.654867410659790039e-01 -3.003965020179748535e-01 1.716913282871246338e-01
8.011201769113540649e-02 5.855720639228820801e-01 3.571797907352447510e-01
9.012812748551368713e-03 7.577299838885664940e-04 -3.679893612861633301e-01
3.246592283248901367e-01 4.328654408454895020e-01 3.317285180091857910e-01
-1.478263437747955322e-01 4.608028233051300049e-01 3.363844454288482666e-01
2.851803898811340332e-01 4.774670004844665527e-01 3.391624391078948975e-01
-3.445526659488677979e-01 -6.588123440742492676e-01 -4.623124301433563232e-01
2.260273396968841553e-01 7.600674778223037720e-02 1.671523153781890869e-01
3.696659505367279053e-01 -1.407593637704849243e-01 1.733240671455860138e-02
-4.577314853668212891e-02 7.577299838885664940e-04 -4.150416851043701172e-01
-1.232769042253494263e-01 4.616520404815673828e-01 2.444568574428558350e-01
-3.024907112121582031e-01 2.078301608562469482e-01 2.942228019237518311e-01
1.939987093210220337e-01 1.867067217826843262e-01 2.907025218009948730e-01
1.440361142158508301e-02 4.633777439594268799e-01 2.448030710220336914e-01
1.651640385389328003e-01 -7.547023147344589233e-02 2.444287389516830444e-01
-8.796272426843643188e-02 7.577299838885664940e-04 -4.370139539241790771e-02
1.179748401045799255e-01 -1.903627067804336548e-01 -4.803130775690078735e-02
3.578716143965721130e-02 7.577299838885664940e-04 5.053750425577163696e-02
-3.358613699674606323e-03 6.333295106887817383e-01 3.391542732715606689e-01
-3.735840022563934326e-01 -9.975873678922653198e-02 -1.491400748491287231e-01
1.872454881668090820e-01 5.284683108329772949e-01 2.578509151935577393e-01
3.313372433185577393e-01 2.163317501544952393e-01 2.956394255161285400e-01
-3.382915854454040527e-01 3.999213874340057373e-01 2.320824265480041504e-01
7.004217803478240967e-02 -1.903627067804336548e-01 -1.091124191880226135e-01
-9.518271684646606445e-02 -1.903627067804336548e-01 9.893939644098281860e-02
-2.935205213725566864e-02 2.665680646896362305e-01 2.053513973951339722e-01
-3.220352828502655029e-01 -4.382589161396026611e-01 1.824234426021575928e-01
9.441605210304260254e-02 -9.142918884754180908e-02 2.412293255329132080e-01
3.654867410659790039e-01 -3.114114105701446533e-01 -4.542803764343261719e-01
2.140181958675384521e-01 -1.903627067804336548e-01 -4.580812994390726089e-03
2.288859933614730835e-01 2.550937980413436890e-02 2.638364434242248535e-01
-3.244434595108032227e-01 -5.982291102409362793e-01 -4.905190169811248779e-01
3.625039756298065186e-01 -5.286538600921630859e-01 2.573215961456298828e-01
-2.550332248210906982e-01 2.606006562709808350e-01 2.041550129652023315e-01
-8.378199487924575806e-02 -1.903627067804336548e-01 -3.282648921012878418e-01
-3.491795659065246582e-01 2.203405350446701050e-01 1.960848718881607056e-01
-3.694039285182952881e-01 -2.566414773464202881e-01 -4.652825295925140381e-01
2.314872145652770996e-01 -1.903627067804336548e-01 -4.238559603691101074e-01
3.228166401386260986e-01 5.484986901283264160e-01 2.618660330772399902e-01
3.609169423580169678e-01 -2.608459256589412689e-02 1.372490674257278442e-01
2.244992405176162720e-01 -1.903627067804336548e-01 -3.195847570896148682e-01
3.696659505367279053e-01 -1.672827452421188354e-01 6.972406804561614990e-02
-1.157387867569923401e-01 -1.903627067804336548e-01 -2.364115715026855469e-01
-3.105508685111999512e-01 -2.102562040090560913e-01 1.858077496290206909e-01
-1.529626399278640747e-01 -1.903627067804336548e-01 -3.340043500065803528e-02
-4.639064520597457886e-02 -1.903627067804336548e-01 -4.700064659118652344e-01
-1.925112903118133545e-01 4.428997039794921875e-01 3.334007561206817627e-01
2.545167207717895508e-01 -1.824239790439605713e-01 -5.259818434715270996e-01
2.129079103469848633e-01 1.639953553676605225e-01 1.847899109125137329e-01
-3.697420060634613037e-01 -5.640359222888946533e-02 -5.257715582847595215e-01
3.654867410659790039e-01 -5.241448283195495605e-01 2.220862805843353271e-01
2.708002328872680664e-01 7.577299838885664940e-04 -3.147883415222167969e-01
2.628560364246368408e-01 7.577299838885664940e-04 6.159046664834022522e-02
-2.594000399112701416e-01 7.577299838885664940e-04 -2.217567861080169678e-01
-3.735840022563934326e-01 2.047557979822158813e-01 2.841224372386932373e-01
-2.931289970874786377e-01 3.432309031486511230e-01 2.207185775041580200e-01
3.654867410659790039e-01 -5.868062973022460938e-01 -4.770351946353912354e-01
7.277664542198181152e-02 4.563444852828979492e-01 2.433927953243255615e-01
-1.711068898439407349e-01 2.437017261981964111e-01 3.002010881900787354e-01
1.659815944731235504e-02 7.577299838885664940e-04 2.512250281870365143e-02
2.675527632236480713e-01 -1.903627067804336548e-01 -9.720368683338165283e-02
-2.377482056617736816e-01 -1.903627067804336548e-01 1.251438409090042114e-01
-2.318523824214935303e-01 -1.903627067804336548e-01 -4.405881166458129883e-01
1.811856403946876526e-02 2.900072336196899414e-01 2.100499272346496582e-01
2.918040156364440918e-01 2.158024311065673828e-01 1.951748877763748169e-01
-1.518115699291229248e-01 -1.903627067804336548e-01 5.082390457391738892e-02
1.423248797655105591e-01 1.117994785308837891e-01 1.743270009756088257e-01
-1.794217675924301147e-01 -1.439625513739883900e-03 1.177217289805412292e-01
2.185146063566207886e-01 4.419507384300231934e-01 2.405078709125518799e-01
-1.843994408845901489e-01 -1.903627067804336548e-01 -2.521539926528930664e-01
-3.109152317047119141e-01 7.577299838885664940e-04 -3.354005813598632812e-01
3.421391546726226807e-01 -3.434074223041534424e-01 -5.092895627021789551e-01
3.696659505367279053e-01 -1.206082701683044434e-01 -1.212594360113143921e-01
-8.796779811382293701e-02 6.074260473251342773e-01 2.736785411834716797e-01
-1.829266250133514404e-01 -1.903627067804336548e-01 1.921920776367187500e-01
1.031061559915542603e-01 3.944089710712432861e-01 3.253188133239746094e-01
3.671462833881378174e-01 -4.265668615698814392e-02 -2.110926508903503418e-01
3.292617201805114746e-01 2.080281556118279696e-04 -2.912376821041107178e-01
-3.735840022563934326e-01 -1.806294023990631104e-01 1.821678280830383301e-01
1.408121734857559204e-01 5.469325184822082520e-01 3.507392406463623047e-01
2.927330136299133301e-01 -1.715350747108459473e-01 2.251705974340438843e-01
2.585563436150550842e-02 -8.304141461849212646e-02 2.429115176200866699e-01
3.441802561283111572e-01 -5.468353033065795898e-01 2.090402692556381226e-01
-3.735840022563934326e-01 -1.005368381738662720e-01 -8.571933023631572723e-03
3.110222816467285156e-01 -3.321351408958435059e-01 -4.848054051399230957e-01
7.224968820810317993e-02 -5.665782466530799866e-02 1.520679146051406860e-01
-3.735840022563934326e-01 7.855360209941864014e-02 2.327848672866821289e-01
-2.638701498508453369e-01 -6.160627584904432297e-03 1.265677064657211304e-01
-2.086379975080490112e-01 -1.903627067804336548e-01 -3.305407166481018066e-01
3.654432594776153564e-01 -3.675515949726104736e-02 -3.063542954623699188e-02
5.429875850677490234e-02 -2.095355838537216187e-02 2.553584277629852295e-01
1.086348965764045715e-01 -1.903627067804336548e-01 -2.763798832893371582e-01
-2.786146700382232666e-01 -1.903627067804336548e-01 -4.186444580554962158e-01
7.898070663213729858e-02 -9.258668869733810425e-02 -5.260099172592163086e-01
3.676737844944000244e-01 -2.596776559948921204e-02 2.543532848358154297e-01
-3.621812164783477783e-01 1.455347836017608643e-01 2.838405370712280273e-01
3.386796116828918457e-01 -7.161354422569274902e-01 -5.092895627021789551e-01
-6.655742228031158447e-02 3.703726828098297119e-02 2.657569944858551025e-01
-3.029492869973182678e-02 -1.903627067804336548e-01 8.102264255285263062e-02
8.178623020648956299e-02 7.577299838885664940e-04 -2.714610993862152100e-01
-1.410250812768936157e-01 -1.903627067804336548e-01 1.053717657923698425e-01
-9.893834590911865234e-03 -1.903627067804336548e-01 -1.350461244583129883e-01
-3.118877410888671875e-01 2.725346088409423828e-01 3.050065636634826660e-01
-1.454535126686096191e-01 1.293437331914901733e-01 2.811414301395416260e-01
-7.205960154533386230e-02 3.999413251876831055e-01 3.262414932250976562e-01
2.897366285324096680e-01 -1.903627067804336548e-01 -3.168548047542572021e-01
3.350587561726570129e-02 -1.240734308958053589e-01 -5.260099172592163086e-01
-3.129046782851219177e-02 -3.829650208353996277e-02 -5.222331881523132324e-01
-3.524152636528015137e-01 -6.399248838424682617e-01 -5.092895627021789551e-01
-2.351832240819931030e-01 3.610343933105468750e-01 2.242878079414367676e-01
3.108564317226409912e-01 6.361320018768310547e-01 3.280315399169921875e-01
3.536117374897003174e-01 1.618010848760604858e-01 1.843503266572952271e-01
1.077974289655685425e-01 1.762365698814392090e-01 1.872434020042419434e-01
3.538310825824737549e-01 -2.598943710327148438e-01 2.012411057949066162e-01
3.000445663928985596e-01 -1.903627067804336548e-01 3.661685064435005188e-02
8.476612716913223267e-02 2.833392024040222168e-01 2.087130546569824219e-01
-2.600915729999542236e-01 -1.903627067804336548e-01 7.372107356786727905e-02
-3.186038434505462646e-01 -1.308425236493349075e-02 -5.083296895027160645e-01
-3.694039285182952881e-01 -5.291967988014221191e-01 2.277165353298187256e-01
4.869025200605392456e-02 -1.903627067804336548e-01 -3.128487467765808105e-01
3.696659505367279053e-01 -9.978818893432617188e-02 -2.039243131875991821e-01
2.498036772012710571e-01 5.404223129153251648e-02 2.685911655426025391e-01
8.816948533058166504e-02 9.572351723909378052e-02 1.711039990186691284e-01
1.628890931606292725e-01 -1.903627067804336548e-01 -4.091096222400665283e-01
3.153192996978759766e-01 -4.524623453617095947e-01 -4.870250225067138672e-01
-1.403598189353942871e-01 -1.903627067804336548e-01 -3.440145552158355713e-01
-1.324147433042526245e-01 6.310256123542785645e-01 2.790812849998474121e-01
3.534150719642639160e-01 -1.457991264760494232e-02 3.912835568189620972e-02
3.695136904716491699e-01 -5.752683430910110474e-02 2.650196664035320282e-02
-1.375972628593444824e-01 5.564138889312744141e-01 3.523199260234832764e-01
-1.038846746087074280e-02 1.662386059761047363e-01 2.872910201549530029e-01
-1.540964841842651367e-01 3.857806697487831116e-02 2.660144269466400146e-01
-3.717350661754608154e-01 -4.547489434480667114e-02 -3.247536718845367432e-01
-3.464487493038177490e-01 -1.189140230417251587e-02 2.571747601032257080e-01
1.545633524656295776e-01 -1.903627067804336548e-01 -5.175681710243225098e-01
2.350990325212478638e-01 -1.903627067804336548e-01 -1.267891824245452881e-01
3.696659505367279053e-01 -1.398888975381851196e-01 -5.566206201910972595e-02
3.322200179100036621e-01 5.571733713150024414e-01 3.524468243122100830e-01
-9.165728092193603516e-02 7.577299838885664940e-04 8.821362257003784180e-02
-1.334334760904312134e-01 3.754109442234039307e-01 3.221529424190521240e-01
2.753238081932067871e-01 -1.903627067804336548e-01 -8.841574192047119141e-03
-1.855015605688095093e-01 7.577299838885664940e-04 -3.387540876865386963e-01
-1.585874557495117188e-01 -1.092547699809074402e-01 -5.260099172592163086e-01
2.732727676630020142e-02 -2.987287193536758423e-02 -5.190808773040771484e-01
-3.694039285182952881e-01 -4.126001000404357910e-01 -4.661961793899536133e-01
-1.582448482513427734e-01 -1.903627067804336548e-01 -4.953027069568634033e-01
-3.638978302478790283e-01 -1.903627067804336548e-01 -6.441234797239303589e-02
6.502634286880493164e-02 -1.136010885238647461e-01 2.367845773696899414e-01
1.233250349760055542e-01 -1.903627067804336548e-01 -1.300896555185317993e-01
-3.487699329853057861e-01 -6.674532312899827957e-03 -5.944671481847763062e-02
-3.735840022563934326e-01 -1.877333968877792358e-01 -3.083568811416625977e-01
-2.449237853288650513e-01 2.779998779296875000e-01 3.059174418449401855e-01
3.378575444221496582e-01 2.828633785247802734e-01 3.067286312580108643e-01
-1.576312258839607239e-02 7.577299838885664940e-04 2.979474142193794250e-02
-3.735840022563934326e-01 -1.895750910043716431e-01 4.430764820426702499e-03
-2.224063873291015625e-01 7.577299838885664940e-04 -4.643553495407104492e-01
-3.070007264614105225e-01 3.295686841011047363e-02 2.650772333145141602e-01
3.241408169269561768e-01 -7.017643451690673828e-01 2.819136381149291992e-01
3.654867410659790039e-01 -3.745279014110565186e-01 2.211808264255523682e-01
-3.111218810081481934e-01 -2.252382040023803711e-01 -4.827851057052612305e-01
-1.037359610199928284e-01 7.577299838885664940e-04 -1.306114494800567627e-01
-3.601573407649993896e-01 -1.841903291642665863e-02 -2.094757109880447388e-01
-1.320313662290573120e-01 2.399304062128067017e-01 2.995729744434356689e-01
3.568936586380004883e-01 1.821822226047515869e-01 2.899484634399414062e-01
8.219353854656219482e-02 7.577299838885664940e-04 5.581609532237052917e-02
2.040474265813827515e-01 4.056341350078582764e-01 3.271904289722442627e-01
-2.886652350425720215e-01 7.577299838885664940e-04 -1.496663093566894531e-01
-3.713815808296203613e-01 -4.376370459794998169e-02 -1.305393874645233154e-01
-2.043319195508956909e-01 5.674767494201660156e-01 3.541634380817413330e-01
3.696659505367279053e-01 -1.634597480297088623e-01 -4.213861525058746338e-01
1.675069630146026611e-01 -1.903627067804336548e-01 -2.947244048118591309e-01
6.046259077265858650e-04 -4.888250678777694702e-02 1.520679146051406860e-01
7.577421516180038452e-02 -1.903627067804336548e-01 -4.131664633750915527e-01
-3.255881667137145996e-01 -6.302840113639831543e-01 -4.953770637512207031e-01
2.923333048820495605e-01 -1.903627067804336548e-01 1.775200664997100830e-01
6.281821988523006439e-03 4.291240572929382324e-01 2.379365563392639160e-01
-3.694039285182952881e-01 -4.664473831653594971e-01 2.106091380119323730e-01
3.188078403472900391e-01 -5.252605080604553223e-01 -5.092895627021789551e-01
3.639414533972740173e-02 7.577299838885664940e-04 -2.176854461431503296e-01
1.118723824620246887e-01 7.577299838885664940e-04 -1.218333318829536438e-01
-5.052279308438301086e-02 -1.903627067804336548e-01 -9.871005080640316010e-03
3.139488995075225830e-01 -2.255663126707077026e-01 1.940782070159912109e-01
-3.115025758743286133e-01 -1.903627067804336548e-01 -8.235139399766921997e-02
3.696659505367279053e-01 -1.423453092575073242e-01 1.511406898498535156e-01
-3.292806074023246765e-02 3.448115885257720947e-01 3.170529007911682129e-01
3.692317903041839600e-01 -5.387804657220840454e-02 -1.187234744429588318e-01
-2.612906694412231445e-01 8.406241238117218018e-02 2.735951542854309082e-01
-3.712728023529052734e-01 -4.338448867201805115e-02 -4.211296439170837402e-01
8.194927871227264404e-02 3.962969183921813965e-01 2.313564419746398926e-01
1.265244483947753906e-01 -3.364132426213473082e-04 1.140419393777847290e-01
3.654867410659790039e-01 -3.542174696922302246e-01 -4.885295629501342773e-01
-7.867497205734252930e-02 -4.646789282560348511e-02 -5.243394970893859863e-01
-3.694039285182952881e-01 -6.937131881713867188e-01 2.545680999755859375e-01
3.654867410659790039e-01 -3.388974070549011230e-01 1.791931986808776855e-01
-2.642046213150024414e-01 -2.855394594371318817e-02 -5.185388922691345215e-01
-3.735840022563934326e-01 4.984644651412963867e-01 2.681507170200347900e-01
2.765537202358245850e-01 -1.903627067804336548e-01 7.314372062683105469e-02
3.696659505367279053e-01 4.833691418170928955e-01 3.056972026824951172e-01
-3.735840022563934326e-01 3.128917887806892395e-02 1.862745136022567749e-01
-3.277289867401123047e-01 -6.906941533088684082e-01 2.887955605983734131e-01
-2.757895886898040771e-01 3.142285943031311035e-01 2.149052470922470093e-01
-3.332314491271972656e-01 -5.961807370185852051e-01 -4.600755572319030762e-01
-1.002582833170890808e-01 4.017114341259002686e-01 2.324413359165191650e-01
2.758921086788177490e-01 -1.555219292640686035e-01 -5.260099172592163086e-01
3.654867410659790039e-01 -2.554750144481658936e-01 -4.829237759113311768e-01
2.111949026584625244e-01 -1.903627067804336548e-01 -2.527368068695068359e-01
-3.021662235260009766e-01 4.006655216217041016e-01 2.322319746017456055e-01
-3.275458812713623047e-01 -6.850911378860473633e-01 -5.017278790473937988e-01
3.696659505367279053e-01 -9.855628013610839844e-02 2.354272827506065369e-02
1.213772892951965332e-01 6.374416947364807129e-01 3.078343868255615234e-01
-1.016776338219642639e-01 5.041780471801757812e-01 3.436135351657867432e-01
8.937947452068328857e-03 -1.903627067804336548e-01 -2.282417416572570801e-01
1.433427184820175171e-01 -1.903627067804336548e-01 4.904474690556526184e-02
-8.485121279954910278e-02 7.577299838885664940e-04 -2.130449265241622925e-01
3.137069046497344971e-01 -2.701269835233688354e-02 -5.177757143974304199e-01
3.364490568637847900e-01 -7.593720555305480957e-01 -5.092895627021789551e-01
-3.629244118928909302e-02 7.577299838885664940e-04 -2.711864709854125977e-01
-3.735840022563934326e-01 1.692948043346405029e-01 2.273222655057907104e-01
-3.258346915245056152e-01 -2.731279097497463226e-02 1.520679146051406860e-01
-1.217741668224334717e-01 7.577299838885664940e-04 -4.664562940597534180e-01
-3.195826709270477295e-01 7.577299838885664940e-04 -4.275964796543121338e-01
-2.872793972492218018e-01 4.828026592731475830e-01 2.486967593431472778e-01
-3.735840022563934326e-01 -1.440116167068481445e-01 -4.498977586627006531e-02
-2.310131043195724487e-01 5.805662870407104492e-01 2.682938873767852783e-01
-2.503682374954223633e-01 -1.903627067804336548e-01 1.946410387754440308e-01
-2.233172655105590820e-01 -1.163098961114883423e-01 2.362416684627532959e-01
2.692041099071502686e-01 6.304110884666442871e-01 3.469652235507965088e-01
2.109402269124984741e-01 1.173527017235755920e-01 2.791429162025451660e-01
1.046632677316665649e-01 5.029227733612060547e-01 2.527300119400024414e-01
3.696659505367279053e-01 -9.054331481456756592e-02 -3.648574650287628174e-02
-2.187773585319519043e-01 7.577299838885664940e-04 -3.448991477489471436e-01
-3.640437424182891846e-01 -2.465935423970222473e-02 -2.498310208320617676e-01
3.236142098903656006e-01 -1.903627067804336548e-01 -3.320905864238739014e-01
1.938999146223068237e-01 3.810148835182189941e-01 2.282929718494415283e-01
-2.450207471847534180e-01 7.577299838885664940e-04 -4.189127385616302490e-01
3.098530769348144531e-01 3.402734994888305664e-01 3.162969946861267090e-01
3.481999337673187256e-01 3.334659039974212646e-01 3.151622414588928223e-01
-1.727772951126098633e-01 6.015501618385314941e-01 3.598426580429077148e-01
-1.303410083055496216e-01 1.566376239061355591e-01 2.856903970241546631e-01
3.250045776367187500e-01 2.516576945781707764e-01 3.015270829200744629e-01
-1.263766288757324219e-01 -1.903627067804336548e-01 -3.267512656748294830e-03
3.696659505367279053e-01 -1.132431626319885254e-01 -3.466112613677978516e-01
6.102334335446357727e-02 -1.903627067804336548e-01 -4.439760744571685791e-01
8.333119750022888184e-02 -1.903627067804336548e-01 -5.062016248703002930e-01
-3.422840535640716553e-01 -1.903627067804336548e-01 1.270226985216140747e-01
3.586311340332031250e-01 -2.197193540632724762e-02 -1.576336771249771118e-01
6.401494145393371582e-02 7.593425363302230835e-02 1.671378016471862793e-01
2.960747480392456055e-01 -8.775426447391510010e-02 -5.260099172592163086e-01
-3.532608747482299805e-01 6.050785779953002930e-01 3.604308664798736572e-01
-1.424326449632644653e-01 -1.759399324655532837e-01 2.241047322750091553e-01
1.594757735729217529e-01 7.466264069080352783e-02 2.720280587673187256e-01
3.423448801040649414e-01 -5.983042716979980469e-01 -4.601517319679260254e-01
7.481620460748672485e-02 7.577299838885664940e-04 2.752977050840854645e-02
-1.024235561490058899e-01 7.577299838885664940e-04 -4.171426296234130859e-01
7.405368238687515259e-02 2.014322131872177124e-01 2.931569218635559082e-01
-3.576929569244384766e-01 5.819666385650634766e-01 2.685748636722564697e-01
8.805038034915924072e-02 4.595955610275268555e-01 3.361832499504089355e-01
1.688130386173725128e-02 -1.903627067804336548e-01 2.561374381184577942e-02
3.263967335224151611e-01 -1.903627067804336548e-01 -2.984880842268466949e-02
-2.417008131742477417e-01 -1.903627067804336548e-01 -3.735942542552947998e-01
1.350795179605484009e-01 5.035935044288635254e-01 2.528641521930694580e-01
-3.735840022563934326e-01 6.033428907394409180e-01 3.013693690299987793e-01
-2.054068073630332947e-02 6.355700492858886719e-01 2.938693165779113770e-01
-9.499691426753997803e-02 6.375105381011962891e-01 3.152383863925933838e-01
1.866618357598781586e-02 -9.734938293695449829e-02 -5.260099172592163086e-01
1.430880427360534668e-01 4.095658659934997559e-01 3.278457224369049072e-01
2.527140080928802490e-02 -1.609817743301391602e-01 -5.260099172592163086e-01
-2.551238834857940674e-01 -1.903627067804336548e-01 1.570369489490985870e-02
-2.929459214210510254e-01 1.974868774414062500e-01 1.915032565593719482e-01
-3.523191809654235840e-01 -9.414520114660263062e-03 -1.624067872762680054e-01
3.654867410659790039e-01 -7.467555999755859375e-01 -4.769400656223297119e-01
-1.819042563438415527e-01 4.232844114303588867e-01 2.367664426565170288e-01
-1.253633350133895874e-01 2.936942875385284424e-01 2.107886075973510742e-01
-2.826062440872192383e-01 -1.903627067804336548e-01 -1.172020584344863892e-01
1.802239716053009033e-01 1.545158475637435913e-01 1.828893125057220459e-01
3.696659505367279053e-01 1.649585086852312088e-03 1.782243102788925171e-01
3.434977531433105469e-01 2.556619644165039062e-01 2.031652927398681641e-01
-9.628212451934814453e-02 -2.033011522144079208e-03 1.520679146051406860e-01
-1.683261990547180176e-01 2.975426614284515381e-01 2.115599215030670166e-01
-3.735840022563934326e-01 -1.878122389316558838e-01 -4.677151739597320557e-01
3.212006092071533203e-01 -1.903627067804336548e-01 -4.299511611461639404e-01
3.271789252758026123e-01 -5.774562433362007141e-02 1.520679146051406860e-01
3.151489198207855225e-01 -4.531140327453613281e-01 2.144085615873336792e-01
-2.664867937564849854e-01 3.078523874282836914e-01 3.108933269977569580e-01
-2.262946367263793945e-01 -2.968960627913475037e-02 1.520679146051406860e-01
-3.735840022563934326e-01 -1.254246234893798828e-01 6.820955127477645874e-02
1.771142929792404175e-01 1.332020610570907593e-01 2.817849516868591309e-01
-9.839573502540588379e-02 1.306256861425936222e-03 2.598022818565368652e-01
1.669114828109741211e-01 7.577299838885664940e-04 -2.119853943586349487e-01
3.775920346379280090e-02 7.577299838885664940e-04 -3.671845197677612305e-01
1.153835803270339966e-01 2.576405107975006104e-01 3.025240600109100342e-01
3.696659505367279053e-01 -5.777726322412490845e-02 2.053976207971572876e-01
2.879628837108612061e-01 -1.674817688763141632e-02 1.520679146051406860e-01
3.304181993007659912e-01 -2.975442111492156982e-01 1.479276865720748901e-01
-3.259525299072265625e-01 -3.516860306262969971e-01 2.203950434923171997e-01
3.247036635875701904e-01 -7.152128219604492188e-01 -4.827896356582641602e-01
2.340304404497146606e-01 5.042451620101928711e-01 3.436253070831298828e-01
4.044626280665397644e-02 5.675710439682006836e-01 3.541797697544097900e-01
-6.497573852539062500e-02 1.792855262756347656e-01 1.878551840782165527e-01
3.086104691028594971e-01 -2.646137475967407227e-01 -4.944453239440917969e-01
3.696659505367279053e-01 7.946176081895828247e-02 1.986280828714370728e-01
1.768804490566253662e-01 9.466853737831115723e-02 1.708928197622299194e-01
3.694547712802886963e-01 -1.903627067804336548e-01 -1.964650303125381470e-01
-3.510593473911285400e-01 -7.883054614067077637e-01 2.952188849449157715e-01
2.170771360397338867e-01 -1.903627067804336548e-01 -2.123189419507980347e-01
-4.536456242203712463e-02 7.577299838885664940e-04 3.842502087354660034e-02
-3.189110755920410156e-01 -1.903627067804336548e-01 -2.079282188788056374e-03
3.645550310611724854e-01 -6.305804252624511719e-01 -5.092895627021789551e-01
3.696659505367279053e-01 -7.129604369401931763e-02 -3.918789923191070557e-01
-3.735840022563934326e-01 3.962098658084869385e-01 2.645905613899230957e-01
-3.295598030090332031e-01 -7.488710284233093262e-01 2.662192583084106445e-01
-3.213020265102386475e-01 -5.102631449699401855e-01 -4.570682644844055176e-01
3.239263081923127174e-03 5.868871808052062988e-01 2.695609629154205322e-01
-1.904801577329635620e-01 4.807869791984558105e-01 2.482925355434417725e-01
-1.020428910851478577e-01 6.049553155899047852e-01 3.604100048542022705e-01
3.512851297855377197e-01 -1.236795727163553238e-02 -2.655372023582458496e-01
6.188437715172767639e-02 3.600781857967376709e-01 3.195970058441162109e-01
-1.689253002405166626e-01 -3.584998846054077148e-02 1.520679146051406860e-01
1.706946045160293579e-01 7.577299838885664940e-04 -7.512384653091430664e-02
3.098567128181457520e-01 -3.053352236747741699e-01 1.814318746328353882e-01
1.375447809696197510e-01 -1.444576773792505264e-02 -5.096593499183654785e-01
-6.458945572376251221e-02 7.577299838885664940e-04 -2.691100239753723145e-01
-3.533624112606048584e-01 -7.319911718368530273e-01 2.997506558895111084e-01
-1.889982670545578003e-01 1.801338791847229004e-01 2.896067500114440918e-01
-2.530256509780883789e-01 7.577299838885664940e-04 -4.558664858341217041e-01
3.506633937358856201e-01 -9.578284621238708496e-02 -5.260099172592163086e-01
-1.545949727296829224e-01 -5.750362947583198547e-02 -5.258558392524719238e-01
-3.840142861008644104e-02 -8.693849295377731323e-02 2.421302348375320435e-01
-3.694039285182952881e-01 -3.078911304473876953e-01 -5.004770755767822266e-01
-1.892420463263988495e-02 -1.903627067804336548e-01 -3.317742943763732910e-01
-6.967227905988693237e-02 -1.903627067804336548e-01 -2.935479879379272461e-01
4.932651296257972717e-02 7.577299838885664940e-04 -4.395666420459747314e-01
-2.491782009601593018e-01 5.073720812797546387e-01 2.536218762397766113e-01
2.492208778858184814e-01 -5.695782601833343506e-02 -5.258141160011291504e-01
3.260523080825805664e-01 -5.126349255442619324e-02 2.492822557687759399e-01
3.696659505367279053e-01 4.464245960116386414e-02 2.403782755136489868e-01
-3.735840022563934326e-01 5.179872512817382812e-01 3.296421170234680176e-01
-3.499536216259002686e-01 -5.488220453262329102e-01 2.095269560813903809e-01
-6.972520798444747925e-02 1.480716913938522339e-01 1.815977245569229126e-01
-2.658922374248504639e-01 2.135437875986099243e-01 2.951753735542297363e-01
-3.054278902709484100e-03 -9.092634171247482300e-02 2.413308322429656982e-01
3.696659505367279053e-01 -7.979752123355865479e-02 -2.885847985744476318e-01
1.949938684701919556e-01 -1.737891733646392822e-01 -5.260099172592163086e-01
-3.694039285182952881e-01 -5.955308675765991211e-01 2.441024631261825562e-01
3.654867410659790039e-01 -7.108994722366333008e-01 -4.824171662330627441e-01
-3.320504426956176758e-01 5.138678550720214844e-01 2.549242973327636719e-01
2.207814007997512817e-01 -1.520644575357437134e-01 2.290742546319961548e-01
-2.441479563713073730e-01 6.375187039375305176e-01 3.123162686824798584e-01
2.773757874965667725e-01 -1.903627067804336548e-01 -1.637434959411621094e-01
9.970461577177047729e-02 -1.903627067804336548e-01 -1.967179179191589355e-01
2.766344249248504639e-01 7.577299838885664940e-04 -9.924478828907012939e-02
2.061184346675872803e-01 -1.903627067804336548e-01 7.210232317447662354e-02
-4.819918051362037659e-02 1.685978323221206665e-01 2.876843810081481934e-01
-6.802988052368164062e-02 7.577299838885664940e-04 6.631798297166824341e-02
1.480783969163894653e-01 -1.903627067804336548e-01 -1.169055029749870300e-01
3.654867410659790039e-01 -7.756510376930236816e-01 2.846643924713134766e-01
-8.789474517107009888e-02 -1.903627067804336548e-01 -3.674899637699127197e-01
2.833812832832336426e-01 1.601053178310394287e-01 1.840104460716247559e-01
-3.177817761898040771e-01 -4.117019176483154297e-01 -5.067372918128967285e-01
-1.819015443325042725e-01 5.928437113761901855e-01 2.707555592060089111e-01
6.622598320245742798e-02 2.763748168945312500e-01 3.056473731994628906e-01
-3.735840022563934326e-01 1.138106733560562134e-01 2.161650806665420532e-01
-2.688315212726593018e-01 6.004171967506408691e-01 3.596541285514831543e-01
7.443136721849441528e-02 5.140753984451293945e-01 3.452639877796173096e-01
3.654867410659790039e-01 -3.154274225234985352e-01 1.952465027570724487e-01
2.195523828268051147e-01 7.577299838885664940e-04 -1.239731460809707642e-01
3.654867410659790039e-01 -2.145378440618515015e-01 1.537219882011413574e-01
3.039491176605224609e-01 -1.903627067804336548e-01 1.438681483268737793e-01
-3.735840022563934326e-01 -7.727231830358505249e-02 1.600682884454727173e-01
1.635951399803161621e-01 3.587802946567535400e-01 2.238355278968811035e-01
-3.154959380626678467e-01 -4.624556750059127808e-02 -5.242996811866760254e-01
3.535555601119995117e-01 3.548811674118041992e-01 2.230542600154876709e-01
-3.029003441333770752e-01 5.292405486106872559e-01 2.580059170722961426e-01
-2.415358424186706543e-01 -1.903627067804336548e-01 -5.281158536672592163e-02
-2.711290866136550903e-02 -1.903627067804336548e-01 -4.405083656311035156e-01
3.406744897365570068e-01 -3.689411580562591553e-01 -4.519610106945037842e-01
3.696659505367279053e-01 -1.442959457635879517e-01 -4.901546835899353027e-01
-2.025473117828369141e-01 1.105106547474861145e-01 1.740686893463134766e-01
-3.644606769084930420e-01 4.488054513931274414e-01 2.418818920850753784e-01
3.654695451259613037e-01 4.572115372866392136e-03 2.603460848331451416e-01
-5.054191499948501587e-02 5.111505985260009766e-01 3.447763621807098389e-01
-3.642069101333618164e-01 4.882436245679855347e-02 2.677219808101654053e-01
-3.716851770877838135e-01 6.368280649185180664e-01 3.012361526489257812e-01
6.097213551402091980e-02 6.295835971832275391e-01 3.489002883434295654e-01
-1.993913948535919189e-01 -8.912388235330581665e-02 -5.260099172592163086e-01
2.067102938890457153e-01 6.026659011840820312e-01 3.600284457206726074e-01
-3.694039285182952881e-01 -7.197662591934204102e-01 2.715359032154083252e-01
3.308931291103363037e-01 -5.503039360046386719e-01 -5.092895627021789551e-01
-3.735840022563934326e-01 -1.567405015230178833e-01 -1.295350641012191772e-01
3.020421564579010010e-01 7.577299838885664940e-04 -3.846535384654998779e-01
3.378303349018096924e-01 -2.499241614714264870e-03 1.023110300302505493e-01
1.704915612936019897e-01 4.316400587558746338e-01 2.384413927793502808e-01
-3.158149719238281250e-01 5.075768828392028809e-01 3.441809117794036865e-01
-3.735840022563934326e-01 -1.727858334779739380e-01 -1.785093098878860474e-01
3.092902600765228271e-01 7.577299838885664940e-04 -4.901079833507537842e-02
3.228755295276641846e-01 -1.903627067804336548e-01 -9.449523687362670898e-02
-2.802896201610565186e-01 1.642953753471374512e-01 2.869674563407897949e-01
3.690278530120849609e-01 -5.224561691284179688e-02 -2.688571512699127197e-01
-2.129993587732315063e-01 1.663183420896530151e-01 1.852557659149169922e-01
2.996566295623779297e-01 5.959570407867431641e-01 2.713791131973266602e-01
3.696659505367279053e-01 5.701903700828552246e-01 3.473268449306488037e-01
3.696659505367279053e-01 1.248355284333229065e-01 2.504605054855346680e-01
9.280909597873687744e-02 -1.903627067804336548e-01 8.385679870843887329e-02
-2.296309024095535278e-01 -3.757006302475929260e-02 -5.220237970352172852e-01
-3.735840022563934326e-01 -9.462352842092514038e-02 -4.955746233463287354e-01
1.658410876989364624e-01 4.692563414573669434e-01 3.377938568592071533e-01
-3.230431079864501953e-01 -5.590175986289978027e-01 -4.855467379093170166e-01
3.136706352233886719e-01 -4.063036739826202393e-01 -4.806352853775024414e-01
-3.216201663017272949e-01 -1.903627067804336548e-01 -5.025898218154907227e-01
2.915257513523101807e-01 2.419879473745822906e-02 2.636180222034454346e-01
3.083032369613647461e-01 -1.744199991226196289e-01 -5.260099172592163086e-01
3.450621366500854492e-01 -2.131130397319793701e-01 -5.092895627021789551e-01
-3.735840022563934326e-01 -7.821499556303024292e-02 -6.757407635450363159e-02
1.814547926187515259e-01 2.136027067899703979e-01 1.947343945503234863e-01
-3.719969689846038818e-01 -4.693783819675445557e-02 6.195300072431564331e-02
-2.040020078420639038e-01 2.942698299884796143e-01 3.086292445659637451e-01
1.721565425395965576e-01 -1.619862020015716553e-01 2.270848155021667480e-01
-3.735840022563934326e-01 -1.255419999361038208e-01 1.892038434743881226e-01
3.196498379111289978e-02 9.767580777406692505e-02 1.714955568313598633e-01
-1.212629899382591248e-01 -1.893303841352462769e-01 -5.216522216796875000e-01
2.405924201011657715e-01 7.577299838885664940e-04 -3.589276671409606934e-01
1.300954818725585938e-01 5.724998116493225098e-01 2.666769623756408691e-01
1.980092972517013550e-01 2.519993782043457031e-01 3.015841841697692871e-01
-3.444720208644866943e-01 -6.340608000755310059e-01 2.304229140281677246e-01
3.696659505367279053e-01 5.018777847290039062e-01 2.750090658664703369e-01
-3.437931239604949951e-01 -3.548613516613841057e-03 1.124181970953941345e-02
-1.093063950538635254e-01 3.196839094161987305e-01 3.128646314144134521e-01
1.951207667589187622e-01 7.577299838885664940e-04 -3.233896195888519287e-01
-3.222972154617309570e-01 -5.381325483322143555e-01 -4.591973125934600830e-01
2.059281021356582642e-01 1.995525881648063660e-02 1.559162884950637817e-01
3.324665427207946777e-01 -2.416894137859344482e-01 -5.092895627021789551e-01
2.715779095888137817e-02 -1.903627067804336548e-01 -4.818053543567657471e-01
-1.789830774068832397e-01 -7.208283990621566772e-03 -5.019082427024841309e-01
1.988126197829842567e-03 -1.440455168485641479e-01 2.306812107563018799e-01
-3.668262362480163574e-01 3.101581633090972900e-01 2.140895277261734009e-01
-1.681911200284957886e-02 -3.022417239844799042e-02 2.534995079040527344e-01
-2.331548184156417847e-01 4.662064909934997559e-01 2.453695535659790039e-01
-3.397000730037689209e-01 -1.903627067804336548e-01 -4.513492286205291748e-01
-2.002995610237121582e-01 2.832159399986267090e-01 2.086885720491409302e-01
2.792147696018218994e-01 3.945992887020111084e-01 2.310156524181365967e-01
3.696659505367279053e-01 -1.233430951833724976e-01 -2.400143295526504517e-01
4.153062030673027039e-02 -1.903627067804336548e-01 -1.216395646333694458e-01
3.696659505367279053e-01 -1.230503469705581665e-01 -4.664735198020935059e-01
3.457437157630920410e-01 6.366839408874511719e-01 3.244051933288574219e-01
6.108316406607627869e-02 -1.183494627475738525e-01 -5.260099172592163086e-01
-3.501058816909790039e-01 -7.676681503653526306e-03 1.147914826869964600e-01
9.151663631200790405e-02 7.577299838885664940e-04 -6.476146727800369263e-02
5.399965867400169373e-02 7.577299838885664940e-04 -1.692019850015640259e-01
2.389347106218338013e-01 -1.298708561807870865e-02 -5.082345604896545410e-01
3.696659505367279053e-01 -6.832411140203475952e-02 -2.314094156026840210e-01
-2.927791476249694824e-01 5.659105777740478516e-01 2.653563916683197021e-01
-2.739097736775875092e-02 3.739027678966522217e-01 2.268672883510589600e-01
-3.185476064682006836e-01 -1.903627067804336548e-01 -3.669769763946533203e-01
3.398922979831695557e-01 -1.744053885340690613e-02 1.520679146051406860e-01
2.906749490648508072e-03 -1.859632320702075958e-03 1.520679146051406860e-01
-1.558892428874969482e-01 6.370383501052856445e-01 3.032953739166259766e-01
-2.919851541519165039e-01 -1.903627067804336548e-01 -1.433456838130950928e-01
3.654867410659790039e-01 -3.767430186271667480e-01 -4.701578319072723389e-01
2.095779776573181152e-01 -1.903627067804336548e-01 2.548504248261451721e-02
-2.440337538719177246e-01 7.577299838885664940e-04 3.202346339821815491e-02
5.071404576301574707e-02 -1.903627067804336548e-01 -9.049496799707412720e-02
-3.735840022563934326e-01 -4.863912239670753479e-03 2.028344571590423584e-01
2.234496921300888062e-01 -1.903627067804336548e-01 1.007240042090415955e-01
2.330506891012191772e-01 -2.766608633100986481e-02 1.441971510648727417e-01
3.478627651929855347e-02 -1.831380464136600494e-02 1.520679146051406860e-01
3.125957250595092773e-01 -3.761829137802124023e-01 -4.876803159713745117e-01
-3.477901518344879150e-01 -3.527963161468505859e-01 1.614722013473510742e-01
3.261936902999877930e-01 -7.600545287132263184e-01 2.900245785713195801e-01
-1.502924878150224686e-02 5.241260677576065063e-02 1.624229699373245239e-01
-1.160568837076425552e-02 4.309521317481994629e-01 3.314094841480255127e-01
-1.688872277736663818e-01 -1.903627067804336548e-01 -3.547321557998657227e-01
3.428125679492950439e-01 -4.151242971420288086e-01 -5.092895627021789551e-01
4.334241896867752075e-02 -1.846898645162582397e-01 2.184300720691680908e-01
3.412119448184967041e-01 -1.903627067804336548e-01 -5.208142846822738647e-02
-3.209694027900695801e-01 -5.068135857582092285e-01 2.234702855348587036e-01
-3.383287489414215088e-01 -2.366278087720274925e-03 -4.939150810241699219e-01
6.714493036270141602e-02 4.067626968026161194e-02 1.600700914859771729e-01
-3.577400743961334229e-01 2.639541625976562500e-01 2.048275470733642578e-01
5.094471201300621033e-02 1.291815042495727539e-01 1.778109967708587646e-01
3.696659505367279053e-01 -1.470182687044143677e-01 1.221800670027732849e-01
-3.735840022563934326e-01 -1.430689245462417603e-01 -3.902484476566314697e-01
1.395804435014724731e-01 7.577299838885664940e-04 8.176403492689132690e-02
-3.700845837593078613e-01 -3.925959020853042603e-02 -2.326924167573451996e-02
-9.425643086433410645e-02 1.143454164266586304e-01 2.786417007446289062e-01
