1.591691225767135620e-01 1.230795457959175110e-01 -4.254278540611267090e-01
-4.316297471523284912e-01 2.757890708744525909e-02 -3.258748650550842285e-01
-4.471031725406646729e-01 -4.419506192207336426e-01 -1.841085851192474365e-01
-4.109868109226226807e-01 -4.901795089244842529e-01 4.473869800567626953e-01
4.144286513328552246e-01 2.711562626063823700e-02 2.420040071010589600e-01
1.747562140226364136e-01 2.600775659084320068e-01 4.933387935161590576e-01
3.315649926662445068e-01 9.697081148624420166e-02 3.828760683536529541e-01
-3.785360231995582581e-02 2.600775659084320068e-01 4.635518491268157959e-01
4.247544705867767334e-01 9.683709591627120972e-02 -3.672542273998260498e-01
-3.078709542751312256e-01 2.268072366714477539e-01 9.387774765491485596e-02
-1.793683767318725586e-01 -4.671712517738342285e-01 -3.149275481700897217e-01
-2.075723409652709961e-01 4.375078529119491577e-02 -2.790454328060150146e-01
2.286230921745300293e-01 1.065860018134117126e-01 3.437912166118621826e-01
-4.094492495059967041e-01 1.879033446311950684e-01 3.443218171596527100e-01
-1.316657066345214844e-01 -4.671712517738342285e-01 2.527485191822052002e-01
-3.640586137771606445e-01 -4.384428262710571289e-01 -3.563891053199768066e-01
2.409803420305252075e-01 1.095938086509704590e-01 -3.382592201232910156e-01
3.257713913917541504e-01 -4.384428262710571289e-01 -7.969135046005249023e-02
-9.403625875711441040e-02 2.268072366714477539e-01 -1.002563089132308960e-01
3.343096971511840820e-01 2.600775659084320068e-01 4.056343138217926025e-01
8.850888162851333618e-02 -4.384428262710571289e-01 4.764348641037940979e-02
4.581943154335021973e-01 -1.163459643721580505e-01 -4.431276619434356689e-01
2.636206150054931641e-01 2.600775659084320068e-01 -3.992605507373809814e-01
2.925609983503818512e-02 1.298844665288925171e-01 3.437912166118621826e-01
-4.870918393135070801e-01 2.600775659084320068e-01 3.743797242641448975e-01
4.247544705867767334e-01 1.198164969682693481e-01 2.222745269536972046e-01
-1.497046649456024170e-01 2.600775659084320068e-01 1.963371485471725464e-01
-1.751971542835235596e-01 2.268072366714477539e-01 4.497933685779571533e-01
-2.530617713928222656e-01 1.258714497089385986e-01 1.052187941968441010e-02
4.183245301246643066e-01 -4.552755057811737061e-01 3.884222805500030518e-01
-4.305974245071411133e-01 2.600775659084320068e-01 -1.774819642305374146e-01
3.074798285961151123e-01 2.600775659084320068e-01 -1.318474411964416504e-01
9.894222766160964966e-02 -4.384428262710571289e-01 -4.152541160583496094e-01
-1.789470613002777100e-01 -4.671712517738342285e-01 -4.761353135108947754e-02
2.013745456933975220e-01 1.922022253274917603e-01 -3.422172069549560547e-01
-4.504012167453765869e-01 -6.061325073242187500e-01 -4.317800104618072510e-01
5.176895856857299805e-01 2.600775659084320068e-01 3.408655822277069092e-01
-4.472456872463226318e-01 1.113385409116744995e-01 -3.980385661125183105e-01
4.352158010005950928e-01 -6.573971509933471680e-01 -4.400420486927032471e-01
-3.291633427143096924e-01 2.600775659084320068e-01 4.385322332382202148e-01
-4.483977258205413818e-01 -4.409235417842864990e-01 2.428859919309616089e-01
-3.353402391076087952e-02 2.268072366714477539e-01 9.793797135353088379e-02
4.488274157047271729e-01 -2.573174238204956055e-01 4.190221726894378662e-01
4.786668419837951660e-01 2.600775659084320068e-01 -4.301362484693527222e-02
4.247544705867767334e-01 1.631757318973541260e-01 5.713594332337379456e-02
3.388323187828063965e-01 -4.384428262710571289e-01 3.362581431865692139e-01
-4.441460967063903809e-01 -6.950650215148925781e-01 4.108169376850128174e-01
4.069786369800567627e-01 -2.783497571945190430e-01 -4.303193390369415283e-01
-4.094492495059967041e-01 1.714745163917541504e-01 3.274554386734962463e-02
-2.238534837961196899e-01 -4.384428262710571289e-01 -3.809759914875030518e-01
-2.874325811862945557e-01 2.268072366714477539e-01 2.803458571434020996e-01
7.481764256954193115e-02 2.267451882362365723e-01 4.177328646183013916e-01
-1.273554861545562744e-01 -4.384428262710571289e-01 -3.435204625129699707e-01
-1.447668373584747314e-01 2.268072366714477539e-01 -5.287950485944747925e-02
8.946602791547775269e-02 2.600775659084320068e-01 1.156806126236915588e-01
9.032177925109863281e-02 4.375078529119491577e-02 -1.217436268925666809e-01
1.105495095252990723e-01 2.600775659084320068e-01 -1.917919963598251343e-01
-2.606437802314758301e-01 2.711562626063823700e-02 3.462334573268890381e-01
1.857944428920745850e-01 1.739980429410934448e-01 3.437912166118621826e-01
2.619510591030120850e-01 -4.384428262710571289e-01 8.542063296772539616e-04
3.613536953926086426e-01 2.569054365158081055e-01 5.280565619468688965e-01
-5.848192796111106873e-02 2.600775659084320068e-01 1.933520585298538208e-01
1.788229867815971375e-02 2.268072366714477539e-01 -2.970188260078430176e-01
-4.533495604991912842e-01 -2.012368291616439819e-01 -4.569726586341857910e-01
2.057669311761856079e-01 -4.671712517738342285e-01 -2.913266122341156006e-01
4.181488454341888428e-01 2.410560995340347290e-01 -5.070161819458007812e-01
4.191033542156219482e-01 1.652080267667770386e-01 4.247466921806335449e-01
1.152325328439474106e-02 -4.384428262710571289e-01 1.996106803417205811e-01
-3.521668165922164917e-02 1.527074128389358521e-01 3.437912166118621826e-01
8.410862088203430176e-02 1.930177509784698486e-01 3.495498299598693848e-01
-4.804508015513420105e-02 4.375078529119491577e-02 -5.986921861767768860e-02
2.364970445632934570e-01 3.820631280541419983e-02 -2.706474810838699341e-02
-1.368037164211273193e-01 -4.671712517738342285e-01 3.446417450904846191e-01
-6.883250176906585693e-02 7.752804458141326904e-02 -3.700033128261566162e-01
2.317860350012779236e-02 -4.384428262710571289e-01 -1.629429459571838379e-01
-4.519580006599426270e-01 2.266481816768646240e-01 -3.948463201522827148e-01
-2.534769773483276367e-01 6.931754201650619507e-02 -8.843487501144409180e-02
2.566574513912200928e-01 2.600775659084320068e-01 -4.962043464183807373e-01
-3.998340666294097900e-01 5.140622705221176147e-02 4.475023150444030762e-01
1.727186739444732666e-01 2.600775659084320068e-01 -3.776133060455322266e-01
-4.597935080528259277e-01 -1.366911828517913818e-01 4.649198055267333984e-01
-3.733119070529937744e-01 -4.671712517738342285e-01 5.112864077091217041e-02
4.461141526699066162e-01 -4.098123013973236084e-01 -4.196211695671081543e-01
-3.663749992847442627e-01 2.600775659084320068e-01 -4.526353180408477783e-01
4.025740027427673340e-01 1.508621871471405029e-01 -5.724549666047096252e-02
-4.289243817329406738e-01 -4.372116550803184509e-02 -4.164865911006927490e-01
-2.819335758686065674e-01 1.141802519559860229e-01 -3.879793584346771240e-01
-2.543126642704010010e-01 1.359840035438537598e-01 -2.876230180263519287e-01
2.725487351417541504e-01 4.375078529119491577e-02 1.859815865755081177e-01
-1.636204570531845093e-01 2.600775659084320068e-01 -4.092131555080413818e-01
-3.675838708877563477e-01 2.600775659084320068e-01 5.467323213815689087e-02
-2.649168670177459717e-02 2.600775659084320068e-01 -3.922598361968994141e-01
4.025740027427673340e-01 1.089119911193847656e-01 9.045299142599105835e-02
4.173184335231781006e-01 -4.560534954071044922e-01 6.624173372983932495e-03
-5.266653299331665039e-01 2.600775659084320068e-01 3.858676552772521973e-02
-9.369011223316192627e-02 2.600775659084320068e-01 -2.761390209197998047e-01
-4.124081134796142578e-01 2.711562626063823700e-02 2.941480278968811035e-01
-2.413461208343505859e-01 3.820631280541419983e-02 1.117383837699890137e-01
-4.086153507232666016e-01 -4.137300848960876465e-01 -4.370936751365661621e-01
2.541610002517700195e-01 -4.671712517738342285e-01 3.688597679138183594e-01
3.553608059883117676e-01 -4.671712517738342285e-01 7.983450591564178467e-02
3.824249505996704102e-01 1.636232733726501465e-01 -4.328944981098175049e-01
4.407908618450164795e-01 2.600775659084320068e-01 -2.031816095113754272e-01
6.665199995040893555e-02 3.820631280541419983e-02 7.732590287923812866e-02
4.435364007949829102e-01 -5.119500160217285156e-01 -4.428060054779052734e-01
-2.537960410118103027e-01 1.687700152397155762e-01 -1.645058393478393555e-01
-1.796253770589828491e-01 2.600775659084320068e-01 4.002542197704315186e-01
2.417600452899932861e-01 2.268072366714477539e-01 1.412482559680938721e-01
4.461989700794219971e-01 2.600775659084320068e-01 8.503763377666473389e-02
4.259406328201293945e-01 3.131396695971488953e-02 3.841050565242767334e-01
4.247544705867767334e-01 3.061907179653644562e-02 6.720426678657531738e-02
4.301590919494628906e-01 2.600775659084320068e-01 -2.899805307388305664e-01
-3.691598773002624512e-01 2.541887164115905762e-01 -5.245254635810852051e-01
-6.481231003999710083e-02 -4.671712517738342285e-01 3.365002870559692383e-01
1.075207218527793884e-01 -4.632377922534942627e-01 4.097513854503631592e-01
-4.565925300121307373e-01 -3.110818266868591309e-01 4.317911267280578613e-01
2.820161879062652588e-01 1.165718138217926025e-01 -3.382592201232910156e-01
-4.481468796730041504e-01 -2.986266911029815674e-01 -4.535968303680419922e-01
-4.354867339134216309e-02 2.600775659084320068e-01 -1.531310826539993286e-01
3.373349905014038086e-01 2.600775659084320068e-01 -2.744939625263214111e-01
-4.319592714309692383e-01 2.600775659084320068e-01 7.922997325658798218e-02
-2.609025239944458008e-01 -4.384428262710571289e-01 -5.400736629962921143e-02
-4.743526279926300049e-01 1.945640593767166138e-01 4.532434642314910889e-01
5.714362487196922302e-02 4.375078529119491577e-02 2.492792159318923950e-01
1.311539709568023682e-01 2.600775659084320068e-01 -3.542278707027435303e-02
2.354419976472854614e-01 4.375078529119491577e-02 2.701004445552825928e-01
-4.316297471523284912e-01 1.029899194836616516e-01 -2.368417680263519287e-01
-5.838621407747268677e-02 4.375078529119491577e-02 2.073037028312683105e-01
-3.492966592311859131e-01 -4.671712517738342285e-01 -2.799265384674072266e-01
-2.034063488245010376e-01 2.268072366714477539e-01 9.802926331758499146e-03
-3.405686914920806885e-01 2.600775659084320068e-01 2.663889825344085693e-01
-3.968490064144134521e-01 2.528373003005981445e-01 5.226327776908874512e-01
1.421607434749603271e-01 -4.671712517738342285e-01 2.525929510593414307e-01
-2.186516523361206055e-01 2.600775659084320068e-01 4.333750307559967041e-01
1.842122972011566162e-01 1.112406179308891296e-01 4.001029729843139648e-01
-2.291864007711410522e-01 9.697081148624420166e-02 3.765702545642852783e-01
-3.729893565177917480e-01 2.600775659084320068e-01 -2.162844836711883545e-01
-4.057465493679046631e-01 -7.360953092575073242e-02 4.439377486705780029e-01
-1.738606244325637817e-01 7.516794651746749878e-02 -4.032482504844665527e-01
2.942051738500595093e-02 2.268072366714477539e-01 2.124145925045013428e-01
-2.064849436283111572e-01 1.242622137069702148e-01 -3.382592201232910156e-01
3.503224849700927734e-01 -4.671712517738342285e-01 1.749669611454010010e-01
1.094726100564002991e-01 1.687647700309753418e-01 -4.254278540611267090e-01
4.202668070793151855e-01 2.239672839641571045e-01 2.626277208328247070e-01
-3.424485027790069580e-02 -4.384428262710571289e-01 -3.019426763057708740e-01
-1.497518718242645264e-01 -4.384428262710571289e-01 -2.136481851339340210e-01
3.944806158542633057e-01 4.915053024888038635e-03 3.887588083744049072e-01
1.943475753068923950e-01 2.600775659084320068e-01 -2.452148497104644775e-01
-4.644848108291625977e-01 2.268072366714477539e-01 -2.909175455570220947e-01
4.025740027427673340e-01 7.154128700494766235e-02 -2.598998546600341797e-01
-2.537077665328979492e-01 9.036168456077575684e-02 -1.434686928987503052e-01
4.917006492614746094e-01 2.600775659084320068e-01 1.449439823627471924e-01
4.247544705867767334e-01 1.272639036178588867e-01 -3.096741437911987305e-01
4.389517307281494141e-01 -7.364715337753295898e-01 4.181751608848571777e-01
-4.451346993446350098e-01 1.232465058565139771e-01 4.043825864791870117e-01
-4.250538349151611328e-01 2.600775659084320068e-01 -2.767080664634704590e-01
-4.566930234432220459e-01 3.954543545842170715e-02 -4.054780900478363037e-01
1.307938396930694580e-01 -4.671712517738342285e-01 -1.830998659133911133e-01
-3.724299073219299316e-01 -4.384428262710571289e-01 4.222738444805145264e-01
1.590397506952285767e-01 3.820631280541419983e-02 -5.301752686500549316e-02
-3.348808884620666504e-01 1.221722140908241272e-01 4.309563636779785156e-01
2.973961234092712402e-01 2.712000347673892975e-02 4.152879714965820312e-01
1.360725760459899902e-01 4.375078529119491577e-02 1.737134903669357300e-01
1.121211573481559753e-01 -4.384428262710571289e-01 -1.775847375392913818e-02
-5.442781746387481689e-02 1.073482334613800049e-01 -4.254278540611267090e-01
4.358425140380859375e-01 -1.051857993006706238e-01 4.082374274730682373e-01
-2.363777011632919312e-01 1.637194305658340454e-01 2.226263098418712616e-02
-3.691913485527038574e-01 -4.671712517738342285e-01 1.403785198926925659e-01
-4.336716532707214355e-01 2.600775659084320068e-01 2.296502590179443359e-01
3.677574098110198975e-01 4.375078529119491577e-02 -3.017512559890747070e-01
3.338901102542877197e-01 -4.671712517738342285e-01 -2.117233872413635254e-01
3.654873371124267578e-01 2.600775659084320068e-01 2.834366858005523682e-01
2.673110961914062500e-01 -4.384428262710571289e-01 6.936208903789520264e-02
1.073249131441116333e-01 2.600775659084320068e-01 -3.368632793426513672e-01
-4.472211897373199463e-01 2.417160719633102417e-01 -5.078955292701721191e-01
4.435932636260986328e-01 2.258414030075073242e-01 4.001956582069396973e-01
6.976521015167236328e-02 8.665022999048233032e-02 -3.548943400382995605e-01
-1.154571399092674255e-01 4.375078529119491577e-02 -8.063795976340770721e-04
-2.161193639039993286e-01 2.600775659084320068e-01 -2.298558950424194336e-01
-1.236011981964111328e-01 1.282726228237152100e-01 3.437912166118621826e-01
4.328312277793884277e-01 2.268072366714477539e-01 -3.807067573070526123e-01
-3.313263133168220520e-02 2.600775659084320068e-01 -4.647950232028961182e-01
3.103407919406890869e-01 2.600775659084320068e-01 4.449219703674316406e-01
1.640116721391677856e-01 2.600775659084320068e-01 2.077748477458953857e-01
-4.089387655258178711e-01 1.792951375246047974e-01 -3.738825917243957520e-01
1.921256035566329956e-01 1.127091273665428162e-01 4.309563636779785156e-01
-2.260877043008804321e-01 1.525981575250625610e-01 4.309563636779785156e-01
4.346432685852050781e-01 -4.496113061904907227e-01 4.538920819759368896e-01
8.227378875017166138e-02 2.600775659084320068e-01 -2.869010269641876221e-01
-2.241751551628112793e-01 2.600775659084320068e-01 -3.559144437313079834e-01
1.663499176502227783e-01 5.737550184130668640e-02 -4.254278540611267090e-01
4.270693752914667130e-03 1.846237033605575562e-01 -4.032482504844665527e-01
-1.677663475275039673e-01 4.375078529119491577e-02 -1.367092132568359375e-01
-2.978781461715698242e-01 2.600775659084320068e-01 -4.682333394885063171e-02
4.502967596054077148e-01 1.562361866235733032e-01 -4.043531119823455811e-01
-5.505691468715667725e-02 2.268072366714477539e-01 3.541589975357055664e-01
-4.152332246303558350e-01 2.268072366714477539e-01 -1.266709715127944946e-01
4.631024599075317383e-01 1.367011014372110367e-02 -4.517708420753479004e-01
1.660404801368713379e-01 4.375078529119491577e-02 3.281123340129852295e-01
-5.073130503296852112e-02 2.600775659084320068e-01 -4.427024349570274353e-02
-1.365172024816274643e-02 3.820631280541419983e-02 6.604616343975067139e-02
-2.522820830345153809e-01 1.760653257369995117e-01 1.964962333440780640e-01
3.102769553661346436e-01 2.268072366714477539e-01 -3.698870539665222168e-01
-9.479934722185134888e-02 -4.384428262710571289e-01 -3.034719638526439667e-02
3.317555487155914307e-01 2.268072366714477539e-01 1.670659035444259644e-01
4.416291117668151855e-01 -1.654429361224174500e-02 4.023747742176055908e-01
2.531006932258605957e-01 -4.671712517738342285e-01 1.881930828094482422e-01
-4.316297471523284912e-01 1.007443442940711975e-01 2.435651719570159912e-01
4.247544705867767334e-01 3.951136022806167603e-02 2.845685696229338646e-03
2.371185272932052612e-01 2.600775659084320068e-01 -1.680774390697479248e-01
4.774876236915588379e-01 2.268072366714477539e-01 -2.516570091247558594e-01
-5.311057567596435547e-01 2.600775659084320068e-01 -4.085427224636077881e-01
3.732057213783264160e-01 -4.384428262710571289e-01 2.350950539112091064e-01
4.247544705867767334e-01 2.163809090852737427e-01 1.930190324783325195e-01
-3.828475475311279297e-01 1.578515470027923584e-01 3.840132653713226318e-01
-3.874916732311248779e-01 9.372998960316181183e-03 3.836138248443603516e-01
-2.764074504375457764e-01 -4.671712517738342285e-01 -1.894126683473587036e-01
-2.054028064012527466e-01 2.600775659084320068e-01 8.147590607404708862e-02
1.480898112058639526e-01 4.375078529119491577e-02 -3.235532343387603760e-01
-3.391391038894653320e-02 -4.384428262710571289e-01 8.077312260866165161e-02
-2.746854722499847412e-01 -4.671712517738342285e-01 4.073803499341011047e-02
3.053400218486785889e-01 3.663640841841697693e-02 3.604263663291931152e-01
-5.134348273277282715e-01 2.600775659084320068e-01 -2.702894806861877441e-01
4.075467884540557861e-01 -1.736699342727661133e-01 -4.296629130840301514e-01
6.311220675706863403e-02 3.820631280541419983e-02 -1.993407905101776123e-01
2.896987199783325195e-01 4.375078529119491577e-02 -1.738098412752151489e-01
-2.545844912528991699e-01 1.448247134685516357e-01 3.437912166118621826e-01
2.297856360673904419e-01 2.268072366714477539e-01 3.302556574344635010e-01
2.446603327989578247e-01 1.838020533323287964e-01 -4.254278540611267090e-01
4.410058557987213135e-01 1.012556925415992737e-01 4.012961387634277344e-01
4.247544705867767334e-01 7.921069115400314331e-02 2.779316008090972900e-01
6.871567666530609131e-02 2.600775659084320068e-01 3.568608760833740234e-01
2.246520072221755981e-01 -4.671712517738342285e-01 3.102421164512634277e-01
-4.542446434497833252e-01 -8.648471906781196594e-03 -4.632155299186706543e-01
3.370993584394454956e-02 1.066253408789634705e-01 4.001755416393280029e-01
3.430704399943351746e-02 2.600775659084320068e-01 -1.707382351160049438e-01
-1.289245039224624634e-01 2.600775659084320068e-01 1.307514868676662445e-02
-2.093743346631526947e-02 2.600775659084320068e-01 -2.462235391139984131e-01
8.645340800285339355e-03 9.868232160806655884e-02 -3.866393268108367920e-01
2.421988546848297119e-01 1.524224430322647095e-01 3.934912383556365967e-01
2.378440350294113159e-01 2.799761667847633362e-02 -4.254278540611267090e-01
-9.258960932493209839e-02 2.600775659084320068e-01 5.415322631597518921e-02
2.417311966419219971e-01 3.820631280541419983e-02 4.622874036431312561e-02
-4.094492495059967041e-01 7.807348668575286865e-02 1.633491963148117065e-01
1.265963912010192871e-01 -4.384428262710571289e-01 1.246769204735755920e-01
-3.111720085144042969e-02 1.270890682935714722e-01 -3.382592201232910156e-01
-4.639542102813720703e-01 2.600775659084320068e-01 1.858408600091934204e-01
-1.645671278238296509e-01 4.375078529119491577e-02 -2.235527038574218750e-01
-4.312713444232940674e-01 -5.551580786705017090e-01 -4.145504534244537354e-01
-4.094492495059967041e-01 1.797855198383331299e-01 -1.989133507013320923e-01
8.608672767877578735e-02 2.268072366714477539e-01 -1.199385970830917358e-01
-2.705115973949432373e-01 2.268072366714477539e-01 4.352779388427734375e-01
-4.423017203807830811e-01 2.600775659084320068e-01 3.413345292210578918e-02
-4.241832196712493896e-01 2.711562626063823700e-02 -5.160767585039138794e-02
-3.871656358242034912e-01 -4.671712517738342285e-01 -5.176956206560134888e-02
3.732337057590484619e-01 4.898405820131301880e-02 -3.894032537937164307e-01
-5.304213762283325195e-01 2.549168169498443604e-01 -1.647261232137680054e-01
3.444362282752990723e-01 3.820631280541419983e-02 1.864938139915466309e-01
4.025740027427673340e-01 1.968314945697784424e-01 -2.129200398921966553e-01
-1.415842026472091675e-01 9.919280558824539185e-02 3.836286962032318115e-01
-4.072456359863281250e-01 6.336351856589317322e-03 -3.750914931297302246e-01
-3.543865978717803955e-01 -4.384428262710571289e-01 -1.551651358604431152e-01
2.472319602966308594e-01 2.268072366714477539e-01 2.737218737602233887e-01
3.347738385200500488e-01 1.402872204780578613e-01 3.604263663291931152e-01
4.174959063529968262e-01 -5.898688435554504395e-01 4.269966483116149902e-01
-4.045210182666778564e-01 -2.661007046699523926e-01 4.471597075462341309e-01
-2.037590555846691132e-02 2.600775659084320068e-01 1.539630293846130371e-01
2.551076710224151611e-01 2.600775659084320068e-01 4.130030572414398193e-01
-4.404721856117248535e-01 -4.470772445201873779e-01 -3.851166367530822754e-01
-3.457277119159698486e-01 1.808563172817230225e-01 -4.032482504844665527e-01
3.198209032416343689e-02 -4.671712517738342285e-01 -4.972825944423675537e-02
-4.681446850299835205e-01 2.268072366714477539e-01 -1.096525788307189941e-02
-4.528321027755737305e-01 -3.863976001739501953e-01 4.226147532463073730e-01
1.070224791765213013e-01 -4.671712517738342285e-01 3.118215799331665039e-01
-4.094492495059967041e-01 8.974720537662506104e-02 -1.465560495853424072e-01
-9.732639789581298828e-02 1.630586087703704834e-01 -3.382592201232910156e-01
1.175607219338417053e-01 2.268072366714477539e-01 3.097451291978359222e-02
4.247544705867767334e-01 1.903482377529144287e-01 3.435158729553222656e-01
9.752880036830902100e-02 2.405674457550048828e-01 -5.063649415969848633e-01
8.235437422990798950e-02 -4.384428262710571289e-01 -3.321527242660522461e-01
-2.456817030906677246e-01 1.851525604724884033e-01 -2.319799810647964478e-01
-4.316297471523284912e-01 3.162602335214614868e-02 1.446765065193176270e-01
4.356808066368103027e-01 2.312922924757003784e-01 4.939052462577819824e-01
9.944833815097808838e-02 1.128953099250793457e-01 -4.254278540611267090e-01
-9.246111661195755005e-02 -4.451647102832794189e-01 -4.323752522468566895e-01
2.049181759357452393e-01 2.600775659084320068e-01 -2.943873591721057892e-02
-4.846841469407081604e-02 9.787815064191818237e-02 3.835832178592681885e-01
-3.787147700786590576e-01 2.126117795705795288e-01 3.982979357242584229e-01
7.400656491518020630e-02 1.524224430322647095e-01 3.764286637306213379e-01
-4.668658673763275146e-01 2.600775659084320068e-01 -4.324548244476318359e-01
-5.252633094787597656e-01 2.510480582714080811e-01 2.143411338329315186e-01
2.068062424659729004e-01 -4.384428262710571289e-01 -3.647551834583282471e-01
1.153999343514442444e-01 2.600775659084320068e-01 4.690438508987426758e-01
-4.508216083049774170e-01 -5.382397174835205078e-01 4.352613389492034912e-01
-2.730176746845245361e-01 1.928621828556060791e-01 3.550444841384887695e-01
4.824604392051696777e-01 2.271411567926406860e-01 -4.349398910999298096e-01
-3.628379106521606445e-02 2.268072366714477539e-01 4.058974385261535645e-01
-1.078384146094322205e-01 -4.671712517738342285e-01 -1.177166104316711426e-01
-2.301907539367675781e-01 -4.671712517738342285e-01 1.488783359527587891e-01
-1.260766685009002686e-01 3.820631280541419983e-02 1.006721779704093933e-01
2.978165745735168457e-01 -4.671712517738342285e-01 -4.229152575135231018e-02
-1.228730604052543640e-01 2.600775659084320068e-01 4.575414955615997314e-01
-2.163072973489761353e-01 -4.384428262710571289e-01 3.499903678894042969e-01
-1.608075946569442749e-01 2.268072366714477539e-01 -2.190615385770797729e-01
-2.038739919662475586e-01 1.252613216638565063e-01 -4.032700955867767334e-01
-4.094492495059967041e-01 1.057713255286216736e-01 -5.775484070181846619e-02
-2.821083962917327881e-01 4.509691521525382996e-02 -4.032482504844665527e-01
-1.537701487541198730e-01 2.600775659084320068e-01 2.758389711380004883e-01
-2.241122275590896606e-01 6.154062598943710327e-02 -3.700033128261566162e-01
4.546856880187988281e-01 2.268072366714477539e-01 2.638518437743186951e-02
1.472506672143936157e-01 8.070629835128784180e-02 3.437912166118621826e-01
2.880248129367828369e-01 8.304192870855331421e-02 -3.799113035202026367e-01
4.247544705867767334e-01 1.976924836635589600e-01 8.468195796012878418e-02
-3.766501247882843018e-01 -4.384428262710571289e-01 -3.970071077346801758e-01
4.025740027427673340e-01 1.038745120167732239e-01 2.156841568648815155e-02
-1.083191782236099243e-01 2.268072366714477539e-01 -3.956819772720336914e-01
3.237653374671936035e-01 2.268072366714477539e-01 -2.093842774629592896e-01
1.466440260410308838e-01 1.776631921529769897e-01 -3.548943400382995605e-01
4.157538115978240967e-01 2.711562626063823700e-02 -1.398883461952209473e-01
3.453636467456817627e-01 1.739726960659027100e-01 -3.382592201232910156e-01
1.554934978485107422e-01 1.212622672319412231e-01 3.521092236042022705e-01
-2.455960363149642944e-01 2.600775659084320068e-01 -1.586641818284988403e-01
3.817317783832550049e-01 2.214900851249694824e-01 -4.331164956092834473e-01
2.616407275199890137e-01 -4.384428262710571289e-01 -1.840255409479141235e-01
4.322412014007568359e-01 -4.445161223411560059e-01 8.091097325086593628e-02
1.271077245473861694e-01 2.600775659084320068e-01 3.972734808921813965e-01
1.438416391611099243e-01 2.133599966764450073e-01 -4.254278540611267090e-01
-7.222639769315719604e-02 3.820631280541419983e-02 -1.272365152835845947e-01
3.527857065200805664e-01 2.600775659084320068e-01 -5.025118589401245117e-01
-3.760024011135101318e-01 2.268072366714477539e-01 -3.413727879524230957e-01
-4.340274333953857422e-01 -2.137311697006225586e-01 4.157765805721282959e-01
4.368023276329040527e-01 -6.049926280975341797e-01 -4.007727801799774170e-01
-1.012231707572937012e-01 4.570615664124488831e-02 -3.548943400382995605e-01
2.013745456933975220e-01 3.820631280541419983e-02 -1.915865689516067505e-01
-2.530346810817718506e-01 6.909027695655822754e-02 1.696291565895080566e-02
-1.931740492582321167e-01 2.268072366714477539e-01 -4.546955823898315430e-01
-2.699128091335296631e-01 -4.384428262710571289e-01 -4.017115831375122070e-01
3.997095525264739990e-01 -4.725356400012969971e-01 -4.377536177635192871e-01
-9.968473762273788452e-02 2.600775659084320068e-01 -5.281844139099121094e-01
-2.848531007766723633e-01 2.268072366714477539e-01 2.772484533488750458e-02
1.510766297578811646e-01 -4.671712517738342285e-01 -3.035160601139068604e-01
-2.937716245651245117e-01 -4.384428262710571289e-01 -2.356599569320678711e-01
-1.138531491160392761e-01 4.375078529119491577e-02 3.119395971298217773e-01
2.469636201858520508e-01 -4.671712517738342285e-01 2.615009844303131104e-01
-5.878926441073417664e-02 3.820631280541419983e-02 1.434649974107742310e-01
7.392990589141845703e-02 -4.671712517738342285e-01 -1.960541307926177979e-01
-4.316297471523284912e-01 1.659553945064544678e-01 8.478493243455886841e-02
1.466335505247116089e-01 2.268072366714477539e-01 2.856245934963226318e-01
-9.927304089069366455e-02 1.524224430322647095e-01 3.928636312484741211e-01
-5.194303393363952637e-01 2.600775659084320068e-01 3.033453822135925293e-01
4.247544705867767334e-01 7.839690148830413818e-02 -2.326128184795379639e-01
-1.349121481180191040e-01 -4.384428262710571289e-01 1.720317006111145020e-01
-4.407589137554168701e-01 -1.537171304225921631e-01 -4.047403633594512939e-01
5.243183672428131104e-02 2.268072366714477539e-01 4.793583154678344727e-01
2.013395726680755615e-01 1.384935677051544189e-01 -3.845790624618530273e-01
-2.145914286375045776e-01 2.600775659084320068e-01 1.787500977516174316e-01
-2.358995527029037476e-01 1.092887371778488159e-01 1.362046599388122559e-01
-3.388240039348602295e-01 -4.384428262710571289e-01 2.721817195415496826e-01
3.043540418148040771e-01 3.820631280541419983e-02 -7.764136418700218201e-03
-2.764660120010375977e-01 2.600775659084320068e-01 2.051297873258590698e-01
-8.732337504625320435e-02 -4.671712517738342285e-01 4.012996256351470947e-01
4.131104946136474609e-01 -1.913155764341354370e-01 4.553160071372985840e-01
4.507600367069244385e-01 2.268072366714477539e-01 -1.654079258441925049e-01
4.386890307068824768e-02 -4.671712517738342285e-01 -3.082161247730255127e-01
-1.761770248413085938e-01 1.334307193756103516e-01 3.437912166118621826e-01
-1.961355060338973999e-01 4.375078529119491577e-02 1.582312881946563721e-01
1.287567149847745895e-02 3.820631280541419983e-02 2.784551680088043213e-01
-1.062527820467948914e-01 7.431571185588836670e-02 3.747687339782714844e-01
-4.618450105190277100e-01 1.407482940703630447e-02 4.702422618865966797e-01
3.929387032985687256e-01 -4.671712517738342285e-01 3.353403508663177490e-01
2.004873156547546387e-01 2.600775659084320068e-01 -4.549875557422637939e-01
3.539141714572906494e-01 1.313984245061874390e-01 4.087767601013183594e-01
-1.146040037274360657e-01 -4.384428262710571289e-01 9.597123414278030396e-02
4.012016355991363525e-01 -3.694294095039367676e-01 -4.417002201080322266e-01
-3.807059824466705322e-01 7.750792801380157471e-02 -4.023636281490325928e-01
-2.140319943428039551e-01 1.897660940885543823e-01 -3.397268354892730713e-01
-2.517593801021575928e-01 7.407794892787933350e-02 3.210915029048919678e-01
-3.155010342597961426e-01 2.267451882362365723e-01 -4.249138832092285156e-01
8.094505220651626587e-02 5.180044844746589661e-02 4.309563636779785156e-01
4.738924205303192139e-01 2.268072366714477539e-01 -3.141941726207733154e-01
-4.409607946872711182e-01 2.268072366714477539e-01 3.557682335376739502e-01
2.745923995971679688e-01 2.600775659084320068e-01 1.915470361709594727e-01
2.779944241046905518e-01 3.820631280541419983e-02 -2.794169187545776367e-01
4.247544705867767334e-01 2.057613730430603027e-01 -8.260877430438995361e-02
1.088541559875011444e-02 5.190183594822883606e-02 3.604263663291931152e-01
1.668394207954406738e-01 1.470231115818023682e-01 4.001117050647735596e-01
4.226863384246826172e-01 2.600775659084320068e-01 -6.266108248382806778e-03
-1.832546591758728027e-01 2.268072366714477539e-01 1.323245018720626831e-01
2.230611443519592285e-01 2.268072366714477539e-01 -3.139642775058746338e-01
-4.440481960773468018e-01 -7.255146503448486328e-01 -4.019125998020172119e-01
-4.184013977646827698e-02 -4.671712517738342285e-01 2.037539482116699219e-01
7.855848222970962524e-02 3.820631280541419983e-02 -6.138352304697036743e-02
-5.317286401987075806e-02 3.820631280541419983e-02 -2.774431705474853516e-01
2.552291452884674072e-01 6.039117649197578430e-02 -3.713511824607849121e-01
-1.927903145551681519e-01 2.268072366714477539e-01 -1.018445640802383423e-01
-2.446178942918777466e-01 1.851525604724884033e-01 2.957056760787963867e-01
4.027470648288726807e-01 2.265418879687786102e-02 4.412253797054290771e-01
-1.703904271125793457e-01 3.103600814938545227e-02 -4.254278540611267090e-01
-4.094492495059967041e-01 2.191369533538818359e-01 -2.228757552802562714e-02
2.136906981468200684e-01 -4.671712517738342285e-01 -2.287868708372116089e-01
-4.094492495059967041e-01 2.071127593517303467e-01 1.415253579616546631e-01
4.247544705867767334e-01 1.763957291841506958e-01 2.499216645956039429e-01
-2.600922286510467529e-01 2.600775659084320068e-01 -3.120543658733367920e-01
-1.046426743268966675e-01 1.093438044190406799e-01 -3.382592201232910156e-01
4.440556466579437256e-01 -5.900873541831970215e-01 4.393984973430633545e-01
-4.066695868968963623e-01 1.156391277909278870e-01 -4.479955732822418213e-01
3.730571269989013672e-01 -4.384428262710571289e-01 -3.594886958599090576e-01
-4.316297471523284912e-01 8.012151718139648438e-02 -2.993369400501251221e-01
3.272871077060699463e-01 2.600775659084320068e-01 -3.247638642787933350e-01
3.733228445053100586e-01 2.600775659084320068e-01 8.479736745357513428e-03
2.616407275199890137e-01 8.087237179279327393e-02 3.604263663291931152e-01
4.286884143948554993e-02 2.600775659084320068e-01 -9.906228631734848022e-02
-1.558863669633865356e-01 1.163121908903121948e-01 -3.709569573402404785e-01
-4.371584653854370117e-01 4.306547343730926514e-02 3.884039223194122314e-01
1.815165579319000244e-01 3.820631280541419983e-02 2.186216264963150024e-01
-3.705086410045623779e-01 2.600775659084320068e-01 -1.369994282722473145e-01
3.145150840282440186e-02 2.268072366714477539e-01 9.205698221921920776e-02
-4.335029423236846924e-01 -1.482956409454345703e-01 -4.551702141761779785e-01
-2.541832625865936279e-01 8.064599335193634033e-02 -2.567722797393798828e-01
4.309658706188201904e-01 -7.231536507606506348e-01 -4.385770261287689209e-01
4.025740027427673340e-01 9.404256194829940796e-02 3.217943012714385986e-01
-4.196903109550476074e-01 2.268072366714477539e-01 2.855581641197204590e-01
1.661855876445770264e-01 6.861039996147155762e-02 -3.382592201232910156e-01
2.658972144126892090e-02 2.600775659084320068e-01 -8.404278778471052647e-04
3.997497260570526123e-01 1.124294251203536987e-01 4.534086883068084717e-01
7.487235125154256821e-03 3.820631280541419983e-02 1.284137368202209473e-01
4.184530377388000488e-01 1.899819970130920410e-01 4.648586511611938477e-01
4.196846485137939453e-01 -4.021682441234588623e-01 4.246487915515899658e-01
3.845420181751251221e-01 -8.037471212446689606e-03 -4.174524843692779541e-01
-4.203144311904907227e-01 2.600775659084320068e-01 3.869231939315795898e-01
-5.533260479569435120e-02 2.268072366714477539e-01 2.830276191234588623e-01
-1.157534494996070862e-01 2.600775659084320068e-01 -4.323184490203857422e-01
-4.274724721908569336e-01 -4.376351535320281982e-01 4.534515142440795898e-01
3.740064203739166260e-01 2.600775659084320068e-01 1.603772342205047607e-01
2.845668494701385498e-01 1.302419900894165039e-01 3.723605573177337646e-01
-3.440572619438171387e-01 2.268072366714477539e-01 -6.189251691102981567e-02
4.220858216285705566e-01 -4.384428262710571289e-01 -1.433297097682952881e-01
-4.691263139247894287e-01 2.600775659084320068e-01 4.626750946044921875e-01
2.487126886844635010e-01 -4.671712517738342285e-01 1.130670234560966492e-01
4.553334116935729980e-01 -1.940542757511138916e-01 4.611322879791259766e-01
-4.890673756599426270e-01 2.268072366714477539e-01 7.574289292097091675e-02
4.093732312321662903e-02 -4.671712517738342285e-01 3.423817083239555359e-02
1.851747035980224609e-01 7.551848143339157104e-02 3.668361902236938477e-01
4.614923596382141113e-01 2.268072366714477539e-01 -1.037125363945960999e-01
6.932613905519247055e-03 2.731319330632686615e-02 -3.382592201232910156e-01
-3.676302134990692139e-01 -4.384428262710571289e-01 9.873865544795989990e-02
4.490144550800323486e-01 -2.926731407642364502e-01 4.589933753013610840e-01
4.025740027427673340e-01 1.346404999494552612e-01 -1.464432924985885620e-01
-1.481277793645858765e-01 2.600775659084320068e-01 -9.145317226648330688e-02
4.025740027427673340e-01 1.774813830852508545e-01 5.683248862624168396e-03
1.910347193479537964e-01 -4.384428262710571289e-01 1.524106115102767944e-01
-1.634692400693893433e-01 4.375078529119491577e-02 -2.943274378776550293e-01
2.018107175827026367e-01 -4.384428262710571289e-01 -1.130147799849510193e-01
-3.878111764788627625e-02 6.658508628606796265e-02 -4.254278540611267090e-01
-2.388959974050521851e-01 2.268072366714477539e-01 3.869765102863311768e-01
3.262355625629425049e-01 7.632526755332946777e-02 4.309563636779785156e-01
-2.365276217460632324e-02 2.538723051548004150e-01 5.240129828453063965e-01
-3.638103604316711426e-01 -4.671712517738342285e-01 -1.241199485957622528e-02
-3.679260984063148499e-02 1.524224430322647095e-01 3.919047415256500244e-01
-4.050114154815673828e-01 -4.671712517738342285e-01 -2.495670169591903687e-01
3.773612380027770996e-01 2.268072366714477539e-01 1.121771931648254395e-01
-3.411453217267990112e-03 2.600775659084320068e-01 -3.397626876831054688e-01
-2.366425544023513794e-01 1.057014092803001404e-01 -4.321406036615371704e-02
-1.320887804031372070e-01 2.268072366714477539e-01 -1.628502756357192993e-01
-1.170130372047424316e-01 1.018701940774917603e-01 -4.254278540611267090e-01
3.673168718814849854e-01 4.375078529119491577e-02 1.358961015939712524e-01
-1.912134140729904175e-01 2.268072366714477539e-01 -3.917852044105529785e-01
-4.316297471523284912e-01 1.739962995052337646e-01 -3.082948029041290283e-01
-1.667257584631443024e-02 9.612818062305450439e-02 3.437912166118621826e-01
4.069786369800567627e-01 2.600775659084320068e-01 -1.323395520448684692e-01
3.954307734966278076e-01 2.268072366714477539e-01 -3.321780562400817871e-01
3.950820267200469971e-01 -3.895553573966026306e-02 4.450705647468566895e-01
3.743866384029388428e-01 2.268072366714477539e-01 4.811834692955017090e-01
4.025740027427673340e-01 1.297306120395660400e-01 -1.003035157918930054e-01
4.247544705867767334e-01 1.587081551551818848e-01 1.781041324138641357e-01
-1.973452866077423096e-01 2.711562626063823700e-02 -3.460623621940612793e-01
-4.399600028991699219e-01 -6.833778321743011475e-02 4.097190201282501221e-01
1.106998622417449951e-01 2.268072366714477539e-01 2.123053371906280518e-01
3.186500370502471924e-01 -4.671712517738342285e-01 -2.704442143440246582e-01
-5.832450091838836670e-02 1.774901002645492554e-01 4.309563636779785156e-01
4.517862796783447266e-01 -5.425154417753219604e-02 -4.620013833045959473e-01
4.247544705867767334e-01 6.255544722080230713e-02 2.051577717065811157e-01
-2.428810596466064453e-01 2.268072366714477539e-01 -4.287704527378082275e-01
1.764996163547039032e-02 3.820631280541419983e-02 -4.303049668669700623e-02
1.721155345439910889e-01 4.375078529119491577e-02 -2.783985733985900879e-01
3.384433388710021973e-01 -4.384428262710571289e-01 4.064210355281829834e-01
7.808032445609569550e-03 2.268072366714477539e-01 3.720987588167190552e-02
2.503551542758941650e-01 3.820631280541419983e-02 -7.898385822772979736e-02
-2.953965663909912109e-01 2.268072366714477539e-01 -9.992065280675888062e-02
-2.896126210689544678e-01 2.268072366714477539e-01 -2.665596604347229004e-01
2.802679836750030518e-01 2.600775659084320068e-01 1.150416359305381775e-01
-4.065323472023010254e-01 -4.671712517738342285e-01 2.767156958580017090e-01
-2.353497594594955444e-01 1.005983576178550720e-01 2.674160599708557129e-01
-6.075181439518928528e-02 4.375078529119491577e-02 -1.742732478305697441e-03
3.313630819320678711e-01 2.600775659084320068e-01 -4.455048218369483948e-02
-4.552218914031982422e-01 -2.632787525653839111e-01 4.224915206432342529e-01
-3.157624006271362305e-01 2.600775659084320068e-01 3.230626285076141357e-01
4.395163953304290771e-01 -9.884414076805114746e-02 -3.976294994354248047e-01
2.171652913093566895e-01 2.268072366714477539e-01 3.981528580188751221e-01
-4.887128993868827820e-02 -4.384428262710571289e-01 -1.438026130199432373e-01
-2.061816453933715820e-01 -4.386298656463623047e-01 4.383670687675476074e-01
-1.589710861444473267e-01 1.187483519315719604e-01 -4.254278540611267090e-01
3.619585633277893066e-01 1.368502229452133179e-01 -3.939521014690399170e-01
8.244344592094421387e-02 -4.671712517738342285e-01 3.550785779953002930e-01
1.482733637094497681e-01 3.820631280541419983e-02 -2.213665544986724854e-01
7.818435877561569214e-02 3.820631280541419983e-02 -3.228994011878967285e-01
-1.933051645755767822e-01 4.375078529119491577e-02 -1.386839430779218674e-03
4.443607032299041748e-01 2.600775659084320068e-01 -3.690680265426635742e-01
-4.033637046813964844e-01 -1.471230387687683105e-01 4.479297697544097900e-01
1.062252894043922424e-01 4.375078529119491577e-02 1.273508220911026001e-01
-4.051294028759002686e-01 -4.671712517738342285e-01 -3.468175828456878662e-01
-4.157769381999969482e-01 -9.560120105743408203e-02 -4.496686160564422607e-01
9.011461585760116577e-02 -4.671712517738342285e-01 -2.880251109600067139e-01
-4.219926893711090088e-01 8.405325561761856079e-02 4.275578260421752930e-01
2.150892764329910278e-01 2.712000347673892975e-02 4.164540469646453857e-01
-2.049141824245452881e-01 3.820631280541419983e-02 2.271826267242431641e-01
-2.097471207380294800e-01 4.375078529119491577e-02 -6.244853883981704712e-02
3.589708805084228516e-01 3.487508744001388550e-02 3.604263663291931152e-01
-4.303133487701416016e-01 2.268072366714477539e-01 4.338697791099548340e-01
-4.052229225635528564e-01 -4.671712517738342285e-01 1.889587938785552979e-01
2.747908234596252441e-01 2.268072366714477539e-01 -2.838486433029174805e-01
7.431939989328384399e-02 1.318538337945938110e-01 -3.548943400382995605e-01
-1.388648599386215210e-01 2.268072366714477539e-01 -2.738252580165863037e-01
-1.914402656257152557e-02 2.268072366714477539e-01 -7.672804594039916992e-02
-2.355700135231018066e-01 1.081104502081871033e-01 2.148918211460113525e-01
-2.378042340278625488e-01 8.908636122941970825e-02 -3.179904222488403320e-01
3.681402802467346191e-01 1.562676429748535156e-01 3.604263663291931152e-01
-4.845359921455383301e-01 2.268072366714477539e-01 3.401418328285217285e-01
-2.921518683433532715e-01 -4.671712517738342285e-01 2.362619936466217041e-01
-3.312463462352752686e-01 2.268072366714477539e-01 -2.169007360935211182e-01
1.099328137934207916e-02 4.375078529119491577e-02 -9.012628346681594849e-02
5.400077253580093384e-02 1.760670691728591919e-01 4.309563636779785156e-01
-3.272835537791252136e-02 -4.384428262710571289e-01 -5.110830068588256836e-02
-2.032695710659027100e-02 1.600691676139831543e-01 -3.548943400382995605e-01
-2.287904322147369385e-01 -4.671712517738342285e-01 -3.399742245674133301e-01
4.124610126018524170e-01 3.724041581153869629e-02 -4.540907442569732666e-01
-2.734118998050689697e-01 -4.384428262710571289e-01 3.491145372390747070e-01
3.769923746585845947e-01 4.375078529119491577e-02 -2.006087265908718109e-02
-2.527986764907836914e-01 1.522624939680099487e-01 7.338272035121917725e-02
4.523884952068328857e-01 -1.613479852676391602e-01 -4.222373664379119873e-01
3.978870213031768799e-01 -2.579546272754669189e-01 4.463248848915100098e-01
-2.817158997058868408e-01 1.204170137643814087e-01 4.087767601013183594e-01
2.368007972836494446e-02 -4.384428262710571289e-01 -9.633156657218933105e-02
-3.867954388260841370e-02 -4.384428262710571289e-01 -2.295088618993759155e-01
2.621101438999176025e-01 3.095822222530841827e-02 -3.548943400382995605e-01
3.996916115283966064e-02 -4.671712517738342285e-01 1.753340810537338257e-01
-1.277348548173904419e-01 2.600775659084320068e-01 1.136780381202697754e-01
-2.706899046897888184e-01 2.268072366714477539e-01 -3.747986555099487305e-01
-2.220493108034133911e-01 2.410420924425125122e-01 -5.069969296455383301e-01
-6.907174736261367798e-02 6.674154847860336304e-02 3.437912166118621826e-01
2.033871412277221680e-02 6.698631495237350464e-02 -3.700033128261566162e-01
3.751873373985290527e-01 -4.671712517738342285e-01 2.861350774765014648e-01
-4.316297471523284912e-01 1.504670828580856323e-01 2.942336797714233398e-01
4.493067041039466858e-03 -4.384428262710571289e-01 3.020534515380859375e-01
-2.720552682876586914e-01 -4.671712517738342285e-01 -1.160190999507904053e-01
4.120795056223869324e-02 3.820631280541419983e-02 -3.014243245124816895e-01
-4.015662707388401031e-03 -4.671712517738342285e-01 3.808428943157196045e-01
-4.517115056514739990e-01 -4.703066647052764893e-01 4.280709028244018555e-01
4.467976987361907959e-01 -3.658569157123565674e-01 4.562390744686126709e-01
-2.821062132716178894e-02 9.707920998334884644e-02 4.309563636779785156e-01
4.608236253261566162e-01 2.600775659084320068e-01 3.938452601432800293e-01
-1.531049460172653198e-01 2.531222999095916748e-01 5.230129957199096680e-01
-2.048206478357315063e-01 7.774309068918228149e-02 -4.254278540611267090e-01
1.040505096316337585e-01 1.661214828491210938e-01 4.309563636779785156e-01
3.283832371234893799e-01 2.268072366714477539e-01 3.654743432998657227e-01
2.307611554861068726e-01 2.600775659084320068e-01 3.161785751581192017e-02
-1.051610261201858521e-01 2.600775659084320068e-01 2.262919098138809204e-01
3.243107795715332031e-01 1.557056158781051636e-01 -4.254278540611267090e-01
4.025740027427673340e-01 1.720418184995651245e-01 -2.928537130355834961e-01
-1.448437571525573730e-01 -4.384428262710571289e-01 -2.758234739303588867e-01
-1.273677200078964233e-01 1.222316622734069824e-01 4.309563636779785156e-01
-4.774212092161178589e-02 2.985946647822856903e-02 -3.548943400382995605e-01
7.791085541248321533e-02 1.384935677051544189e-01 -3.818431198596954346e-01
2.715880870819091797e-01 2.268072366714477539e-01 7.435166835784912109e-02
-3.749154880642890930e-02 -4.671712517738342285e-01 1.373200267553329468e-01
1.001467481255531311e-01 6.039117649197578430e-02 -3.850650489330291748e-01
-2.532418370246887207e-01 1.813388168811798096e-01 -3.243019059300422668e-02
-1.381743252277374268e-01 2.711562626063823700e-02 3.584403991699218750e-01
2.445702999830245972e-01 1.322218477725982666e-01 -4.032482504844665527e-01
-2.414221614599227905e-01 -4.671712517738342285e-01 9.315311163663864136e-02
2.696120180189609528e-03 3.820631280541419983e-02 1.995888203382492065e-01
2.153375297784805298e-01 -4.384428262710571289e-01 3.685555756092071533e-01
1.009421870112419128e-01 4.375078529119491577e-02 3.088138103485107422e-01
-2.465190887451171875e-01 1.851525604724884033e-01 -3.077441155910491943e-01
1.221834216266870499e-02 -4.384428262710571289e-01 -8.421701379120349884e-03
3.652094006538391113e-01 -4.384428262710571289e-01 -4.318722710013389587e-02
-3.979110419750213623e-01 -3.301554126664996147e-03 -4.392859637737274170e-01
3.327406644821166992e-01 5.410458147525787354e-02 -3.548943400382995605e-01
-4.340597391128540039e-01 -7.441846728324890137e-01 4.161953032016754150e-01
3.788900375366210938e-01 -4.384428262710571289e-01 1.189357861876487732e-01
3.472534716129302979e-01 2.600775659084320068e-01 -4.160617887973785400e-01
-2.397788465023040771e-01 1.185577884316444397e-01 -4.254278540611267090e-01
-1.026741862297058105e-01 1.927354186773300171e-01 -4.032482504844665527e-01
4.829805195331573486e-01 2.273028790950775146e-01 2.847434878349304199e-01
3.471852838993072510e-01 2.268072366714477539e-01 -8.330342918634414673e-02
-1.606913208961486816e-01 -4.384428262710571289e-01 3.856198787689208984e-01
-7.138384133577346802e-02 1.279623061418533325e-01 3.604263663291931152e-01
-2.370498776435852051e-01 3.511983156204223633e-02 -1.379924118518829346e-01
1.908074617385864258e-01 4.375078529119491577e-02 2.344145253300666809e-02
-4.451198577880859375e-01 2.268072366714477539e-01 -2.132871747016906738e-01
-2.362894266843795776e-01 2.802470885217189789e-02 4.324969276785850525e-02
-1.515901237726211548e-01 1.886437386274337769e-01 3.446294963359832764e-01
-2.457870356738567352e-02 2.600775659084320068e-01 3.719042837619781494e-01
1.949830651283264160e-01 -4.620777964591979980e-01 -4.107288420200347900e-01
-1.942894011735916138e-01 4.375078529119491577e-02 -1.824984699487686157e-01
-1.087203919887542725e-01 -4.671712517738342285e-01 2.017111480236053467e-01
-2.351775318384170532e-01 1.327226907014846802e-01 3.083024322986602783e-01
-4.316297471523284912e-01 1.413475275039672852e-01 2.302962094545364380e-01
-4.103391170501708984e-01 -2.531539499759674072e-01 -4.352397024631500244e-01
-1.671431213617324829e-01 2.600775659084320068e-01 4.157184436917304993e-02
-3.876805007457733154e-01 -1.219385769218206406e-02 4.340008795261383057e-01
3.033653795719146729e-01 1.606862694025039673e-01 -3.382592201232910156e-01
-3.638767898082733154e-01 -4.384428262710571289e-01 -8.039790391921997070e-02
-4.463287591934204102e-01 -4.425493478775024414e-01 3.937154263257980347e-02
-4.488653838634490967e-01 -8.788807690143585205e-02 -3.965805470943450928e-01
-1.225481741130352020e-02 -4.671712517738342285e-01 -2.550721466541290283e-01
-2.552994787693023682e-01 2.268072366714477539e-01 -1.980234980583190918e-01
5.108243823051452637e-01 2.600775659084320068e-01 4.546106159687042236e-01
1.828460693359375000e-01 -4.671712517738342285e-01 2.883588075637817383e-01
3.208020925521850586e-01 2.408131062984466553e-01 5.065999031066894531e-01
2.670825086534023285e-02 1.763502657413482666e-01 3.604263663291931152e-01
-2.415642142295837402e-02 8.304192870855331421e-02 -3.805363178253173828e-01
-8.135443925857543945e-02 2.600775659084320068e-01 4.200448691844940186e-01
1.417892426252365112e-01 -4.671712517738342285e-01 1.110018976032733917e-02
9.329898655414581299e-02 -4.671712517738342285e-01 2.085580378770828247e-01
2.973795235157012939e-01 -4.502825736999511719e-01 -4.258255660533905029e-01
2.595621347427368164e-01 1.346483677625656128e-01 4.309563636779785156e-01
-2.425357997417449951e-01 1.194222792983055115e-01 -3.700033128261566162e-01
4.247544705867767334e-01 2.881140634417533875e-02 1.220983043313026428e-01
