9.006131887435913086e-01 1.480709612369537354e-01 6.171927816467359662e-05
-8.422984480857849121e-01 -9.459455311298370361e-02 -1.176979392766952515e-01
7.596946954727172852e-01 -2.559647336602210999e-02 2.724707424640655518e-01
-7.399414777755737305e-01 -4.013194441795349121e-01 -2.713080048561096191e-01
-2.680229246616363525e-01 1.480709612369537354e-01 7.924762368202209473e-02
-5.485482811927795410e-01 -4.013194441795349121e-01 4.979101419448852539e-01
-5.196799039840698242e-01 -2.849783897399902344e-01 -6.865243315696716309e-01
2.280355989933013916e-01 3.529571890830993652e-01 -4.621681571006774902e-01
1.182261258363723755e-01 1.480709612369537354e-01 6.863427162170410156e-01
6.126025915145874023e-01 3.836592659354209900e-02 5.318171381950378418e-01
-6.819511204957962036e-02 3.132483065128326416e-01 -5.245531797409057617e-01
3.809578949585556984e-03 2.650860249996185303e-01 8.001524209976196289e-02
-2.119603753089904785e-01 4.729207158088684082e-01 -1.569226533174514771e-01
-2.480223923921585083e-01 4.659700691699981689e-01 8.659695740789175034e-04
1.427303850650787354e-01 3.199724555015563965e-01 -5.152236819267272949e-01
-6.585964560508728027e-01 1.502409279346466064e-01 -4.344334006309509277e-01
-3.313262388110160828e-02 -2.301518023014068604e-01 7.922217845916748047e-01
-7.119719982147216797e-01 -5.081675015389919281e-03 -3.474898934364318848e-01
-4.959929287433624268e-01 2.108261883258819580e-01 2.770112361758947372e-03
5.525571107864379883e-01 2.916694283485412598e-01 1.637410968542098999e-01
-2.016304619610309601e-02 -4.013194441795349121e-01 -2.082367688417434692e-01
-5.657749772071838379e-01 -2.246822863817214966e-01 5.959014892578125000e-01
8.834054470062255859e-01 -1.275088042020797729e-01 -6.833946704864501953e-02
-2.289023399353027344e-01 -4.013194441795349121e-01 2.757453322410583496e-01
-1.084600687026977539e-01 -4.013194441795349121e-01 1.311850696802139282e-01
3.971093595027923584e-01 1.480709612369537354e-01 4.763244986534118652e-01
-2.656644284725189209e-01 3.019590973854064941e-01 5.434263944625854492e-01
-5.164231061935424805e-01 1.480709612369537354e-01 -1.552450060844421387e-01
-3.037519752979278564e-01 1.480709612369537354e-01 7.094934582710266113e-01
3.221860229969024658e-01 -4.013194441795349121e-01 5.676865577697753906e-01
8.210760951042175293e-01 -1.189779583364725113e-02 1.642475277185440063e-01
-3.139122724533081055e-01 -6.051560491323471069e-02 7.943741083145141602e-01
3.105882182717323303e-02 -4.013194441795349121e-01 5.781878232955932617e-01
-4.929863214492797852e-01 -1.033179312944412231e-01 -7.335866689682006836e-01
7.415423542261123657e-02 5.164853930473327637e-01 -1.947125196456909180e-01
4.257995635271072388e-02 -4.013194441795349121e-01 4.358275830745697021e-01
4.060902893543243408e-01 3.560507595539093018e-01 -2.121915221214294434e-01
3.753785789012908936e-01 2.599771618843078613e-01 -5.732307434082031250e-01
-1.808404326438903809e-01 3.786346316337585449e-01 -4.172228872776031494e-01
-4.742110073566436768e-01 1.480709612369537354e-01 4.636153280735015869e-01
-1.576978266239166260e-01 7.130863517522811890e-02 7.931765317916870117e-01
4.657404497265815735e-02 -4.013194441795349121e-01 -7.275941222906112671e-02
4.811800085008144379e-03 1.919312775135040283e-01 2.106815427541732788e-01
5.383397936820983887e-01 1.480709612369537354e-01 -2.006771862506866455e-01
3.134913444519042969e-01 -2.705820798873901367e-01 7.895622253417968750e-01
4.871146380901336670e-02 8.435415476560592651e-02 -7.944133877754211426e-01
-5.570015907287597656e-01 3.036421537399291992e-01 1.108364090323448181e-01
6.412176415324211121e-03 5.325050950050354004e-01 -1.681101322174072266e-01
6.874879002571105957e-01 8.748025447130203247e-02 3.997818827629089355e-01
5.072822570800781250e-01 1.480709612369537354e-01 6.679306030273437500e-01
-6.513413041830062866e-02 -4.013194441795349121e-01 -6.473660469055175781e-01
5.648187994956970215e-01 -4.013194441795349121e-01 3.940816819667816162e-01
7.421532869338989258e-01 1.248198375105857849e-01 -3.087140619754791260e-01
2.667666375637054443e-01 -4.013194441795349121e-01 -1.743365973234176636e-01
5.662712454795837402e-01 -4.013194441795349121e-01 -1.056749820709228516e-01
3.173009455204010010e-01 -4.013194441795349121e-01 -4.446267783641815186e-01
-7.956571131944656372e-02 1.480709612369537354e-01 4.471679031848907471e-02
-2.947086691856384277e-01 -4.013194441795349121e-01 7.367399930953979492e-01
-3.093752861022949219e-01 -4.013194441795349121e-01 2.542782127857208252e-01
6.671689748764038086e-01 1.149776205420494080e-02 -4.363225996494293213e-01
6.661965847015380859e-01 -4.013194441795349121e-01 2.780767083168029785e-01
-6.733942031860351562e-01 2.470713257789611816e-01 -8.875743299722671509e-02
-3.198985159397125244e-01 1.678432896733283997e-02 7.944202423095703125e-01
3.441514670848846436e-01 -4.013194441795349121e-01 -1.049426198005676270e-01
-2.043429575860500336e-02 1.480709612369537354e-01 -4.999661147594451904e-01
5.168830156326293945e-01 1.480709612369537354e-01 1.510860472917556763e-01
7.110279202461242676e-01 -3.540550172328948975e-01 3.582767844200134277e-01
-4.617882370948791504e-01 -1.929243803024291992e-01 -7.885911464691162109e-01
6.631220579147338867e-01 2.830627858638763428e-01 -2.794484840705990791e-03
7.414340227842330933e-02 1.480709612369537354e-01 4.498564302921295166e-01
6.207374855875968933e-03 3.582709133625030518e-01 3.928135931491851807e-01
-3.818802833557128906e-01 -4.013194441795349121e-01 -1.771358251571655273e-01
2.736847400665283203e-01 1.480709612369537354e-01 -5.130401849746704102e-01
1.630534082651138306e-01 1.480709612369537354e-01 4.168092906475067139e-01
2.391023784875869751e-01 -4.013194441795349121e-01 -5.787208080291748047e-01
-6.589720845222473145e-01 -4.013194441795349121e-01 -2.428354173898696899e-01
-3.205294311046600342e-01 -3.707759082317352295e-01 7.944256663322448730e-01
3.894711136817932129e-01 3.001024127006530762e-01 -4.202852547168731689e-01
-7.475945949554443359e-01 1.524461358785629272e-01 2.724232673645019531e-01
4.370487928390502930e-01 1.480709612369537354e-01 -3.804705440998077393e-01
4.131562113761901855e-01 1.523682032711803913e-03 -7.972059845924377441e-01
8.976132273674011230e-01 -2.877573072910308838e-01 -4.416341707110404968e-02
6.552186608314514160e-02 2.702885270118713379e-01 -5.955339074134826660e-01
8.321306705474853516e-01 -3.549664020538330078e-01 1.447556018829345703e-01
3.501337468624114990e-01 1.480709612369537354e-01 -7.361676692962646484e-01
4.913995265960693359e-01 1.480709612369537354e-01 -8.431851863861083984e-02
-3.392894268035888672e-01 -4.013194441795349121e-01 1.396961957216262817e-01
4.239938259124755859e-01 -4.013194441795349121e-01 -2.379923611879348755e-01
-1.043574959039688110e-01 4.082464277744293213e-01 3.691217005252838135e-01
4.779186844825744629e-01 1.480709612369537354e-01 -7.581547498703002930e-01
-6.646600961685180664e-01 1.480709612369537354e-01 -2.340131849050521851e-01
-5.259209871292114258e-01 1.480709612369537354e-01 -3.778055608272552490e-01
5.961611270904541016e-01 -4.013194441795349121e-01 5.191405415534973145e-01
-1.829629391431808472e-01 1.480709612369537354e-01 -1.902545839548110962e-01
-1.016626879572868347e-01 4.374540746212005615e-01 -2.569817879702895880e-04
4.390085339546203613e-01 1.480709612369537354e-01 -6.158216595649719238e-01
-6.960716247558593750e-01 1.480709612369537354e-01 1.706091612577438354e-01
3.861388564109802246e-01 1.480709612369537354e-01 -2.999086119234561920e-02
-6.391359567642211914e-01 -3.988294005393981934e-01 -4.759013354778289795e-01
2.313502132892608643e-01 4.140850007534027100e-01 -3.230439126491546631e-01
2.641938924789428711e-01 -4.013194441795349121e-01 -3.245628774166107178e-01
3.188425209373235703e-03 2.482213973999023438e-01 -1.591224521398544312e-01
-2.170509845018386841e-02 1.834833323955535889e-01 -7.362082600593566895e-01
4.560644030570983887e-01 -4.013194441795349121e-01 1.302951127290725708e-01
6.195207238197326660e-01 -8.364574611186981201e-02 5.196178555488586426e-01
1.712273806333541870e-01 3.621225655078887939e-01 -4.468075633049011230e-01
7.070406079292297363e-01 -2.290909737348556519e-01 3.653066158294677734e-01
3.984859287738800049e-01 2.525762319564819336e-01 -4.092388320714235306e-03
-2.534462213516235352e-01 -7.323197275400161743e-02 -7.920942902565002441e-01
2.389776110649108887e-01 -1.518840640783309937e-01 -7.958713769912719727e-01
-8.736421465873718262e-01 -3.505003452301025391e-01 7.198233157396316528e-02
1.960530877113342285e-01 -2.829074561595916748e-01 -7.955431342124938965e-01
-2.155299633741378784e-01 1.480709612369537354e-01 5.333428978919982910e-01
1.924428045749664307e-01 4.737819135189056396e-01 -2.512382809072732925e-03
-2.241243571043014526e-01 1.480709612369537354e-01 2.996117770671844482e-01
-1.065864041447639465e-02 -4.013194441795349121e-01 -5.469227433204650879e-01
-3.063344955444335938e-01 1.480709612369537354e-01 2.474973648786544800e-01
8.656240105628967285e-01 1.480709612369537354e-01 8.297046273946762085e-02
7.353152632713317871e-01 -6.432781368494033813e-02 -3.203518390655517578e-01
3.386154174804687500e-01 -1.968645863234996796e-02 -7.966309189796447754e-01
3.409814462065696716e-02 5.124641656875610352e-01 1.983578056097030640e-01
-5.466753244400024414e-01 2.778372764587402344e-01 -2.106413543224334717e-01
6.316331624984741211e-01 -4.013194441795349121e-01 1.335880309343338013e-01
-1.012834813445806503e-02 -4.013194441795349121e-01 6.513981819152832031e-01
3.738555312156677246e-01 1.480709612369537354e-01 -5.758171677589416504e-01
-1.743631064891815186e-01 -3.537539243698120117e-01 7.933041453361511230e-01
-5.783627927303314209e-02 -1.261131465435028076e-01 -7.935928702354431152e-01
9.175375699996948242e-01 -1.227295026183128357e-01 -1.025778893381357193e-02
-1.247293502092361450e-01 -2.296452522277832031e-01 -7.930775880813598633e-01
5.490125715732574463e-02 -4.013194441795349121e-01 5.179763212800025940e-02
-5.854266881942749023e-01 -2.916537523269653320e-01 5.624583363533020020e-01
6.223335266113281250e-01 -4.013194441795349121e-01 -3.728933334350585938e-01
-8.183420300483703613e-01 -1.643849313259124756e-01 -1.599375307559967041e-01
-3.288674950599670410e-01 4.205379188060760498e-01 -1.236870139837265015e-01
-4.491711556911468506e-01 1.533439606428146362e-01 7.773846387863159180e-01
-4.833585917949676514e-01 1.480709612369537354e-01 3.320362567901611328e-01
3.066626787185668945e-01 4.472473859786987305e-01 -8.829496800899505615e-02
3.607164025306701660e-01 1.480709612369537354e-01 -2.087629735469818115e-01
-1.032711640000343323e-01 -2.210473269224166870e-01 7.927588820457458496e-01
1.116165053099393845e-02 4.358334094285964966e-02 7.918813824653625488e-01
3.971907496452331543e-01 -4.013194441795349121e-01 -6.024737358093261719e-01
-3.917672336101531982e-01 1.480709612369537354e-01 -2.927458584308624268e-01
-8.324224352836608887e-01 -1.594549119472503662e-01 1.421288549900054932e-01
-1.587678939104080200e-01 -4.013194441795349121e-01 4.820355772972106934e-01
-2.964535653591156006e-01 1.480709612369537354e-01 7.735778093338012695e-01
-4.375528991222381592e-01 1.480709612369537354e-01 -5.013893172144889832e-02
1.184417605400085449e-01 1.480709612369537354e-01 -3.504288196563720703e-01
1.330379862338304520e-03 -4.013194441795349121e-01 -4.447257518768310547e-01
6.570718288421630859e-01 -4.013194441795349121e-01 -1.736439764499664307e-02
-6.407457590103149414e-01 1.480709612369537354e-01 4.358371198177337646e-01
-2.736276388168334961e-01 -4.013194441795349121e-01 -7.397372722625732422e-01
5.519481897354125977e-01 -4.013194441795349121e-01 2.026659846305847168e-01
-2.816438972949981689e-01 4.548585116863250732e-01 9.343644976615905762e-02
4.246854782104492188e-01 3.459238111972808838e-01 2.101298272609710693e-01
1.209304183721542358e-01 2.497200369834899902e-01 6.255214214324951172e-01
1.734014302492141724e-01 -4.013194441795349121e-01 1.540417969226837158e-01
8.269498944282531738e-01 -1.939673274755477905e-01 -1.644089967012405396e-01
3.188425209373235703e-03 5.634975433349609375e-01 -1.129796281456947327e-01
-2.348670214414596558e-01 -3.979777097702026367e-01 -7.922367453575134277e-01
-6.516739260405302048e-03 1.480709612369537354e-01 6.729065775871276855e-01
5.059612989425659180e-01 -1.697585731744766235e-01 -7.106651067733764648e-01
-1.035618782043457031e-02 2.378435432910919189e-01 6.458688974380493164e-01
-1.675630062818527222e-01 3.062976598739624023e-01 5.356104969978332520e-01
-6.796544790267944336e-01 1.480709612369537354e-01 -1.141717359423637390e-01
-3.410869538784027100e-01 3.555625379085540771e-01 3.114081025123596191e-01
-3.801391124725341797e-01 5.686891078948974609e-02 7.948814034461975098e-01
5.910643935203552246e-01 1.480709612369537354e-01 4.819813370704650879e-01
4.221303462982177734e-01 4.052084982395172119e-01 -4.274130798876285553e-03
-3.486842513084411621e-01 2.037968933582305908e-01 -7.006223797798156738e-01
7.564831376075744629e-01 1.480709612369537354e-01 1.707328706979751587e-01
1.091434881091117859e-01 -4.013194441795349121e-01 -3.196959570050239563e-02
5.830057263374328613e-01 2.601615786552429199e-01 2.140448391437530518e-01
-4.116137623786926270e-01 -4.013194441795349121e-01 7.397191226482391357e-02
3.581585586071014404e-01 3.593450486660003662e-01 2.831331193447113037e-01
6.646829843521118164e-01 1.683560162782669067e-01 -3.753602802753448486e-01
-6.830627322196960449e-01 -2.892613708972930908e-01 -3.984608650207519531e-01
-5.560807585716247559e-01 -4.013194441795349121e-01 3.245069086551666260e-01
-7.761675715446472168e-01 -2.585621476173400879e-01 -2.342993617057800293e-01
-8.361221551895141602e-01 -2.915588319301605225e-01 -1.285884231328964233e-01
6.949824094772338867e-01 -4.013194441795349121e-01 6.437526643276214600e-02
5.639129318296909332e-03 1.830737739801406860e-01 3.186006844043731689e-01
1.934206634759902954e-01 -4.013194441795349121e-01 -1.532865911722183228e-01
5.427529215812683105e-01 2.384375780820846558e-01 3.567169904708862305e-01
4.080378413200378418e-01 1.064023077487945557e-01 -7.971665263175964355e-01
1.632541567087173462e-01 3.676776587963104248e-01 4.331260025501251221e-01
-9.034057855606079102e-01 -3.166476190090179443e-01 2.133140712976455688e-02
2.862578071653842926e-02 4.264293313026428223e-01 -1.256514806300401688e-03
-4.219568669795989990e-01 -2.014082372188568115e-01 7.952028512954711914e-01
-4.975318312644958496e-01 -3.556675612926483154e-01 7.120363712310791016e-01
2.548535764217376709e-01 1.480709612369537354e-01 3.447355628013610840e-01
3.972246348857879639e-01 -3.636937141418457031e-01 -7.970824241638183594e-01
5.930472612380981445e-01 1.480709612369537354e-01 -2.484108805656433105e-01
3.614474236965179443e-01 -4.013194441795349121e-01 -3.887746930122375488e-01
-7.615311741828918457e-01 -3.977010548114776611e-01 2.627688646316528320e-01
8.367832750082015991e-03 3.706139326095581055e-01 -4.317304491996765137e-01
7.753672003746032715e-01 1.638994514942169189e-01 -2.013213783502578735e-01
-4.573780894279479980e-01 5.120259895920753479e-02 -7.905265688896179199e-01
-5.123031735420227051e-01 2.732410132884979248e-01 2.846075892448425293e-01
2.821096181869506836e-01 1.480709612369537354e-01 -1.077513694763183594e-01
2.085059583187103271e-01 -4.013194441795349121e-01 -7.889628410339355469e-01
2.178435474634170532e-01 -4.013194441795349121e-01 7.315130829811096191e-01
-8.352040052413940430e-01 1.445556282997131348e-01 -1.302077472209930420e-01
-5.280652046203613281e-01 -9.601913392543792725e-02 6.600753068923950195e-01
1.000147387385368347e-01 -4.013194441795349121e-01 -4.218259155750274658e-01
3.473210036754608154e-01 5.108867958188056946e-02 7.893031835556030273e-01
-5.598849654197692871e-01 -8.189920336008071899e-02 6.059253215789794922e-01
-2.970170974731445312e-01 3.916923701763153076e-01 2.702879011631011963e-01
3.188425209373235703e-03 3.865793645381927490e-01 -3.592569380998611450e-02
7.437915802001953125e-01 -1.996767371892929077e-01 -3.059270083904266357e-01
1.190493330359458923e-01 -4.013194441795349121e-01 -6.311429142951965332e-01
-6.337842941284179688e-01 1.782700121402740479e-01 -3.856730163097381592e-01
8.119106888771057129e-01 1.924574822187423706e-01 3.390902280807495117e-02
3.996902406215667725e-01 1.480709612369537354e-01 -4.839938879013061523e-01
-4.846481084823608398e-01 -4.013194441795349121e-01 -2.637701332569122314e-01
1.264122724533081055e-01 -2.661824822425842285e-01 -7.950088381767272949e-01
6.316751837730407715e-01 -4.013194441795349121e-01 3.852730095386505127e-01
-7.050158977508544922e-01 -3.485840260982513428e-01 3.589413464069366455e-01
4.924980998039245605e-01 -4.013194441795349121e-01 3.385545611381530762e-01
-2.265967577695846558e-01 -3.233745098114013672e-01 7.937040925025939941e-01
-6.375600099563598633e-01 -4.013194441795349121e-01 2.721672356128692627e-01
-1.339896619319915771e-01 4.974833428859710693e-01 2.077202349901199341e-01
-5.079938769340515137e-01 1.151282489299774170e-01 -7.071281671524047852e-01
6.028621792793273926e-01 1.480709612369537354e-01 -4.990575313568115234e-01
-3.709685206413269043e-01 2.427842766046524048e-01 -6.361230015754699707e-01
4.311546385288238525e-01 3.008252978324890137e-01 -3.470247089862823486e-01
-1.774092018604278564e-01 1.480709612369537354e-01 -3.868474960327148438e-01
7.420168817043304443e-02 -4.013194441795349121e-01 2.784282267093658447e-01
-4.026164412498474121e-01 2.521707117557525635e-01 5.389929413795471191e-01
4.696457087993621826e-01 -4.013194441795349121e-01 -7.396693825721740723e-01
-2.349212765693664551e-01 -1.745045334100723267e-01 7.937679886817932129e-01
6.260142922401428223e-01 2.001744210720062256e-01 -3.389049768447875977e-01
-3.910547494888305664e-01 1.480709612369537354e-01 -4.268629252910614014e-01
4.574965834617614746e-01 1.480709612369537354e-01 3.941060900688171387e-01
-1.258455216884613037e-01 1.480709612369537354e-01 -2.997141480445861816e-01
-1.729295700788497925e-01 -4.013194441795349121e-01 1.169055178761482239e-01
2.188783437013626099e-01 1.687289774417877197e-01 7.566506862640380859e-01
2.806855738162994385e-01 3.158237636089324951e-01 -5.230355858802795410e-01
1.606325656175613403e-01 4.142667055130004883e-01 -2.268274314701557159e-03
2.789089381694793701e-01 4.009228050708770752e-01 2.856352031230926514e-01
-6.592750549316406250e-02 3.351893126964569092e-01 4.877845942974090576e-01
5.927949547767639160e-01 1.480709612369537354e-01 -4.308475255966186523e-01
-4.760825932025909424e-01 -3.218867182731628418e-01 -7.633897662162780762e-01
8.747100830078125000e-02 1.851528584957122803e-01 -1.708152820356190205e-03
7.706122994422912598e-01 -1.149313896894454956e-01 -2.602832615375518799e-01
-7.814446091651916504e-01 -1.879056841135025024e-01 -2.249943017959594727e-01
5.082302689552307129e-01 -3.373666703701019287e-01 7.158351540565490723e-01
2.380187660455703735e-01 -2.721566855907440186e-01 7.901399731636047363e-01
6.620966792106628418e-01 -2.824707329273223877e-01 -4.449549615383148193e-01
6.439436078071594238e-01 1.480709612369537354e-01 2.686206996440887451e-01
-6.677739620208740234e-01 1.931979954242706299e-01 4.088366869837045670e-03
-4.496406614780426025e-01 3.448768258094787598e-01 -1.604624092578887939e-01
-5.193069111555814743e-03 -4.013194441795349121e-01 4.714637994766235352e-01
-7.086790800094604492e-01 5.407780036330223083e-02 -3.532958626747131348e-01
6.128697395324707031e-01 -4.013194441795349121e-01 -2.085948288440704346e-01
-3.631064891815185547e-01 1.491654366254806519e-01 7.929691076278686523e-01
-7.609561085700988770e-01 -6.576026231050491333e-02 -2.611200511455535889e-01
-6.761853098869323730e-01 1.738663613796234131e-01 3.251013457775115967e-01
-4.071309268474578857e-01 1.695210188627243042e-01 2.087926492094993591e-03
-7.482727169990539551e-01 1.480709612369537354e-01 -1.641472578048706055e-01
4.185390770435333252e-01 -4.013194441795349121e-01 3.390410542488098145e-01
-2.156805098056793213e-01 2.981711626052856445e-01 -5.479738116264343262e-01
6.411145329475402832e-01 -3.694345951080322266e-01 4.815472960472106934e-01
5.033505558967590332e-01 3.409668505191802979e-01 -9.515746682882308960e-02
8.081418275833129883e-01 -4.013194441795349121e-01 -1.073404327034950256e-01
3.106364905834197998e-01 4.643114209175109863e-01 -2.669522538781166077e-02
5.708946585655212402e-01 1.480709612369537354e-01 2.125232964754104614e-01
2.021791338920593262e-01 3.321689963340759277e-01 4.906462430953979492e-01
-6.810907721519470215e-01 2.185770273208618164e-01 1.730589121580123901e-01
5.697106719017028809e-01 -3.535016775131225586e-01 6.074375510215759277e-01
1.644476056098937988e-01 1.579144448041915894e-01 -7.792712450027465820e-01
3.473670780658721924e-01 -4.013194441795349121e-01 6.867603659629821777e-01
5.960295796394348145e-01 -1.532822754234075546e-02 5.610343217849731445e-01
6.029109954833984375e-01 -2.413482517004013062e-01 -5.456736683845520020e-01
4.008430540561676025e-01 1.480709612369537354e-01 6.761723756790161133e-01
-6.978672742843627930e-01 3.475159034132957458e-02 3.711072206497192383e-01
-7.573242299258708954e-03 4.874011576175689697e-01 2.394897639751434326e-01
-6.375789642333984375e-01 1.480709612369537354e-01 2.293786257505416870e-01
-4.016753435134887695e-01 -5.308078229427337646e-02 -7.909550070762634277e-01
-4.048424065113067627e-01 -1.777147203683853149e-01 -7.909305691719055176e-01
-3.572376966476440430e-01 -2.257969677448272705e-01 7.947064042091369629e-01
9.021864533424377441e-01 4.575329646468162537e-02 2.123917266726493835e-02
-6.680655479431152344e-01 -1.331547945737838745e-01 4.218218922615051270e-01
6.825662255287170410e-01 2.092068493366241455e-01 2.066797316074371338e-01
-1.086885761469602585e-02 -4.013194441795349121e-01 -7.422624826431274414e-01
-2.787929773330688477e-01 2.183803915977478027e-01 1.103307935409247875e-03
2.685500681400299072e-01 -3.602883219718933105e-02 7.899066805839538574e-01
5.737888216972351074e-01 -4.013194441795349121e-01 8.275617659091949463e-02
5.527306795120239258e-01 -3.781836479902267456e-02 6.373748183250427246e-01
4.917901158332824707e-01 2.044777125120162964e-01 -5.534909367561340332e-01
6.539159417152404785e-01 6.372055411338806152e-02 -4.588766098022460938e-01
-6.548152565956115723e-01 -7.260662317276000977e-02 -4.482600986957550049e-01
1.905400156974792480e-01 2.515699267387390137e-01 -6.269698739051818848e-01
-1.880528479814529419e-01 5.115988850593566895e-01 7.034943997859954834e-02
-5.989767313003540039e-01 -2.398252040147781372e-01 5.393984317779541016e-01
6.824508905410766602e-01 -9.879017621278762817e-02 4.086624681949615479e-01
1.466959714889526367e-01 1.480709612369537354e-01 5.517902970314025879e-01
-8.677683472633361816e-01 -1.690700054168701172e-01 8.197634667158126831e-02
6.022627949714660645e-01 1.480709612369537354e-01 3.900604546070098877e-01
-7.533070445060729980e-01 1.895334720611572266e-01 4.744765348732471466e-03
-6.533559560775756836e-01 2.354103513062000275e-02 4.468564689159393311e-01
6.552627086639404297e-01 -8.301198482513427734e-02 -4.565832614898681641e-01
5.541750788688659668e-01 1.812415122985839844e-01 5.253506302833557129e-01
-3.829663991928100586e-01 1.480709612369537354e-01 -6.973367184400558472e-02
-8.170306086540222168e-01 -1.100640594959259033e-01 1.683202683925628662e-01
-1.711583435535430908e-01 4.082247316837310791e-01 3.696682453155517578e-01
6.006624698638916016e-01 9.100644290447235107e-02 5.528671145439147949e-01
-3.677712380886077881e-01 -1.297157406806945801e-01 -7.912154197692871094e-01
1.130344718694686890e-01 -3.327161669731140137e-01 -7.949056625366210938e-01
4.164545238018035889e-01 1.480709612369537354e-01 8.940439671277999878e-02
-2.389736473560333252e-01 1.480709612369537354e-01 -7.804632782936096191e-01
-3.143332600593566895e-01 1.480709612369537354e-01 5.974407792091369629e-01
4.894609749317169189e-02 1.480709612369537354e-01 3.979591131210327148e-01
4.692835509777069092e-01 2.250191122293472290e-01 5.305382013320922852e-01
-2.984821200370788574e-01 -2.166602164506912231e-01 7.942561507225036621e-01
6.180004477500915527e-01 -1.445623487234115601e-01 5.222991704940795898e-01
4.423544108867645264e-01 1.480709612369537354e-01 2.448680400848388672e-01
7.147432118654251099e-02 1.480709612369537354e-01 -5.796525478363037109e-01
-7.143047451972961426e-01 -1.141080334782600403e-01 3.431360423564910889e-01
3.664342761039733887e-01 4.047351777553558350e-01 1.187323480844497681e-01
7.493630051612854004e-01 -4.013194441795349121e-01 1.870695352554321289e-01
3.908761441707611084e-01 2.252577841281890869e-01 -6.584464311599731445e-01
5.350374579429626465e-01 3.331441283226013184e-01 5.774604529142379761e-02
5.720244050025939941e-01 -3.077548444271087646e-01 -5.982382297515869141e-01
8.368110060691833496e-01 -2.479229420423507690e-01 -1.476284265518188477e-01
-5.324891805648803711e-01 1.533778756856918335e-01 3.049486083909869194e-03
3.530205227434635162e-03 4.305142760276794434e-01 4.357483983039855957e-02
-6.021082997322082520e-01 -1.030407175421714783e-01 -5.411858558654785156e-01
-1.751483529806137085e-01 1.480709612369537354e-01 6.152995824813842773e-01
1.498893275856971741e-02 1.480709612369537354e-01 1.076578199863433838e-01
-1.762062162160873413e-01 1.480709612369537354e-01 -3.290546834468841553e-01
-5.817803740501403809e-02 5.377537012100219727e-01 -1.590695828199386597e-01
-4.600138962268829346e-01 3.774451911449432373e-01 3.869107738137245178e-02
1.902308166027069092e-01 1.676724702119827271e-01 -2.496114466339349747e-03
4.349412024021148682e-01 3.320469260215759277e-01 -4.371782299131155014e-03
-2.910181283950805664e-01 3.682432174682617188e-01 -3.630186617374420166e-01
-7.979010343551635742e-01 1.480709612369537354e-01 1.110510975122451782e-01
6.920808553695678711e-02 1.480709612369537354e-01 6.572353839874267578e-01
-6.168369054794311523e-01 2.079170942306518555e-01 -3.177071511745452881e-01
-6.510395407676696777e-01 -4.013194441795349121e-01 9.279631078243255615e-02
5.140715241432189941e-01 2.281709611415863037e-01 -4.394242763519287109e-01
3.425891101360321045e-01 -4.013194441795349121e-01 9.708686172962188721e-02
4.168981686234474182e-03 3.195425271987915039e-01 1.268865168094635010e-01
2.807515859603881836e-02 3.302892744541168213e-01 -4.975439310073852539e-01
-2.383619993925094604e-01 3.145596757531166077e-02 -7.922108769416809082e-01
7.943882942199707031e-01 3.486552089452743530e-02 -2.198230177164077759e-01
-6.556262969970703125e-01 -4.013194441795349121e-01 -7.564137876033782959e-02
3.297131061553955078e-01 1.480709612369537354e-01 1.495509296655654907e-01
-5.644757747650146484e-01 1.480709612369537354e-01 1.248683184385299683e-01
-6.225655674934387207e-01 2.884592115879058838e-01 -4.177239164710044861e-02
-1.728427708148956299e-01 1.635168865323066711e-02 -7.927114367485046387e-01
-2.294990718364715576e-01 1.480709612369537354e-01 -1.309550106525421143e-01
7.131653428077697754e-01 1.480709612369537354e-01 -4.340528324246406555e-02
-3.347415924072265625e-01 -4.013194441795349121e-01 -1.456890702247619629e-01
-4.100417494773864746e-01 -4.013194441795349121e-01 -4.908590912818908691e-01
1.727687194943428040e-02 2.898425757884979248e-01 -1.169735915027558804e-03
-7.569797039031982422e-01 -4.013194441795349121e-01 9.439950436353683472e-02
2.720084488391876221e-01 -4.013194441795349121e-01 2.022451460361480713e-01
-1.022851914167404175e-01 -4.013194441795349121e-01 5.149158835411071777e-01
-6.331753134727478027e-01 1.060578227043151855e-01 4.812028110027313232e-01
-2.841252386569976807e-01 1.480709612369537354e-01 1.539636850357055664e-01
-5.107278376817703247e-02 -3.396871984004974365e-01 -7.936444282531738281e-01
-4.073809981346130371e-01 1.480709612369537354e-01 -5.242249965667724609e-01
6.401303689926862717e-03 2.700362801551818848e-01 4.180027246475219727e-01
4.906902611255645752e-01 2.927069365978240967e-01 2.693955004215240479e-01
8.067516684532165527e-01 -1.399783194065093994e-01 1.895011067390441895e-01
4.123803973197937012e-01 -2.058753818273544312e-01 7.888040542602539062e-01
-5.537249445915222168e-01 2.346659153699874878e-01 3.212231677025556564e-03
8.436925411224365234e-01 1.169184744358062744e-01 1.243711262941360474e-01
7.074854373931884766e-01 -3.927292302250862122e-02 -3.677152693271636963e-01
8.998062610626220703e-01 -1.798880696296691895e-01 -4.043107852339744568e-02
1.775392442941665649e-01 1.480709612369537354e-01 -5.991970896720886230e-01
7.573015987873077393e-02 2.856450676918029785e-01 -1.617271453142166138e-03
-2.855755984783172607e-01 2.409967631101608276e-01 -6.405348181724548340e-01
4.515305757522583008e-01 3.180778324604034424e-01 -2.569049000740051270e-01
-4.993491619825363159e-02 1.480709612369537354e-01 3.171247243881225586e-01
-3.330422341823577881e-01 2.144052982330322266e-01 6.865094900131225586e-01
8.895220160484313965e-01 -1.094504725188016891e-02 -5.793045461177825928e-02
-3.390212953090667725e-01 1.480709612369537354e-01 -4.065711200237274170e-01
-5.211869478225708008e-01 1.480709612369537354e-01 -5.852591991424560547e-01
-5.923963189125061035e-01 1.987055987119674683e-01 3.878620266914367676e-01
-3.064908981323242188e-01 1.480709612369537354e-01 4.957971572875976562e-01
-8.127272725105285645e-01 -1.097982451319694519e-01 -1.698393225669860840e-01
7.325403094291687012e-01 -4.013194441795349121e-01 -1.892496198415756226e-01
-8.921661227941513062e-02 -4.013194441795349121e-01 6.457400321960449219e-01
4.971594214439392090e-01 1.480709612369537354e-01 5.948191881179809570e-01
-5.214284732937812805e-02 1.480709612369537354e-01 -5.799047350883483887e-01
5.234579443931579590e-01 2.957910001277923584e-01 -5.051239859312772751e-03
-7.727097719907760620e-02 1.480709612369537354e-01 1.211274415254592896e-01
-9.591092914342880249e-02 -8.558338880538940430e-02 -7.932986021041870117e-01
-3.537989780306816101e-02 -4.013194441795349121e-01 7.322794198989868164e-01
-6.976155936717987061e-02 1.480709612369537354e-01 -2.062091976404190063e-01
-4.220396280288696289e-01 3.251424133777618408e-01 2.714100480079650879e-01
-4.535213708877563477e-01 1.480709612369537354e-01 -4.258186519145965576e-01
-8.531319499015808105e-01 -3.885234594345092773e-01 1.068869456648826599e-01
3.876903653144836426e-01 -4.013194441795349121e-01 7.768558263778686523e-01
-4.578785002231597900e-01 -4.013194441795349121e-01 4.866304397583007812e-01
-2.470649033784866333e-01 -4.013194441795349121e-01 -6.876486539840698242e-01
-4.128197133541107178e-01 -2.913540303707122803e-01 -7.908683419227600098e-01
-6.856150627136230469e-01 -4.013194441795349121e-01 -1.356936544179916382e-01
4.923922717571258545e-01 1.480709612369537354e-01 -4.339722692966461182e-01
1.125896647572517395e-01 4.606211185455322266e-01 -2.859715223312377930e-01
-1.942277401685714722e-01 -7.116522639989852905e-02 7.934559583663940430e-01
8.517227172851562500e-01 -4.293052107095718384e-02 1.102114617824554443e-01
1.445260196924209595e-01 1.480709612369537354e-01 2.146662771701812744e-01
-4.791648685932159424e-01 2.171692848205566406e-01 -5.298993587493896484e-01
-7.764482498168945312e-01 -2.118183374404907227e-01 2.373815029859542847e-01
3.101752996444702148e-01 2.063180953264236450e-01 6.947431564331054688e-01
8.366631269454956055e-01 -3.774620890617370605e-01 -1.478793472051620483e-01
1.204625293612480164e-01 -4.013194441795349121e-01 -2.599618434906005859e-01
6.419892907142639160e-01 1.581382155418395996e-01 4.467723667621612549e-01
1.413023024797439575e-01 1.480709612369537354e-01 -4.528319239616394043e-01
7.286886572837829590e-01 -1.376243829727172852e-01 3.271396160125732422e-01
3.236697912216186523e-01 1.480709612369537354e-01 6.809150576591491699e-01
-4.207255542278289795e-01 1.480709612369537354e-01 -1.886677891016006470e-01
-5.670715570449829102e-01 1.852505207061767578e-01 -4.802534580230712891e-01
6.937753558158874512e-01 -2.841199040412902832e-01 3.886961042881011963e-01
-6.253363490104675293e-01 2.761786282062530518e-01 8.281585574150085449e-02
2.818329334259033203e-01 -4.013194441795349121e-01 -6.764801740646362305e-01
-3.064788281917572021e-01 -4.013194441795349121e-01 -6.540116071701049805e-01
-1.694345921277999878e-01 1.480709612369537354e-01 -1.143805757164955139e-01
8.142881989479064941e-01 -4.013194441795349121e-01 1.224600747227668762e-01
2.415693402290344238e-01 3.878664672374725342e-01 -3.899180293083190918e-01
5.178079605102539062e-01 1.756958290934562683e-02 6.989474296569824219e-01
-6.912955641746520996e-02 1.480709612369537354e-01 5.769482254981994629e-01
-2.744652628898620605e-01 2.838643491268157959e-01 1.069396617822349072e-03
-8.032092452049255371e-01 -2.827623188495635986e-01 -1.866185665130615234e-01
4.919365942478179932e-01 2.460161596536636353e-01 4.212997555732727051e-01
1.500431597232818604e-01 2.012878097593784332e-02 7.908139824867248535e-01
5.938013195991516113e-01 2.463850528001785278e-01 -2.452034205198287964e-01
-4.486335515975952148e-01 -4.013194441795349121e-01 1.499948203563690186e-01
-6.512076854705810547e-01 -5.371101945638656616e-02 4.505128264427185059e-01
2.095854878425598145e-01 1.480709612369537354e-01 -5.519380569458007812e-01
3.188425209373235703e-03 4.384848475456237793e-01 -7.582312077283859253e-02
-5.778563022613525391e-01 -4.013194441795349121e-01 -3.460170328617095947e-01
-5.935396552085876465e-01 2.512010335922241211e-01 -2.159238606691360474e-01
-1.571946591138839722e-01 3.340744972229003906e-01 4.903003871440887451e-01
2.645858228206634521e-01 4.763438403606414795e-01 -6.638787686824798584e-02
-5.626637935638427734e-01 -1.244399398565292358e-01 -6.107344627380371094e-01
1.943930536508560181e-01 4.608435332775115967e-01 2.368801683187484741e-01
3.012107014656066895e-01 2.455469369888305664e-01 -3.346462035551667213e-03
2.496673762798309326e-01 3.835645020008087158e-01 3.944804072380065918e-01
4.116073716431856155e-03 1.996549516916275024e-01 1.198736131191253662e-01
-6.109482049942016602e-01 -4.066725447773933411e-02 5.190265774726867676e-01
-3.857710063457489014e-01 -4.013194441795349121e-01 3.893063664436340332e-01
-4.294356331229209900e-02 -5.850554630160331726e-02 7.922964096069335938e-01
8.096051216125488281e-01 1.480709612369537354e-01 -9.370902180671691895e-02
8.397322893142700195e-01 -8.384945243597030640e-02 -1.426578611135482788e-01
-2.219381183385848999e-01 2.035880088806152344e-01 -7.019364833831787109e-01
2.076325416564941406e-01 5.253483057022094727e-01 -5.814788863062858582e-03
-9.888648986816406250e-02 1.480709612369537354e-01 2.946774363517761230e-01
-4.912496507167816162e-01 -2.994859516620635986e-01 7.227261066436767578e-01
-5.636647343635559082e-01 3.304682970046997070e-01 3.289532382041215897e-03
4.644499719142913818e-01 -4.013194441795349121e-01 2.473146468400955200e-02
7.783576846122741699e-01 -4.013194441795349121e-01 2.006197907030582428e-02
-3.697518408298492432e-01 1.720151007175445557e-01 -7.522117495536804199e-01
-6.408976912498474121e-01 -2.837089598178863525e-01 -4.727968871593475342e-01
2.041655220091342926e-02 1.480709612369537354e-01 4.512560367584228516e-01
-1.405190769582986832e-02 1.480709612369537354e-01 -3.312911391258239746e-01
-1.953669637441635132e-01 1.480709612369537354e-01 3.448915183544158936e-01
1.206084433943033218e-02 4.686337113380432129e-01 -2.721556723117828369e-01
2.703118026256561279e-01 1.480709612369537354e-01 -6.547819375991821289e-01
-7.285193204879760742e-01 -1.409074515104293823e-01 -3.183120787143707275e-01
4.624142646789550781e-01 1.480709612369537354e-01 6.971667408943176270e-01
-4.263298586010932922e-02 -4.013194441795349121e-01 3.585697412490844727e-01
4.846170246601104736e-01 -4.013194441795349121e-01 -2.409692853689193726e-01
-3.575634658336639404e-01 4.205148220062255859e-01 1.706818933598697186e-03
7.292542457580566406e-01 1.773016601800918579e-01 -6.628537550568580627e-03
1.220737397670745850e-01 5.437495708465576172e-01 9.076333045959472656e-02
-6.304913759231567383e-01 -4.013194441795349121e-01 4.006674885749816895e-01
4.394479691982269287e-01 1.480709612369537354e-01 -5.309822410345077515e-02
3.188425209373235703e-03 1.820701807737350464e-01 -4.221310913562774658e-01
-2.857670783996582031e-01 1.480709612369537354e-01 -4.027506411075592041e-01
7.039348483085632324e-01 3.185876831412315369e-02 -3.737586140632629395e-01
3.396108448505401611e-01 1.508213877677917480e-01 7.848833203315734863e-01
2.365635335445404053e-01 1.480709612369537354e-01 -3.913271427154541016e-01
-8.125388026237487793e-01 -2.203740924596786499e-01 1.759648919105529785e-01
5.454612970352172852e-01 -4.006047248840332031e-01 6.501898169517517090e-01
-4.245387017726898193e-01 1.480709612369537354e-01 2.291407585144042969e-01
5.898058414459228516e-01 2.450939267873764038e-01 -5.559827666729688644e-03
2.006235420703887939e-01 -4.013194441795349121e-01 -4.333171844482421875e-01
6.829398125410079956e-02 -3.132638633251190186e-01 7.914419770240783691e-01
-1.175176259130239487e-02 -4.013194441795349121e-01 -6.287660449743270874e-02
7.401461005210876465e-01 9.681782685220241547e-03 3.069368898868560791e-01
-1.178248077630996704e-01 -4.013194441795349121e-01 -7.193219661712646484e-01
4.828088451176881790e-03 3.075263798236846924e-01 2.128704935312271118e-01
2.588788270950317383e-01 1.480709612369537354e-01 -5.804214477539062500e-01
-1.426179558038711548e-01 -4.013194441795349121e-01 -6.353225558996200562e-03
8.081668987870216370e-03 1.742162704467773438e-01 6.372554898262023926e-01
1.039559170603752136e-01 5.768522620201110840e-01 1.345308497548103333e-02
1.782729625701904297e-01 -4.013194441795349121e-01 -7.319565415382385254e-01
-1.543390192091464996e-02 -2.281569391489028931e-01 -7.939210534095764160e-01
1.174707040190696716e-01 -6.003685668110847473e-02 -7.949396371841430664e-01
-2.931514680385589600e-01 3.437131643295288086e-01 1.213165814988315105e-03
3.240684866905212402e-01 -4.013194441795349121e-01 2.858455479145050049e-01
-1.205833852291107178e-01 1.480709612369537354e-01 -6.813761591911315918e-01
3.188425209373235703e-03 2.867327630519866943e-01 -4.916796684265136719e-01
-3.278352916240692139e-01 1.480709612369537354e-01 -2.975564002990722656e-01
-7.557442188262939453e-01 -3.128271400928497314e-01 2.726179063320159912e-01
8.971168994903564453e-01 -2.266827076673507690e-01 3.017535060644149780e-02
3.200954943895339966e-02 -2.076917588710784912e-01 7.917213439941406250e-01
7.381823062896728516e-01 -4.013194441795349121e-01 2.853730618953704834e-01
-5.883588790893554688e-01 1.814001947641372681e-01 4.503514170646667480e-01
6.072740554809570312e-01 -4.013194441795349121e-01 -5.188637971878051758e-01
6.994321942329406738e-01 -1.911253482103347778e-01 -3.814199268817901611e-01
-4.123171269893646240e-01 3.998554646968841553e-01 -4.481575265526771545e-02
2.670162022113800049e-01 -4.013194441795349121e-01 6.364837884902954102e-01
4.086006283760070801e-01 -3.126996457576751709e-01 -7.971705794334411621e-01
-2.802815437316894531e-01 -4.013194441795349121e-01 6.386930942535400391e-01
-6.361888647079467773e-01 -2.097509205341339111e-01 4.760722517967224121e-01
-2.720602750778198242e-01 -3.491020500659942627e-01 7.940526604652404785e-01
-3.952186107635498047e-01 -4.013194441795349121e-01 -3.954717516899108887e-01
8.823177814483642578e-01 1.130084767937660217e-01 -7.018937170505523682e-02
5.654181838035583496e-01 -4.013194441795349121e-01 -3.066851496696472168e-01
5.101791620254516602e-01 1.491817086935043335e-01 -6.999143958091735840e-01
-2.009118162095546722e-02 1.814300268888473511e-01 7.378033399581909180e-01
-8.302483558654785156e-01 9.335134923458099365e-02 -1.389458924531936646e-01
-2.138875722885131836e-01 1.632376164197921753e-01 7.689110040664672852e-01
7.275732606649398804e-02 -4.013194441795349121e-01 1.018028706312179565e-01
4.914307296276092529e-01 -1.757598519325256348e-01 7.454537749290466309e-01
-2.335650324821472168e-01 4.461366534233093262e-01 -2.072290927171707153e-01
1.868456751108169556e-01 -4.013194441795349121e-01 5.933151245117187500e-01
3.953069150447845459e-01 4.097844064235687256e-01 5.116020888090133667e-02
3.900900855660438538e-02 1.480709612369537354e-01 -1.341475546360015869e-01
-1.643745303153991699e-01 2.940604388713836670e-01 -5.550628304481506348e-01
-1.298030018806457520e-01 5.420800447463989258e-01 -3.999425462097860873e-05
2.628932893276214600e-01 -4.013194441795349121e-01 -4.655655026435852051e-01
5.770803689956665039e-01 -4.013194441795349121e-01 -1.564086526632308960e-01
7.524823546409606934e-01 -2.821181416511535645e-01 -2.911373972892761230e-01
4.607434272766113281e-01 -4.013194441795349121e-01 5.707991123199462891e-01
5.592718124389648438e-01 -4.013194441795349121e-01 4.501520395278930664e-01
-6.867693066596984863e-01 -4.013194441795349121e-01 -3.110684752464294434e-01
-7.785233259201049805e-01 1.480709612369537354e-01 -3.876835480332374573e-02
-1.148967221379280090e-01 -4.013194441795349121e-01 2.485326975584030151e-01
-2.902803122997283936e-01 3.659946024417877197e-01 3.643401861190795898e-01
3.579795658588409424e-01 3.156149387359619141e-01 4.277784228324890137e-01
-3.429756462574005127e-01 -1.175874620676040649e-01 7.945965528488159180e-01
2.946493029594421387e-01 1.480709612369537354e-01 8.581175655126571655e-02
3.142643868923187256e-01 5.840823426842689514e-02 -7.964451313018798828e-01
-8.798658251762390137e-01 -2.146999239921569824e-01 6.139020994305610657e-02
1.357440184801816940e-02 1.480709612369537354e-01 -7.294271588325500488e-01
7.571042776107788086e-01 1.480709612369537354e-01 -9.098707139492034912e-02
-5.610364079475402832e-01 1.480709612369537354e-01 4.817195832729339600e-01
-2.975015640258789062e-01 -4.013194441795349121e-01 -4.304012954235076904e-01
2.885760962963104248e-01 4.221016168594360352e-01 -3.250184934586286545e-03
4.220109581947326660e-01 2.768296003341674805e-01 4.428894519805908203e-01
2.393492162227630615e-01 2.573677599430084229e-01 -2.871785545721650124e-03
3.653384447097778320e-01 1.480709612369537354e-01 -3.103442192077636719e-01
-4.506440162658691406e-01 2.451644539833068848e-01 -4.877900183200836182e-01
-8.263261318206787109e-01 -3.612375557422637939e-01 1.525016725063323975e-01
-8.252091705799102783e-02 -4.013194441795349121e-01 -3.117587864398956299e-01
4.095025360584259033e-01 1.480709612369537354e-01 -1.613127738237380981e-01
-2.324678599834442139e-01 -4.013194441795349121e-01 3.267237842082977295e-01
-6.916109323501586914e-01 -3.450523912906646729e-01 -3.833904862403869629e-01
3.188425209373235703e-03 1.808943152427673340e-01 -1.194352507591247559e-01
2.687033414840698242e-01 1.480709612369537354e-01 -1.018590386956930161e-02
-2.137885689735412598e-01 2.943004667758941650e-01 5.554995536804199219e-01
-4.853671491146087646e-01 1.480709612369537354e-01 5.200777053833007812e-01
-5.502191185951232910e-01 -4.013194441795349121e-01 -5.283917859196662903e-02
3.130098581314086914e-01 -4.013194441795349121e-01 -2.391736358404159546e-01
4.555436372756958008e-01 -2.666368894279003143e-02 -7.964708209037780762e-01
-1.952842473983764648e-01 -4.013194441795349121e-01 -5.635935068130493164e-01
4.090229794383049011e-02 -4.013194441795349121e-01 -1.233249008655548096e-01
-5.836655199527740479e-02 4.863229393959045410e-01 2.416355013847351074e-01
-1.950360536575317383e-01 2.213695049285888672e-01 6.741095781326293945e-01
-4.775345325469970703e-01 3.689918816089630127e-01 -3.169020265340805054e-02
-6.992701441049575806e-02 1.480709612369537354e-01 -1.228399574756622314e-02
5.774031281471252441e-01 1.480709612369537354e-01 1.447315812110900879e-01
-5.109272599220275879e-01 3.232653737068176270e-01 1.261757165193557739e-01
5.702273845672607422e-01 1.315426528453826904e-01 -6.012951135635375977e-01
7.486754059791564941e-01 2.195195853710174561e-01 -6.799226999282836914e-02
-2.497630007565021515e-02 4.501537680625915527e-01 -3.019627630710601807e-01
-2.546997368335723877e-02 5.959709882736206055e-01 6.284001469612121582e-02
1.019880548119544983e-01 -1.482542604207992554e-01 7.911829352378845215e-01
7.255558371543884277e-01 -4.013194441795349121e-01 -2.877061367034912109e-01
-1.177353039383888245e-01 3.076077401638031006e-01 -5.333591103553771973e-01
-4.369137287139892578e-01 3.321635723114013672e-01 2.235326319932937622e-01
-5.998474359512329102e-01 -2.189419269561767578e-01 -5.451731681823730469e-01
-4.129836857318878174e-01 -4.013194441795349121e-01 5.489245653152465820e-01
7.684871554374694824e-01 1.312713921070098877e-01 -2.638989388942718506e-01
-5.216875672340393066e-01 1.056590899825096130e-01 6.709291934967041016e-01
-1.707853823900222778e-01 1.561377793550491333e-01 -7.795926332473754883e-01
-2.913955450057983398e-01 -1.664854437112808228e-01 7.942019104957580566e-01
-5.947874188423156738e-01 -4.013194441795349121e-01 9.294413775205612183e-02
-4.135709404945373535e-01 1.480709612369537354e-01 -6.612416505813598633e-01
1.460897773504257202e-01 -4.013194441795349121e-01 -6.630649417638778687e-02
-9.056829810142517090e-01 1.499194949865341187e-01 1.620787807041779160e-04
-4.711406528949737549e-01 1.050230190157890320e-01 -7.721021175384521484e-01
3.188425209373235703e-03 3.149462938308715820e-01 -1.435624808073043823e-01
7.702581933699548244e-04 -3.875266611576080322e-01 -7.940458655357360840e-01
3.359178602695465088e-01 1.480709612369537354e-01 -5.401430130004882812e-01
6.024751439690589905e-02 -3.285335898399353027e-01 -7.945016622543334961e-01
4.524378776550292969e-01 1.299585849046707153e-01 -7.975082993507385254e-01
-3.536777496337890625e-01 -4.013194441795349121e-01 -3.554427921772003174e-01
-2.334090769290924072e-01 1.480709612369537354e-01 -3.639965057373046875e-01
4.397151470184326172e-01 -2.479955106973648071e-01 7.885952591896057129e-01
-3.708971738815307617e-01 -4.013194441795349121e-01 6.051929593086242676e-01
-2.731155157089233398e-01 4.338044822216033936e-01 -1.782018244266510010e-01
-7.045941352844238281e-01 1.480709612369537354e-01 -6.882364302873611450e-02
-7.599267363548278809e-01 -9.580931812524795532e-02 2.654983997344970703e-01
-1.339937299489974976e-01 1.480709612369537354e-01 2.288315594196319580e-01
8.661610484123229980e-01 7.688408344984054565e-02 -9.768275916576385498e-02
-7.823234796524047852e-01 1.691263467073440552e-01 1.597146242856979370e-01
-1.666122823953628540e-01 1.480709612369537354e-01 -4.173168912529945374e-02
-5.788327455520629883e-01 1.480709612369537354e-01 5.307348370552062988e-01
2.049445062875747681e-01 2.039908170700073242e-01 -7.045539617538452148e-01
6.117278337478637695e-01 -3.472969233989715576e-01 -5.306670069694519043e-01
1.029428243637084961e-01 1.480709612369537354e-01 2.454182654619216919e-01
-5.700606703758239746e-01 1.480709612369537354e-01 -7.598315924406051636e-02
3.212014436721801758e-01 3.067275881767272949e-01 5.219533443450927734e-01
-2.529320716857910156e-01 1.480709612369537354e-01 -2.358711957931518555e-01
5.185267329216003418e-01 -8.925753831863403320e-02 6.976807117462158203e-01
3.511726558208465576e-01 1.480709612369537354e-01 4.203015863895416260e-01
5.614716559648513794e-03 4.275685548782348633e-01 -3.389700651168823242e-01
-4.133141934871673584e-01 1.480709612369537354e-01 -7.590064406394958496e-01
6.896931529045104980e-01 2.410862892866134644e-01 -6.326084490865468979e-03
-4.773094058036804199e-01 3.131059110164642334e-01 -2.165409326553344727e-01
-6.394248008728027344e-01 1.480709612369537354e-01 -2.832034528255462646e-01
-5.903809666633605957e-01 -1.335348784923553467e-01 5.540280342102050781e-01
1.044740080833435059e-01 3.511046171188354492e-01 -1.838341238908469677e-03
-6.424193382263183594e-01 -1.808204650878906250e-01 -4.701129198074340820e-01
-7.189118266105651855e-01 -3.899976909160614014e-01 3.352955281734466553e-01
6.090533733367919922e-01 8.771483786404132843e-03 -5.352198481559753418e-01
5.805631279945373535e-01 2.383887469768524170e-01 -2.934348285198211670e-01
-3.610315918922424316e-01 3.728760778903961182e-01 -2.242876887321472168e-01
1.155584156513214111e-01 1.914172768592834473e-01 7.204978466033935547e-01
-3.986856937408447266e-01 -4.013194441795349121e-01 3.318450450897216797e-01
-4.762190282344818115e-01 1.480709612369537354e-01 1.768060326576232910e-01
5.459808111190795898e-01 2.155390828847885132e-01 4.266026020050048828e-01
