-4.202220216393470764e-02 -6.328023672103881836e-01 -2.417013049125671387e-01
-1.317307949066162109e-01 6.991582512855529785e-01 2.784065902233123779e-01
1.582439839839935303e-01 -4.587634205818176270e-01 3.079656660556793213e-01
-9.827870875597000122e-02 -4.089427590370178223e-01 3.125957548618316650e-01
1.088717430830001831e-01 5.550270080566406250e-01 -2.202452719211578369e-01
-3.551534116268157959e-01 -4.111251831054687500e-01 -1.168844625353813171e-01
2.928166687488555908e-01 -4.073452949523925781e-01 -9.238478541374206543e-02
-2.156776934862136841e-02 -2.971285879611968994e-01 -1.619517356157302856e-01
1.218324247747659683e-02 8.157241344451904297e-01 -2.195158153772354126e-01
1.953977644443511963e-01 -6.025571823120117188e-01 -7.488124817609786987e-02
1.063808724284172058e-01 7.639174461364746094e-01 -9.751307964324951172e-02
-7.187462598085403442e-02 -4.906418323516845703e-01 -3.243406414985656738e-01
-3.863899111747741699e-01 4.817218184471130371e-01 1.864347755908966064e-01
-1.030286699533462524e-01 -9.328313171863555908e-02 -1.030979230999946594e-01
1.487755179405212402e-01 6.277362257242202759e-02 -1.633196771144866943e-01
-8.620953559875488281e-02 3.118138909339904785e-01 1.117087677121162415e-01
2.811232581734657288e-02 -4.227845668792724609e-01 -9.919303655624389648e-02
3.009520471096038818e-01 5.680373311042785645e-01 1.086713969707489014e-01
1.108496934175491333e-01 7.288839817047119141e-01 8.347355574369430542e-02
-2.322307676076889038e-01 6.238754987716674805e-01 1.009014248847961426e-01
9.710157662630081177e-02 -2.291463762521743774e-01 -9.359033405780792236e-02
4.606340080499649048e-02 -4.227845668792724609e-01 8.299285918474197388e-02
-2.727121412754058838e-01 5.777378678321838379e-01 -9.663483500480651855e-02
-3.263569176197052002e-01 3.840410411357879639e-01 -2.010286152362823486e-01
-2.758442461490631104e-01 7.568056583404541016e-01 2.383009642362594604e-01
1.238877400755882263e-01 3.098108768463134766e-01 -1.819114387035369873e-01
-1.705866605043411255e-01 -3.619490265846252441e-01 5.925615783780813217e-03
2.083332836627960205e-01 6.466153264045715332e-01 -8.095493912696838379e-02
1.138731911778450012e-01 -6.169592142105102539e-01 -2.342367172241210938e-02
2.727600336074829102e-01 5.539889335632324219e-01 -2.622901499271392822e-01
2.133850753307342529e-01 8.067181110382080078e-01 1.816958636045455933e-01
-9.519000351428985596e-02 -3.670772910118103027e-01 -1.646383106708526611e-01
-1.919559538364410400e-01 -4.258945286273956299e-01 1.109524518251419067e-01
3.983879387378692627e-01 1.304235756397247314e-01 -1.726946383714675903e-01
1.365975290536880493e-01 5.175374150276184082e-01 1.418895274400711060e-01
2.653234899044036865e-01 7.222253680229187012e-01 2.770488262176513672e-01
4.645898938179016113e-01 3.308800756931304932e-01 -3.655267879366874695e-02
-3.027711808681488037e-01 7.679047584533691406e-01 1.400208175182342529e-01
-1.980679184198379517e-01 -5.268383026123046875e-01 -2.631046175956726074e-01
3.773459792137145996e-02 -5.812337994575500488e-01 2.258644998073577881e-01
-1.690733134746551514e-01 8.175392150878906250e-01 1.712819933891296387e-01
-2.049493044614791870e-01 1.106623113155364990e-01 1.481324136257171631e-01
7.451590895652770996e-02 -5.202009081840515137e-01 -3.108252882957458496e-01
-8.659297227859497070e-02 -6.206575036048889160e-01 1.986442357301712036e-01
-1.617915332317352295e-01 -1.613240092992782593e-01 4.921659827232360840e-02
-1.433383375406265259e-01 6.887758374214172363e-01 1.758678704500198364e-01
1.033207401633262634e-01 -6.370472908020019531e-01 -1.433718651533126831e-01
1.698260158300399780e-01 -1.631246954202651978e-01 -3.751134499907493591e-02
1.424161717295646667e-02 -6.404318809509277344e-01 1.879370510578155518e-01
3.910262286663055420e-01 5.026932358741760254e-01 5.448526144027709961e-02
7.321904879063367844e-03 -3.232419192790985107e-01 1.016982197761535645e-01
2.824895083904266357e-01 -5.288004875183105469e-01 1.494995038956403732e-02
-4.186704754829406738e-02 -3.733966946601867676e-01 -5.197905376553535461e-02
-3.711674213409423828e-01 -4.587634205818176270e-01 -1.528845429420471191e-01
6.515014171600341797e-02 7.510218620300292969e-01 -4.350665956735610962e-02
-2.164531052112579346e-01 2.031955420970916748e-01 2.055978775024414062e-01
2.679480016231536865e-01 2.470827549695968628e-01 2.102075517177581787e-01
3.440197184681892395e-02 4.574899673461914062e-01 -7.989306002855300903e-02
8.067998290061950684e-02 1.415978670120239258e-01 -8.740102499723434448e-02
1.966687850654125214e-02 -5.874868631362915039e-01 -2.356786280870437622e-01
3.269914165139198303e-02 2.506288886070251465e-01 8.431277424097061157e-02
-2.201190739870071411e-01 7.681283950805664062e-01 2.306909859180450439e-01
-3.402191102504730225e-01 4.393734335899353027e-01 2.128473669290542603e-01
6.238798797130584717e-02 -6.322641968727111816e-01 1.275699138641357422e-01
2.178357690572738647e-01 6.164628267288208008e-01 1.773310452699661255e-01
2.028496116399765015e-01 -4.449343681335449219e-01 1.318896859884262085e-01
-2.900014519691467285e-01 3.506790697574615479e-01 -1.188058704137802124e-01
-6.856401264667510986e-02 -4.227845668792724609e-01 -1.064357254654169083e-02
-3.779034018516540527e-01 -4.587634205818176270e-01 1.177433505654335022e-01
1.162090674042701721e-01 -4.515181779861450195e-01 3.576715290546417236e-01
3.779453337192535400e-01 -4.288234412670135498e-01 -1.696467213332653046e-02
-2.019847035408020020e-01 -4.128604233264923096e-01 -7.827772945165634155e-02
-2.570008039474487305e-01 2.961977422237396240e-01 -3.041318617761135101e-02
-6.198701262474060059e-02 -7.315423339605331421e-02 -4.054921679198741913e-03
9.341851808130741119e-03 -4.298512637615203857e-01 3.818566501140594482e-01
2.662875950336456299e-01 6.586360335350036621e-01 -1.127015799283981323e-01
-4.754073172807693481e-02 -3.937134742736816406e-01 1.181596890091896057e-01
2.941505908966064453e-01 -4.587634205818176270e-01 5.444997921586036682e-02
2.451368048787117004e-02 -5.943520665168762207e-01 1.533414702862501144e-02
2.568097710609436035e-01 -4.268918335437774658e-01 1.977915130555629730e-02
-6.784391403198242188e-02 7.008059024810791016e-01 -4.037994146347045898e-02
-6.928837299346923828e-02 2.339359968900680542e-01 1.002351418137550354e-01
4.846268892288208008e-02 -3.071012496948242188e-01 -1.484338492155075073e-01
-2.821891307830810547e-01 4.074184596538543701e-01 2.091354727745056152e-01
-1.490464359521865845e-01 3.332937061786651611e-01 -9.589093178510665894e-02
1.592276692390441895e-01 -5.955865383148193359e-01 -1.487076133489608765e-01
-1.312342882156372070e-01 -3.603217601776123047e-01 8.012825995683670044e-02
-3.397702276706695557e-01 3.934593498706817627e-01 -9.629477560520172119e-02
-2.822988033294677734e-01 -4.587634205818176270e-01 -2.103143185377120972e-01
6.493037194013595581e-02 -4.013786911964416504e-01 -1.567035615444183350e-01
1.657077521085739136e-01 -2.889285096898674965e-03 5.856706947088241577e-02
-6.307609379291534424e-02 -2.963634431362152100e-01 8.775303512811660767e-02
-1.355081498622894287e-01 1.769222319126129150e-01 2.921710014343261719e-01
7.932002842426300049e-02 7.239461541175842285e-01 -1.499718278646469116e-01
2.741534709930419922e-01 1.492151170969009399e-01 -5.968935042619705200e-02
2.106143385171890259e-01 -5.789212584495544434e-01 9.111762046813964844e-02
2.223978340625762939e-01 -4.587634205818176270e-01 2.056565433740615845e-01
1.778347194194793701e-01 1.939821057021617889e-02 -1.966748386621475220e-01
3.481149971485137939e-01 5.545960068702697754e-01 1.480660885572433472e-01
2.644265592098236084e-01 6.913961172103881836e-01 2.077556252479553223e-01
4.320925772190093994e-01 4.492678344249725342e-01 5.353747680783271790e-02
2.316410094499588013e-01 7.395206093788146973e-01 2.901484370231628418e-01
-3.403559923171997070e-01 2.470513135194778442e-01 -1.619891524314880371e-01
-1.012407392263412476e-01 -4.454308003187179565e-02 -1.090177372097969055e-01
-3.512000739574432373e-01 4.577364921569824219e-01 -1.151109952479600906e-02
-2.094339877367019653e-01 9.391579777002334595e-03 1.167455017566680908e-01
-1.319799125194549561e-01 -3.958686888217926025e-01 -1.088306978344917297e-01
3.103720545768737793e-01 2.556092441082000732e-01 -3.939330950379371643e-02
-1.850626915693283081e-01 -6.404318809509277344e-01 -9.836751222610473633e-02
-3.398271799087524414e-01 3.520827293395996094e-01 9.291660040616989136e-02
-1.066470444202423096e-01 3.429245650768280029e-01 -6.940522044897079468e-02
1.307380795478820801e-01 -9.646365791559219360e-02 -8.025694638490676880e-02
-1.735631525516510010e-01 -2.540124654769897461e-01 -2.559435181319713593e-02
9.685035049915313721e-02 -5.525885820388793945e-01 2.473009824752807617e-01
-2.423156052827835083e-01 -6.165783405303955078e-01 -1.755155064165592194e-02
-2.660799026489257812e-01 -5.128995776176452637e-01 -2.028522789478302002e-01
3.759559094905853271e-01 7.417982220649719238e-01 1.961106956005096436e-01
-1.562185734510421753e-01 7.551698684692382812e-01 1.727417558431625366e-01
-3.753639161586761475e-01 -4.132285416126251221e-01 1.364330668002367020e-02
-1.597527861595153809e-01 6.762475371360778809e-01 -2.467726357281208038e-02
2.941480576992034912e-01 6.335684657096862793e-01 -2.162698358297348022e-01
-3.006805777549743652e-01 5.331059098243713379e-01 6.781490053981542587e-03
-1.937115788459777832e-01 -1.285299658775329590e-01 8.744220435619354248e-02
2.856105268001556396e-01 3.001867979764938354e-02 -6.394196301698684692e-02
6.237174943089485168e-02 -4.587634205818176270e-01 -3.777388334274291992e-01
-1.426318287849426270e-01 4.218953847885131836e-01 -2.116312533617019653e-01
-3.261477649211883545e-01 7.093366384506225586e-01 2.992300391197204590e-01
-3.977347314357757568e-01 5.677567720413208008e-01 5.596967786550521851e-02
1.453382372856140137e-01 -2.884244322776794434e-01 -3.797299787402153015e-02
-3.045386821031570435e-02 -5.947286486625671387e-01 3.985357657074928284e-02
-1.882483214139938354e-01 -9.018847346305847168e-02 1.170484200119972229e-01
-7.418711483478546143e-02 5.709271132946014404e-02 -1.036581993103027344e-01
3.412880599498748779e-01 -4.144468605518341064e-01 -4.894560575485229492e-02
-2.144925743341445923e-01 -5.606559664011001587e-02 -1.798506081104278564e-02
-2.174639701843261719e-01 3.287614136934280396e-02 -1.778773218393325806e-02
-5.088279023766517639e-02 3.531063497066497803e-01 -2.003416717052459717e-01
-8.402287960052490234e-03 6.986600160598754883e-01 -5.789206922054290771e-02
2.338599860668182373e-01 2.313164919614791870e-01 1.055232658982276917e-01
3.293693661689758301e-01 1.759033650159835815e-01 -7.360257208347320557e-02
-1.744660139083862305e-01 -5.798606872558593750e-01 -2.164143621921539307e-01
-1.564319878816604614e-01 -1.787467896938323975e-01 -2.854550443589687347e-02
1.262102723121643066e-01 -4.480145871639251709e-01 1.917254626750946045e-01
5.011341720819473267e-02 -1.538160592317581177e-01 1.228344067931175232e-02
2.238873578608036041e-02 -4.227845668792724609e-01 2.818997949361801147e-02
2.445297539234161377e-01 8.337717056274414062e-01 2.361168414354324341e-01
-1.662719845771789551e-01 -6.309999823570251465e-01 -1.922547668218612671e-01
1.036513745784759521e-01 -3.734545111656188965e-01 6.728890538215637207e-02
5.491854548454284668e-01 4.938802719116210938e-01 -1.218580175191164017e-02
-1.510588377714157104e-01 6.960278749465942383e-01 5.135999247431755066e-02
-5.902668088674545288e-02 -5.976796746253967285e-01 -7.716737687587738037e-02
-4.146839678287506104e-01 -4.587634205818176270e-01 -6.745745427906513214e-03
1.771120727062225342e-01 8.351618051528930664e-01 1.938305050134658813e-01
-1.092749610543251038e-01 2.851428389549255371e-01 -6.521553546190261841e-02
-3.496212661266326904e-01 1.694789677858352661e-01 -1.126514077186584473e-01
1.872394233942031860e-01 8.255284279584884644e-02 6.301062554121017456e-02
-3.399453461170196533e-01 -4.381669163703918457e-01 2.352913171052932739e-01
-1.095903888344764709e-01 4.089122712612152100e-01 1.218499019742012024e-01
1.460702419281005859e-01 -5.520886778831481934e-01 -2.551732957363128662e-01
-5.676775425672531128e-02 -4.668358862400054932e-01 2.881156206130981445e-01
-3.425842896103858948e-02 5.066278576850891113e-01 8.598524332046508789e-02
-2.320683747529983521e-01 7.222160696983337402e-01 2.628210484981536865e-01
-3.442872464656829834e-01 4.493638873100280762e-01 7.169268280267715454e-02
8.978304266929626465e-02 5.506587773561477661e-02 -9.693495929241180420e-02
-1.572081893682479858e-01 2.652553915977478027e-01 -1.213836222887039185e-01
-3.033926486968994141e-01 3.874035179615020752e-01 9.311240911483764648e-02
1.744339913129806519e-01 3.300188183784484863e-01 -2.382529824972152710e-01
9.053502976894378662e-02 5.207154154777526855e-01 1.639933884143829346e-01
-1.185368373990058899e-01 1.635846495628356934e-01 2.554873824119567871e-01
2.230388671159744263e-01 7.273502349853515625e-01 2.153299003839492798e-01
-2.575721144676208496e-01 -5.695259571075439453e-01 -1.472988575696945190e-01
-3.265634775161743164e-01 -4.857473075389862061e-01 3.362066671252250671e-02
-3.991069495677947998e-01 6.004546880722045898e-01 -1.812227768823504448e-03
-1.871048472821712494e-02 6.735949963331222534e-02 -1.271266043186187744e-01
6.638647615909576416e-02 -9.187437593936920166e-02 8.362318389117717743e-03
1.253939270973205566e-01 8.494440317153930664e-01 1.234788447618484497e-01
-4.352787509560585022e-02 -4.328652024269104004e-01 2.094780951738357544e-01
1.130577847361564636e-01 -3.550905883312225342e-01 -1.111984476447105408e-01
3.423031866550445557e-01 -4.587634205818176270e-01 -5.538913980126380920e-02
2.006340399384498596e-02 -5.497863888740539551e-01 -3.052030503749847412e-01
-3.268899619579315186e-01 5.745488405227661133e-01 5.478579923510551453e-02
1.227732226252555847e-01 2.589529938995838165e-02 -7.958190888166427612e-02
3.485216572880744934e-02 -6.189274191856384277e-01 -1.437637954950332642e-01
1.239980831742286682e-01 9.287752956151962280e-02 -4.437911137938499451e-02
3.304150998592376709e-01 -4.508090913295745850e-01 1.813396513462066650e-01
2.071081697940826416e-01 -5.716369152069091797e-01 -1.590568572282791138e-01
-1.876404434442520142e-01 -4.441436827182769775e-01 1.651725918054580688e-01
-1.079486757516860962e-01 -2.617780268192291260e-01 -1.137830018997192383e-01
1.010379195213317871e-01 -5.820490717887878418e-01 -2.322209328413009644e-01
4.294531047344207764e-02 -4.657825231552124023e-01 -3.175698220729827881e-01
-3.432279229164123535e-01 -4.074507057666778564e-01 -6.893167644739151001e-02
-1.706291586160659790e-01 -4.915455877780914307e-01 -2.901888489723205566e-01
-1.934301853179931641e-01 -4.166496992111206055e-01 -2.468023896217346191e-01
-2.272325307130813599e-01 1.351316273212432861e-01 -4.641232267022132874e-02
-1.848637461662292480e-01 -6.327003240585327148e-01 7.060264702886343002e-03
-6.435052305459976196e-02 -2.286923825740814209e-01 3.451749682426452637e-02
2.851454913616180420e-01 7.792283296585083008e-01 3.493975698947906494e-01
-3.335272893309593201e-02 -4.051679670810699463e-01 1.574036329984664917e-01
1.959300041198730469e-01 -4.154424071311950684e-01 2.794701457023620605e-01
3.914045691490173340e-01 3.706812858581542969e-01 -1.966144517064094543e-02
1.851845383644104004e-01 -4.245172441005706787e-01 -7.432437688112258911e-02
-2.014159038662910461e-02 -3.788446635007858276e-02 2.201665937900543213e-02
-2.917672693729400635e-01 -4.120671749114990234e-01 -1.389543265104293823e-01
-2.765600681304931641e-01 5.525776147842407227e-01 2.101420909166336060e-01
2.392382323741912842e-01 3.342467844486236572e-01 1.522438824176788330e-01
-7.742461282759904861e-03 3.655147552490234375e-01 -1.123725473880767822e-01
2.095550000667572021e-01 -5.117408037185668945e-01 -2.271011322736740112e-01
2.139011174440383911e-01 -4.356324970722198486e-01 -3.520115017890930176e-01
3.004699945449829102e-01 -4.074957370758056641e-01 7.256496697664260864e-02
-1.339404284954071045e-01 5.003901124000549316e-01 1.290279924869537354e-01
-1.819867342710494995e-01 6.053509116172790527e-01 1.164770871400833130e-01
-2.993611060082912445e-02 -4.587634205818176270e-01 -3.434255123138427734e-01
-4.103633463382720947e-01 -4.587634205818176270e-01 -7.542535662651062012e-02
1.384254246950149536e-01 -4.587634205818176270e-01 -2.953834533691406250e-01
2.223434299230575562e-01 5.753403902053833008e-01 2.750058472156524658e-01
-8.523692190647125244e-02 -1.643158048391342163e-01 -6.434409320354461670e-02
-1.042537670582532883e-02 -2.079666703939437866e-01 -7.631040364503860474e-02
-2.722402811050415039e-01 -5.450780987739562988e-01 1.346655339002609253e-01
-5.341293290257453918e-02 1.781769245862960815e-01 5.633142963051795959e-02
7.404644042253494263e-02 -1.474677491933107376e-02 -3.327421471476554871e-02
2.699408233165740967e-01 -4.073801636695861816e-01 -1.643458455801010132e-01
-6.947541236877441406e-02 -4.330360889434814453e-01 -2.410483807325363159e-01
4.310332238674163818e-01 4.252637922763824463e-01 -2.175901271402835846e-02
8.082187920808792114e-02 -4.227845668792724609e-01 3.519020229578018188e-02
-2.994010448455810547e-01 6.372216939926147461e-01 1.887591779232025146e-01
9.796893596649169922e-02 -4.227845668792724609e-01 -1.110445633530616760e-01
-3.113375902175903320e-01 6.815093755722045898e-01 9.098575264215469360e-02
-1.526104062795639038e-01 2.517358064651489258e-01 -2.360467612743377686e-01
-3.352948427200317383e-01 -4.133484363555908203e-01 -1.860815882682800293e-01
1.175099313259124756e-01 -3.931064605712890625e-01 -9.751645848155021667e-03
2.108090221881866455e-01 3.121004104614257812e-01 -1.347586810588836670e-01
2.278254032135009766e-01 1.961149871349334717e-01 1.093174517154693604e-01
-1.365054249763488770e-01 -4.270881712436676025e-01 2.355225682258605957e-01
-2.862742245197296143e-01 8.417668342590332031e-01 1.399119943380355835e-01
-2.809912264347076416e-01 5.368679761886596680e-01 -6.088215857744216919e-02
-2.556897997856140137e-01 7.565293312072753906e-01 1.089545935392379761e-01
-8.457208424806594849e-02 -4.227845668792724609e-01 -6.472923606634140015e-02
4.663761258125305176e-01 4.184980392456054688e-01 5.562637373805046082e-02
-3.977430518716573715e-03 -4.156269133090972900e-01 -3.870789408683776855e-01
3.316622972488403320e-01 4.612579345703125000e-01 -2.139113843441009521e-02
2.816639840602874756e-01 -4.225235581398010254e-01 -2.776495218276977539e-01
5.680433288216590881e-02 2.678323090076446533e-01 -7.830238342285156250e-02
1.375403851270675659e-01 7.941022515296936035e-01 2.415384501218795776e-01
2.885402739048004150e-01 -5.090754628181457520e-01 -3.723682090640068054e-02
-4.218883812427520752e-02 8.030442520976066589e-03 5.487745255231857300e-02
9.336588531732559204e-02 -2.725396752357482910e-01 2.361202426254749298e-02
2.475793659687042236e-01 5.240140557289123535e-01 2.039697766304016113e-01
1.746431589126586914e-01 -4.279859960079193115e-01 1.828988641500473022e-01
-2.823260128498077393e-01 3.809038698673248291e-01 1.283580362796783447e-01
-4.337738826870918274e-02 2.374479174613952637e-01 1.582869887351989746e-02
2.334127873182296753e-01 8.546428680419921875e-01 2.906313240528106689e-01
-2.696072757244110107e-01 -4.587634205818176270e-01 -2.737709879875183105e-01
5.394747480750083923e-02 7.217186689376831055e-01 -1.074993088841438293e-01
-9.093824028968811035e-02 6.275780797004699707e-01 2.748596072196960449e-01
-2.343791723251342773e-01 -4.587634205818176270e-01 2.527344822883605957e-01
3.103635609149932861e-01 6.940826773643493652e-01 1.678736209869384766e-01
2.030366510152816772e-01 -5.942406654357910156e-01 -1.682770811021327972e-02
-9.206813573837280273e-02 -4.587634205818176270e-01 3.638294041156768799e-01
3.188177645206451416e-01 6.734181642532348633e-01 -3.397110700607299805e-01
-1.621800512075424194e-01 -3.041298687458038330e-01 -2.124498365446925163e-03
1.265638470649719238e-01 -4.098635315895080566e-01 -3.269481658935546875e-01
2.665196955204010010e-01 -4.734782874584197998e-02 -5.813862383365631104e-02
-4.285453818738460541e-03 -5.924034714698791504e-01 -5.127850547432899475e-02
-7.960958033800125122e-02 -6.404318809509277344e-01 -1.973898410797119141e-01
-1.206945925951004028e-01 -4.494930207729339600e-01 -2.545059025287628174e-01
-2.482541203498840332e-01 -4.151133894920349121e-01 2.677767276763916016e-01
-1.124614402651786804e-01 -2.372010201215744019e-01 6.577872671186923981e-03
7.914506644010543823e-02 -3.101763427257537842e-01 6.592138856649398804e-02
2.718350589275360107e-01 -4.862259924411773682e-01 -1.229445561766624451e-01
1.516244709491729736e-01 -3.796777501702308655e-02 2.707311324775218964e-02
-9.767932444810867310e-02 -3.784892559051513672e-01 2.180045843124389648e-02
2.080671936273574829e-01 -1.206164658069610596e-01 -6.614817678928375244e-02
-8.100556582212448120e-02 -5.905228257179260254e-01 -2.309176027774810791e-01
1.260221153497695923e-01 -3.397592604160308838e-01 -2.953443489968776703e-02
-5.620236974209547043e-03 3.438674211502075195e-01 -2.242139130830764771e-01
-2.602331936359405518e-01 4.415549635887145996e-01 1.731736510992050171e-01
-1.143105924129486084e-01 -6.234307885169982910e-01 9.549248963594436646e-02
-1.460206508636474609e-01 6.731163263320922852e-01 1.049420759081840515e-01
-4.133236408233642578e-01 -4.508499503135681152e-01 7.332094013690948486e-02
-1.569327265024185181e-01 -4.587634205818176270e-01 -3.213998675346374512e-01
2.452030964195728302e-02 7.311114668846130371e-01 -2.028038054704666138e-01
3.245029151439666748e-01 6.987671256065368652e-01 -2.546011209487915039e-01
-3.450965881347656250e-01 4.929246306419372559e-01 -5.970975756645202637e-02
-1.401620358228683472e-01 -6.113675832748413086e-01 -2.297418005764484406e-02
3.537423908710479736e-02 4.176053702831268311e-01 -1.099138334393501282e-01
-1.730436831712722778e-01 3.910116851329803467e-02 1.056453585624694824e-01
2.664313018321990967e-01 -4.587634205818176270e-01 2.234737873077392578e-01
7.798762619495391846e-02 -1.898102015256881714e-01 -7.900378108024597168e-02
-3.133168220520019531e-01 4.092761576175689697e-01 3.467467799782752991e-02
-7.004249095916748047e-02 -5.237215161323547363e-01 2.833427190780639648e-01
-2.178703546524047852e-01 1.548863202333450317e-01 -1.234308723360300064e-02
-7.783523947000503540e-02 5.383370518684387207e-01 1.100197955965995789e-01
1.850025951862335205e-01 4.823066890239715576e-01 1.542639136314392090e-01
1.893512755632400513e-01 -4.438784718513488770e-01 -1.838447600603103638e-01
-3.387440443038940430e-01 5.422198772430419922e-01 -8.245380967855453491e-02
-1.775028854608535767e-01 3.379059731960296631e-01 -1.780150532722473145e-01
-3.558751940727233887e-02 6.895698904991149902e-01 9.290122427046298981e-03
-1.761153787374496460e-01 1.568750739097595215e-01 1.314926594495773315e-01
-1.391256898641586304e-01 -4.227845668792724609e-01 -5.441226810216903687e-02
1.280697733163833618e-01 -6.404318809509277344e-01 1.369703859090805054e-01
-9.107936918735504150e-02 2.418754100799560547e-01 4.703648015856742859e-02
-2.353075593709945679e-01 -4.339330196380615234e-01 3.292329609394073486e-01
4.818783104419708252e-01 4.905450046062469482e-01 2.949840761721134186e-02
2.461187392473220825e-01 5.615972280502319336e-01 1.542690098285675049e-01
1.072285100817680359e-01 -4.457301199436187744e-01 -4.066552221775054932e-01
-3.606906235218048096e-01 -4.587634205818176270e-01 -1.011059507727622986e-01
-3.297882378101348877e-01 7.571032047271728516e-01 2.078159898519515991e-01
2.475513219833374023e-01 -4.906698763370513916e-01 1.437378227710723877e-01
-8.576744049787521362e-02 1.086181253194808960e-01 -1.183119192719459534e-01
-8.193311840295791626e-02 -3.790487051010131836e-01 -8.531467616558074951e-02
2.449420988559722900e-01 5.560166239738464355e-01 1.147243604063987732e-01
-1.667973846197128296e-01 -5.128374695777893066e-01 2.539434432983398438e-01
-3.075925409793853760e-01 -5.203556418418884277e-01 8.554247766733169556e-02
1.584769338369369507e-01 -8.622918277978897095e-02 6.566822528839111328e-03
-3.135123476386070251e-02 -5.413593649864196777e-01 2.811654210090637207e-01
2.462513893842697144e-01 -4.161676168441772461e-01 2.408982515335083008e-01
5.448929071426391602e-01 4.481838345527648926e-01 3.025732189416885376e-02
4.007004499435424805e-01 1.517097204923629761e-01 -1.046716049313545227e-01
-1.267351359128952026e-01 -2.037021517753601074e-01 5.028689280152320862e-02
-2.746352367103099823e-02 3.933760523796081543e-01 -2.250615507364273071e-01
-1.822817511856555939e-02 -3.726723492145538330e-01 1.761849969625473022e-02
2.369206398725509644e-01 -5.787231326103210449e-01 -2.662917831912636757e-03
1.467937529087066650e-01 -6.404318809509277344e-01 1.042686626315116882e-01
-5.933529883623123169e-02 -5.857447981834411621e-01 2.115576416254043579e-01
-2.200306653976440430e-01 -4.215076267719268799e-01 -3.561688959598541260e-01
-3.259233236312866211e-01 -5.219829082489013672e-01 -3.911121562123298645e-02
3.627024292945861816e-01 -4.245733618736267090e-01 -1.238398030400276184e-01
1.490492746233940125e-02 -4.227845668792724609e-01 -2.285719849169254303e-02
3.069526329636573792e-02 7.717084884643554688e-01 -2.408366650342941284e-01
-1.565603464841842651e-01 -5.911434441804885864e-02 1.058497428894042969e-01
6.675545871257781982e-02 1.946610808372497559e-01 6.108589470386505127e-02
-2.618230283260345459e-01 3.693448007106781006e-01 1.905658096075057983e-01
-3.224766850471496582e-01 -4.075119197368621826e-01 1.227970048785209656e-01
-1.578883230686187744e-01 -4.326917529106140137e-01 -1.975326687097549438e-01
-1.466719061136245728e-01 7.460407018661499023e-01 1.310514211654663086e-01
3.334621489048004150e-01 1.463376879692077637e-01 -1.286416351795196533e-01
2.832886949181556702e-02 6.719813346862792969e-01 -7.343678921461105347e-02
1.331117898225784302e-01 1.415056139230728149e-01 -9.209487587213516235e-02
1.637956947088241577e-01 3.113471269607543945e-01 -2.861947119235992432e-01
2.762491703033447266e-01 -4.587634205818176270e-01 1.197719722986221313e-01
-2.471846044063568115e-01 -5.790377259254455566e-01 1.005571037530899048e-01
3.552990555763244629e-01 -4.449785649776458740e-01 -1.759083122014999390e-01
-9.586334973573684692e-02 3.483580946922302246e-01 -1.237275674939155579e-01
-1.337431669235229492e-01 -4.230948984622955322e-01 -3.968730568885803223e-01
2.359599173069000244e-01 4.230073988437652588e-01 -8.841953426599502563e-02
-7.796532660722732544e-02 2.446801662445068359e-01 -6.748891621828079224e-02
2.161583602428436279e-01 6.903409957885742188e-01 1.322807669639587402e-01
-2.232307493686676025e-01 -6.167433261871337891e-01 7.257056981325149536e-02
1.656762808561325073e-01 8.262484669685363770e-01 2.417611926794052124e-01
1.762431859970092773e-01 -4.283252060413360596e-01 8.091357350349426270e-02
-1.466616839170455933e-01 -2.455820739269256592e-01 7.850296795368194580e-02
-2.014346420764923096e-01 8.376248180866241455e-02 -4.677229002118110657e-02
2.204126715660095215e-01 5.631930232048034668e-01 -2.707324624061584473e-01
2.934211492538452148e-01 6.368348598480224609e-01 -1.775568276643753052e-01
-2.506558895111083984e-01 -4.372147321701049805e-01 1.241836398839950562e-01
1.223336085677146912e-01 -2.789738215506076813e-02 -7.037868350744247437e-02
-2.822868824005126953e-01 -5.734996199607849121e-01 1.107915863394737244e-02
2.675849795341491699e-01 9.071033000946044922e-01 2.767325639724731445e-01
-1.516369581222534180e-01 -6.199910044670104980e-01 2.931074053049087524e-02
-1.715405583381652832e-01 -5.624974370002746582e-01 -2.511136531829833984e-01
1.934933811426162720e-01 8.047711849212646484e-01 2.750228345394134521e-01
-1.948142647743225098e-01 8.777524530887603760e-02 1.089040115475654602e-01
-3.054229021072387695e-01 4.021593034267425537e-01 -6.721431016921997070e-02
-2.894216179847717285e-01 -4.587634205818176270e-01 1.547808200120925903e-01
-6.428166758269071579e-03 -6.286177635192871094e-01 1.403243392705917358e-01
-1.888638585805892944e-01 7.492356300354003906e-01 8.779443800449371338e-02
8.733970113098621368e-03 3.849745690822601318e-01 -1.684632748365402222e-01
3.077790141105651855e-01 2.614168226718902588e-01 1.474139988422393799e-01
2.637532055377960205e-01 4.005014300346374512e-01 -1.448435336351394653e-01
2.917241752147674561e-01 -4.587634205818176270e-01 -1.985732913017272949e-01
3.037661612033843994e-01 6.730033159255981445e-01 2.145995944738388062e-01
-1.174570713192224503e-02 5.798276662826538086e-01 -1.089922338724136353e-01
-1.188888028264045715e-01 6.999080777168273926e-01 1.338383108377456665e-01
-2.749302424490451813e-02 -4.227845668792724609e-01 7.972255349159240723e-03
-1.929506808519363403e-01 -7.018795609474182129e-02 7.923769950866699219e-02
-2.480823844671249390e-01 -4.587634205818176270e-01 -3.090628683567047119e-01
-1.211826223880052567e-02 -4.227845668792724609e-01 1.055818498134613037e-01
2.661957740783691406e-01 7.629175782203674316e-01 3.029810488224029541e-01
1.858391799032688141e-02 -4.027483463287353516e-01 1.460596621036529541e-01
4.371681511402130127e-01 1.370316147804260254e-01 -1.484508514404296875e-01
-1.522448360919952393e-01 -3.951511383056640625e-01 3.576186299324035645e-02
2.575647458434104919e-02 5.312635898590087891e-01 -1.351081132888793945e-01
-3.011677265167236328e-01 -4.179989099502563477e-01 -2.690882086753845215e-01
2.553406655788421631e-01 -5.433904528617858887e-01 9.228798002004623413e-02
-5.217421799898147583e-02 9.752691537141799927e-02 7.040167599916458130e-02
9.677408635616302490e-02 -5.814718008041381836e-01 2.032709270715713501e-01
-2.363719977438449860e-02 -4.249278604984283447e-01 2.643913328647613525e-01
2.065878659486770630e-01 -1.934013664722442627e-01 -3.540451079607009888e-02
-2.401986569166183472e-01 -4.073189496994018555e-01 2.120992094278335571e-01
3.607640266418457031e-01 -4.186407923698425293e-01 1.738741993904113770e-02
-3.801377117633819580e-02 -1.829245686531066895e-01 -2.940750122070312500e-02
-3.319740593433380127e-01 3.819198310375213623e-01 -1.471220105886459351e-01
1.286772340536117554e-01 5.601136684417724609e-01 1.457408368587493896e-01
1.007980778813362122e-01 -1.501356363296508789e-01 -7.217004895210266113e-04
2.090559303760528564e-01 5.655564665794372559e-01 1.912136524915695190e-01
-8.805527538061141968e-02 1.360600292682647705e-01 5.804599076509475708e-02
3.576090037822723389e-01 -4.443451762199401855e-01 1.363097876310348511e-01
1.342952400445938110e-01 -3.870310485363006592e-01 -8.490488678216934204e-02
7.680120319128036499e-02 7.064655423164367676e-01 -1.830965876579284668e-01
1.422495394945144653e-01 -4.350552856922149658e-01 -2.360994517803192139e-01
-2.733735740184783936e-01 1.961789131164550781e-01 -8.128482103347778320e-02
-6.084182113409042358e-02 -4.227845668792724609e-01 -1.398750692605972290e-01
-1.880935728549957275e-01 3.122695684432983398e-01 -1.338948905467987061e-01
2.157358229160308838e-01 8.273230791091918945e-01 1.207098886370658875e-01
-3.054951429367065430e-01 6.820874810218811035e-01 1.427048444747924805e-01
1.394668817520141602e-01 8.024740219116210938e-01 1.747218221426010132e-01
2.251371294260025024e-01 -5.815950632095336914e-01 -5.733520165085792542e-02
3.083367347717285156e-01 -4.214174747467041016e-01 -2.328203171491622925e-01
-1.689585596323013306e-01 -5.722600817680358887e-01 2.051880955696105957e-01
-2.851715683937072754e-01 7.037832736968994141e-01 2.505809962749481201e-01
-1.995727270841598511e-01 -9.372608363628387451e-02 -1.005728729069232941e-02
-1.469788104295730591e-01 8.421775102615356445e-01 1.999246180057525635e-01
6.848498433828353882e-02 -2.057340890169143677e-01 -3.695992007851600647e-02
-1.411388963460922241e-01 -4.072942733764648438e-01 2.745713889598846436e-01
2.062401324510574341e-01 6.968848705291748047e-01 -1.119398102164268494e-01
-1.717607527971267700e-01 3.846021592617034912e-01 -2.195821404457092285e-01
-2.311867475509643555e-01 2.175927758216857910e-01 -2.472461946308612823e-02
3.269965052604675293e-01 2.259574532508850098e-01 -1.198226884007453918e-01
7.276708632707595825e-02 -2.668723165988922119e-01 -1.121132448315620422e-01
3.162408620119094849e-02 3.568972945213317871e-01 -1.390418857336044312e-01
-1.002392247319221497e-01 6.561815738677978516e-01 8.830557018518447876e-02
-1.011378690600395203e-01 3.655368387699127197e-01 1.025482267141342163e-01
2.476881891489028931e-01 6.318255662918090820e-01 -3.094760775566101074e-01
-1.020475700497627258e-01 -1.934115588665008545e-01 -3.678359091281890869e-02
-2.390687726438045502e-02 -4.227845668792724609e-01 -9.816347062587738037e-02
2.179581969976425171e-01 -4.587634205818176270e-01 2.536807358264923096e-01
-3.080414235591888428e-01 -5.433335304260253906e-01 -8.226252347230911255e-02
1.623724848031997681e-01 -2.082837820053100586e-01 -2.744154073297977448e-02
8.740355819463729858e-02 -5.194221809506416321e-02 -8.689518435858190060e-04
1.811376810073852539e-01 -4.587634205818176270e-01 -2.511842250823974609e-01
1.953935325145721436e-01 -6.404318809509277344e-01 -4.881910234689712524e-02
-3.396562859416007996e-02 2.347749471664428711e-01 -2.318757772445678711e-02
5.925532802939414978e-02 5.410389304161071777e-01 1.286479532718658447e-01
-1.693173348903656006e-01 -3.777776956558227539e-01 -8.617164939641952515e-02
-1.695417761802673340e-01 2.231266200542449951e-01 1.302981525659561157e-01
2.053228020668029785e-01 2.478683441877365112e-01 -1.185108572244644165e-01
1.729198247194290161e-01 3.104663491249084473e-01 -1.956971287727355957e-01
4.245344400405883789e-01 6.509215235710144043e-01 -2.195294201374053955e-01
2.954658269882202148e-01 5.774513483047485352e-01 1.583260744810104370e-01
-2.211716026067733765e-01 5.919367671012878418e-01 1.216186508536338806e-01
-1.146311089396476746e-01 -4.192503690719604492e-01 -1.673248857259750366e-01
-8.654875308275222778e-02 2.099242210388183594e-01 -1.063660159707069397e-01
5.892213806509971619e-02 -4.034786522388458252e-01 1.338195949792861938e-01
1.192443892359733582e-01 -4.587634205818176270e-01 2.827518284320831299e-01
-3.262871801853179932e-01 -4.587634205818176270e-01 -1.919087320566177368e-01
2.039523050189018250e-02 -4.064976572990417480e-01 -1.876561343669891357e-01
4.308172762393951416e-01 3.619949817657470703e-01 -1.853461563587188721e-02
2.587252259254455566e-01 2.808128595352172852e-01 1.645859777927398682e-01
1.282580941915512085e-01 -2.979320585727691650e-01 -1.371917896904051304e-03
-1.196981817483901978e-01 2.224839627742767334e-01 -1.717050224542617798e-01
1.743659824132919312e-01 -5.786483287811279297e-01 1.485957503318786621e-01
2.736654579639434814e-01 -4.141680002212524414e-01 1.953115314245223999e-01
-2.688939869403839111e-01 4.433718025684356689e-01 2.164640426635742188e-01
6.585417687892913818e-02 -6.064561009407043457e-01 4.043427482247352600e-02
-1.006600707769393921e-01 -6.005703210830688477e-01 -2.916809357702732086e-02
-1.619326621294021606e-01 -4.587634205818176270e-01 3.231660723686218262e-01
3.402363657951354980e-01 6.474093794822692871e-01 -1.651024967432022095e-01
-3.873871862888336182e-01 -4.468370676040649414e-01 1.592094153165817261e-01
-3.140768706798553467e-01 -4.217091202735900879e-01 2.491926252841949463e-01
3.853699862957000732e-01 4.668300151824951172e-01 -1.200488358736038208e-01
5.245472192764282227e-01 3.114789426326751709e-01 -2.005338296294212341e-02
2.411383837461471558e-01 -9.630978852510452271e-02 -4.974052682518959045e-02
1.906648091971874237e-02 5.361232161521911621e-01 9.143941849470138550e-02
1.797280907630920410e-01 6.400706171989440918e-01 1.680053919553756714e-01
-2.469040453433990479e-01 -4.350314438343048096e-01 -5.970806255936622620e-02
2.929101884365081787e-01 2.902192771434783936e-01 2.043021917343139648e-01
-1.814902275800704956e-01 -9.110068902373313904e-03 9.002939611673355103e-02
2.165587842464447021e-01 4.088740423321723938e-02 -2.195489704608917236e-01
-1.521070860326290131e-02 -4.587634205818176270e-01 3.404442965984344482e-01
-2.279900759458541870e-02 -2.974754571914672852e-01 9.756378084421157837e-02
-1.010613590478897095e-01 6.429017186164855957e-01 1.669953763484954834e-01
-1.803535372018814087e-01 1.189723238348960876e-01 1.157084405422210693e-01
-3.549978137016296387e-01 7.846686244010925293e-01 2.941298186779022217e-01
3.470735549926757812e-01 4.336780309677124023e-01 -6.156399846076965332e-02
-1.766450405120849609e-01 1.733525693416595459e-01 2.095112502574920654e-01
-5.839329957962036133e-02 -8.510863780975341797e-02 3.985464945435523987e-02
1.619329303503036499e-01 -4.172056913375854492e-01 -3.452627658843994141e-01
3.350043594837188721e-01 -4.513753354549407959e-01 -2.062564045190811157e-01
-2.059652470052242279e-02 -4.317768663167953491e-02 -1.471781078726053238e-02
2.113828957080841064e-01 -4.501204788684844971e-01 3.122590780258178711e-01
2.198549509048461914e-01 8.746850490570068359e-01 2.356611490249633789e-01
-2.715286910533905029e-01 6.053925752639770508e-01 2.165915668010711670e-01
3.774896264076232910e-01 4.954938888549804688e-01 -1.555575132369995117e-01
-1.481495052576065063e-01 -1.339906752109527588e-01 9.753546863794326782e-02
-1.939776986837387085e-01 7.447449564933776855e-01 1.383799761533737183e-01
2.132141739130020142e-01 3.296251893043518066e-01 1.090653836727142334e-01
-5.516855791211128235e-02 7.465635538101196289e-01 -4.742352664470672607e-02
-2.496518343687057495e-01 7.494719624519348145e-01 1.990608274936676025e-01
3.226835280656814575e-02 7.249587178230285645e-01 -1.520190685987472534e-01
-2.820522487163543701e-01 -4.515428245067596436e-01 -2.160011604428291321e-02
1.324452310800552368e-01 -1.775012761354446411e-01 -1.618820242583751678e-02
4.358938895165920258e-03 -6.312754750251770020e-01 -2.436745762825012207e-01
-1.857640892267227173e-01 2.346998006105422974e-01 1.651096791028976440e-01
-1.346341669559478760e-01 2.465199679136276245e-01 -4.301057755947113037e-02
-5.076376721262931824e-02 -2.086876183748245239e-01 -6.730867922306060791e-02
1.277182251214981079e-01 -4.072262644767761230e-01 2.583422958850860596e-01
-2.199286371469497681e-01 -1.215457078069448471e-02 -3.383797034621238708e-02
-6.832937709987163544e-03 6.779385805130004883e-01 -1.389517784118652344e-01
-2.211239933967590332e-01 3.986233472824096680e-01 1.633438616991043091e-01
-1.574079841375350952e-01 2.175080031156539917e-01 2.862571477890014648e-01
-2.470851391553878784e-01 2.620119452476501465e-01 -3.313520550727844238e-02
-4.165161252021789551e-01 -4.295698702335357666e-01 2.563137561082839966e-02
-2.951900959014892578e-01 -4.587634205818176270e-01 2.248553335666656494e-01
3.815940767526626587e-02 -4.587634205818176270e-01 3.097212910652160645e-01
1.958866268396377563e-01 4.235991239547729492e-01 -2.418177947402000427e-02
1.091505289077758789e-01 6.655608117580413818e-02 -1.314072608947753906e-01
7.538080215454101562e-02 -4.469373822212219238e-01 -2.653593122959136963e-01
1.624983102083206177e-01 -6.404318809509277344e-01 1.458794251084327698e-02
1.884118467569351196e-01 6.790174841880798340e-01 2.041194140911102295e-01
-1.798816770315170288e-01 8.271275758743286133e-01 2.194754034280776978e-01
1.933386474847793579e-01 -2.542420104146003723e-02 3.750297799706459045e-02
4.076940417289733887e-01 1.713334769010543823e-01 -1.992491930723190308e-01
-1.705747544765472412e-01 6.672177910804748535e-01 6.364724040031433105e-02
9.008689969778060913e-02 6.499005109071731567e-02 -6.270834803581237793e-02
1.431439220905303955e-01 -6.289833188056945801e-01 -1.784852147102355957e-01
3.802756667137145996e-01 5.130637288093566895e-01 -2.806234546005725861e-02
3.381908312439918518e-02 -4.261376857757568359e-01 -4.099241793155670166e-01
2.114398479461669922e-01 -4.074745178222656250e-01 2.195833623409271240e-01
2.635610699653625488e-01 5.946047231554985046e-02 -6.275935471057891846e-02
-2.464415431022644043e-01 7.602055668830871582e-01 2.826600074768066406e-01
-2.036825120449066162e-01 6.480861306190490723e-01 1.110411137342453003e-01
2.231103032827377319e-01 3.511747419834136963e-01 -1.744230538606643677e-01
4.767432212829589844e-01 3.197554349899291992e-01 4.648215603083372116e-03
2.098389565944671631e-01 1.317164599895477295e-01 6.551840156316757202e-02
-3.586910068988800049e-01 3.877308070659637451e-01 6.837662309408187866e-02
1.616719365119934082e-01 1.079494655132293701e-01 -7.772765308618545532e-02
2.010667771100997925e-01 -4.294287562370300293e-01 -3.014605306088924408e-02
5.703448131680488586e-02 -3.508881330490112305e-01 -1.598713397979736328e-01
-5.581554770469665527e-02 -6.062367558479309082e-01 -1.122577786445617676e-01
-2.773031294345855713e-01 3.505039513111114502e-01 -2.045135013759136200e-02
1.507692039012908936e-01 -5.318144559860229492e-01 2.314263880252838135e-01
-8.726631104946136475e-02 -1.205773726105690002e-01 -6.782813370227813721e-02
-1.519676595926284790e-01 -4.038527309894561768e-01 9.048185497522354126e-02
-1.146404594182968140e-01 -3.179436028003692627e-01 -1.348776966333389282e-01
-1.116937175393104553e-01 2.409342527389526367e-01 -1.246746778488159180e-01
-9.033206850290298462e-02 -4.238600432872772217e-01 3.723890185356140137e-01
-4.812990501523017883e-02 5.382197499275207520e-01 5.411542952060699463e-02
2.034940421581268311e-01 3.995763957500457764e-01 1.230486556887626648e-01
-1.217292696237564087e-01 -4.227845668792724609e-01 -1.230100169777870178e-02
-5.074676871299743652e-02 -3.491138219833374023e-01 -1.723137497901916504e-01
-3.526436686515808105e-01 5.875753164291381836e-01 -1.134786289185285568e-02
-2.145614475011825562e-02 1.566276848316192627e-01 6.245486065745353699e-02
-3.142834603786468506e-01 5.879306793212890625e-01 9.194026142358779907e-02
-2.430901378393173218e-01 2.175779789686203003e-01 -1.067698523402214050e-01
1.264299452304840088e-01 -6.267873644828796387e-01 -6.673651188611984253e-02
1.222778260707855225e-01 -1.341513693332672119e-01 -6.443421542644500732e-02
-3.354181349277496338e-01 -4.072738885879516602e-01 -2.516194991767406464e-02
-6.864988058805465698e-02 5.638782382011413574e-01 1.648291200399398804e-01
2.064526975154876709e-01 -5.822795033454895020e-01 -1.136775836348533630e-01
7.324710953980684280e-03 7.438667416572570801e-01 -1.109969541430473328e-01
-3.760482966899871826e-01 -4.196074604988098145e-01 1.283444315195083618e-01
4.636785089969635010e-01 4.653141498565673828e-01 -7.484723627567291260e-02
7.472522556781768799e-02 -6.189350485801696777e-01 8.445364981889724731e-02
4.412620887160301208e-02 -4.088373780250549316e-01 -3.159604072570800781e-01
-1.997631937265396118e-01 7.524663209915161133e-01 1.890754401683807373e-01
-6.593185663223266602e-02 -5.352006554603576660e-01 -3.140653371810913086e-01
1.395102441310882568e-01 6.656373143196105957e-01 1.694439053535461426e-01
-1.406815052032470703e-01 -4.227845668792724609e-01 -1.285855025053024292e-01
-6.156532466411590576e-02 -4.587634205818176270e-01 3.442701101303100586e-01
-5.860159173607826233e-02 -4.227845668792724609e-01 8.524754643440246582e-02
-3.036944866180419922e-01 -4.086366891860961914e-01 1.649387925863265991e-01
5.414794385433197021e-02 8.020446300506591797e-01 -2.329792827367782593e-01
3.709398508071899414e-01 4.667229056358337402e-01 2.711334265768527985e-03
5.711057409644126892e-02 -5.859879851341247559e-01 -2.361581176519393921e-01
-1.791845560073852539e-01 -1.432874202728271484e-01 -9.567582048475742340e-03
-1.532216817140579224e-01 -4.227845668792724609e-01 2.342880889773368835e-02
-5.222862958908081055e-02 -4.072347879409790039e-01 2.931512594223022461e-01
-2.451280057430267334e-01 -4.948357939720153809e-01 1.985583752393722534e-01
-3.516982793807983398e-01 -4.086052775382995605e-01 5.526828020811080933e-02
-8.114075660705566406e-02 -6.101713776588439941e-01 8.144477009773254395e-02
1.846421211957931519e-01 1.941111832857131958e-01 -9.227426350116729736e-02
4.973547160625457764e-02 -4.493128061294555664e-01 2.310786694288253784e-01
-1.829482614994049072e-02 -1.561429947614669800e-01 -1.076056505553424358e-03
-2.608453035354614258e-01 -4.092828333377838135e-01 -2.584311664104461670e-01
1.143340021371841431e-01 -4.587634205818176270e-01 -3.647820651531219482e-01
-3.239593803882598877e-01 -4.587634205818176270e-01 1.195400357246398926e-01
-2.102501690387725830e-02 -5.421977043151855469e-01 -3.140475153923034668e-01
7.440811395645141602e-02 -4.211590290069580078e-01 -3.977725207805633545e-01
-4.138966649770736694e-02 2.456119507551193237e-01 -6.355853378772735596e-02
-3.362053930759429932e-01 5.396225452423095703e-01 -1.721556298434734344e-02
-1.537411510944366455e-01 8.106663823127746582e-01 1.232858523726463318e-01
1.895417422056198120e-01 -4.587634205818176270e-01 -3.033029139041900635e-01
1.069328263401985168e-01 -5.879051089286804199e-01 1.650901287794113159e-01
2.038366794586181641e-01 8.184735774993896484e-01 2.241182476282119751e-01
-1.615475267171859741e-01 2.182450443506240845e-01 -1.628325283527374268e-01
-8.512639999389648438e-02 -1.462689135223627090e-03 -1.125366315245628357e-01
3.934943079948425293e-01 1.665031611919403076e-01 -1.600609272718429565e-01
3.162119388580322266e-01 2.583323717117309570e-01 2.506447434425354004e-01
-1.883137598633766174e-02 6.519008874893188477e-01 -5.036031082272529602e-02
-1.310557574033737183e-01 2.003615647554397583e-01 1.498327702283859253e-01
2.799602150917053223e-01 5.654944181442260742e-01 -1.811488270759582520e-01
1.332767158746719360e-01 7.630009055137634277e-01 1.028996109962463379e-01
7.358878850936889648e-02 5.832291841506958008e-01 -2.158302813768386841e-01
-8.015539497137069702e-02 9.339257329702377319e-02 4.620721563696861267e-02
1.512027904391288757e-02 -4.587634205818176270e-01 -3.432810008525848389e-01
-3.564618229866027832e-01 4.485859870910644531e-01 -7.197277247905731201e-02
-1.227350383996963501e-01 -4.750163257122039795e-01 2.760252058506011963e-01
6.063321605324745178e-02 -2.101847976446151733e-01 4.645156208425760269e-03
1.380020231008529663e-01 6.858087182044982910e-01 1.200868785381317139e-01
4.891292750835418701e-02 -4.159967601299285889e-01 3.474625349044799805e-01
3.598526418209075928e-01 -4.587634205818176270e-01 4.861900582909584045e-02
2.441862821578979492e-01 5.759227275848388672e-01 -1.679166108369827271e-01
-2.718407213687896729e-01 5.455815196037292480e-01 -1.930539123713970184e-02
2.840819060802459717e-01 8.188876509666442871e-01 2.386401891708374023e-01
1.961221396923065186e-01 -6.202562451362609863e-01 4.186149314045906067e-02
-1.414262801408767700e-01 -3.887968659400939941e-01 -1.102157169952988625e-03
9.009514003992080688e-03 -4.177047312259674072e-01 1.808754354715347290e-01
-8.003721386194229126e-02 -6.404318809509277344e-01 1.570695191621780396e-01
-1.919338703155517578e-01 4.422266408801078796e-02 -4.485988989472389221e-02
-5.809998512268066406e-02 -4.504631739109754562e-03 7.315406110137701035e-03
-8.578359335660934448e-02 2.109736055135726929e-01 -2.143416106700897217e-01
1.123926863074302673e-01 -4.227845668792724609e-01 7.673673331737518311e-03
2.693805694580078125e-01 4.443597197532653809e-01 -7.418750226497650146e-02
2.606219947338104248e-01 6.056374311447143555e-01 -2.738101184368133545e-01
2.763129472732543945e-01 -4.121794104576110840e-01 -5.201561748981475830e-02
-4.250595346093177795e-02 -2.610928118228912354e-01 -1.464231759309768677e-01
-9.924536943435668945e-02 2.732870578765869141e-01 -1.632346510887145996e-01
-1.034843772649765015e-01 -4.480859935283660889e-01 -4.161151647567749023e-01
1.165867224335670471e-01 -2.623969614505767822e-01 -5.698747187852859497e-02
4.153429344296455383e-02 -6.064212322235107422e-01 1.966012567281723022e-01
5.231650080531835556e-03 -3.717873096466064453e-01 -2.761973813176155090e-02
-2.090981602668762207e-01 -4.242613315582275391e-01 -1.116209849715232849e-01
-1.238827705383300781e-01 -5.772149562835693359e-01 2.187459319829940796e-01
-1.327918320894241333e-01 -5.852040648460388184e-01 -2.250309437513351440e-01
-1.384259760379791260e-02 -4.227845668792724609e-01 -1.769651025533676147e-01
5.277728289365768433e-02 -3.909580409526824951e-01 9.016618877649307251e-02
3.072671964764595032e-02 -4.587634205818176270e-01 3.759053945541381836e-01
1.643474549055099487e-01 4.246252775192260742e-01 8.905329741537570953e-03
