-4.173066318035125732e-01 3.078784346580505371e-01 -3.197308182716369629e-01
2.398887425661087036e-01 2.235630899667739868e-01 8.643402904272079468e-02
4.236158728599548340e-01 -1.558556854724884033e-01 2.949063777923583984e-01
-7.455501705408096313e-02 -1.696086376905441284e-01 -4.047986865043640137e-01
4.870474934577941895e-01 1.931089907884597778e-01 2.570173144340515137e-01
-3.258277177810668945e-01 5.292055010795593262e-01 -6.319349259138107300e-02
-4.449529349803924561e-01 -5.701871514320373535e-01 6.357507407665252686e-02
4.614368677139282227e-01 4.586914479732513428e-01 3.645336329936981201e-01
-4.449529349803924561e-01 -1.461745947599411011e-01 1.195001155138015747e-01
-4.702026546001434326e-01 -4.271065294742584229e-01 -4.121664762496948242e-01
-4.253449141979217529e-01 -6.817058324813842773e-01 4.309875369071960449e-01
4.087394475936889648e-01 -2.059276998043060303e-01 -3.577513694763183594e-01
-4.449529349803924561e-01 5.768433585762977600e-02 1.173199042677879333e-01
3.981992006301879883e-01 4.792692363262176514e-01 2.752698771655559540e-02
-3.704308867454528809e-01 2.540715783834457397e-02 -4.121664762496948242e-01
8.741445094347000122e-02 5.292055010795593262e-01 2.607231438159942627e-01
-4.559799432754516602e-01 4.975876212120056152e-01 -3.385629951953887939e-01
-4.449529349803924561e-01 2.671666145324707031e-01 1.230590045452117920e-02
-4.449529349803924561e-01 2.828490361571311951e-02 -3.284414410591125488e-01
-4.660315215587615967e-01 -7.661852836608886719e-01 -3.156753182411193848e-01
-4.660315215587615967e-01 -6.814177036285400391e-01 -3.834412693977355957e-01
-2.026171833276748657e-01 4.975876212120056152e-01 6.148683372884988785e-03
4.715070724487304688e-01 -3.166518509387969971e-01 -4.121664762496948242e-01
3.893421590328216553e-01 -6.195900440216064453e-01 -2.445131391286849976e-01
4.614368677139282227e-01 -1.356215029954910278e-01 1.337237954139709473e-01
-2.316482663154602051e-01 2.446426153182983398e-01 -2.919707298278808594e-01
4.614368677139282227e-01 7.752828299999237061e-02 -3.866248428821563721e-01
3.006365895271301270e-01 -6.617472171783447266e-01 -3.976136445999145508e-01
1.793218255043029785e-01 -4.458118677139282227e-01 3.993687033653259277e-01
4.403582513332366943e-01 -2.532880753278732300e-02 -1.727914512157440186e-01
-4.976494312286376953e-01 -1.192454546689987183e-01 3.679932951927185059e-01
4.750795662403106689e-01 5.292055010795593262e-01 -1.588111668825149536e-01
-3.239188492298126221e-01 2.999492287635803223e-01 -4.121664762496948242e-01
-7.097816467285156250e-02 -6.720418483018875122e-02 -4.052975475788116455e-01
2.109471708536148071e-01 4.343509078025817871e-01 4.061583578586578369e-01
-2.928894162178039551e-01 -1.558556854724884033e-01 -2.178124040365219116e-01
-4.914677739143371582e-01 2.477907985448837280e-01 4.309875369071960449e-01
-4.891187548637390137e-01 1.832802742719650269e-01 1.372086107730865479e-01
-4.660315215587615967e-01 -3.807604908943176270e-01 2.564550340175628662e-01
-4.660315215587615967e-01 -4.723745882511138916e-01 -1.812074035406112671e-01
-4.976494312286376953e-01 -5.796782970428466797e-01 -3.237658143043518066e-01
2.494955360889434814e-01 -5.286053419113159180e-01 -3.594690859317779541e-01
1.188490986824035645e-01 -5.560175776481628418e-01 3.782901167869567871e-01
-2.843531370162963867e-01 1.561319380998611450e-01 3.782901167869567871e-01
4.403582513332366943e-01 -3.299495279788970947e-01 3.159532845020294189e-01
-4.688085615634918213e-01 5.292055010795593262e-01 3.561577796936035156e-01
3.837734460830688477e-02 2.446426153182983398e-01 3.113802075386047363e-01
-1.292440146207809448e-01 5.287951827049255371e-01 -4.225453734397888184e-01
4.087394475936889648e-01 -2.364536225795745850e-01 -2.544425725936889648e-01
-1.981261819601058960e-01 -1.558556854724884033e-01 -3.478350043296813965e-01
4.614368677139282227e-01 -1.928507536649703979e-02 -6.133412476629018784e-03
-2.073338478803634644e-01 -4.358525872230529785e-01 -3.594690859317779541e-01
3.981992006301879883e-01 -3.137377798557281494e-01 4.308634996414184570e-01
-4.449529349803924561e-01 3.313890099525451660e-01 1.850401461124420166e-01
4.806783795356750488e-01 -4.588689804077148438e-01 4.309875369071960449e-01
-1.574600785970687866e-01 -5.985105037689208984e-01 1.513306200504302979e-01
-1.208560317754745483e-01 4.647266864776611328e-01 -3.594690859317779541e-01
-3.627870976924896240e-01 4.170909821987152100e-01 -4.121664762496948242e-01
-4.157968759536743164e-01 -5.985105037689208984e-01 -1.749343872070312500e-01
4.403582513332366943e-01 -4.662507772445678711e-01 -7.739897817373275757e-02
1.284157782793045044e-01 -5.985105037689208984e-01 2.010794132947921753e-01
3.391429483890533447e-01 5.292055010795593262e-01 -3.976341485977172852e-01
-4.775434136390686035e-01 4.133777022361755371e-01 3.255926966667175293e-01
-4.660315215587615967e-01 4.154178779572248459e-03 3.238036110997200012e-02
2.112241387367248535e-01 -6.195900440216064453e-01 9.031329303979873657e-02
4.815978705883026123e-01 8.786521106958389282e-02 -3.067716360092163086e-01
3.928120434284210205e-01 2.235630899667739868e-01 1.800166666507720947e-01
2.440412491559982300e-01 -5.379516631364822388e-02 3.993687033653259277e-01
-1.252873539924621582e-01 2.446426153182983398e-01 3.577178716659545898e-01
4.512453675270080566e-01 -5.985105037689208984e-01 -1.362349689006805420e-01
3.100596666336059570e-01 -1.769348531961441040e-01 1.149475723505020142e-01
-5.366332530975341797e-01 4.975876212120056152e-01 -2.414125055074691772e-01
-3.249548971652984619e-01 -4.459349811077117920e-01 3.782901167869567871e-01
-2.145142257213592529e-01 5.292055010795593262e-01 3.296351730823516846e-01
4.181084036827087402e-01 2.446426153182983398e-01 2.592581808567047119e-01
3.911988139152526855e-01 1.436828374862670898e-01 -3.594690859317779541e-01
-1.083071604371070862e-01 1.788965165615081787e-01 -3.594690859317779541e-01
1.550316512584686279e-01 2.005141079425811768e-01 -3.805476427078247070e-01
-6.960671395063400269e-02 -1.558556854724884033e-01 -3.187675178050994873e-01
3.775075972080230713e-01 4.519167244434356689e-01 -3.805476427078247070e-01
4.403582513332366943e-01 6.271152943372726440e-02 1.808736622333526611e-01
1.502254605293273926e-01 -9.668504819273948669e-03 3.782901167869567871e-01
-4.027957320213317871e-01 2.578535974025726318e-01 2.756648361682891846e-01
-4.976494312286376953e-01 -4.841467142105102539e-01 4.122775197029113770e-01
-2.225179970264434814e-01 2.235630899667739868e-01 1.420744806528091431e-01
-4.334242343902587891e-01 2.446426153182983398e-01 -7.117303460836410522e-02
-4.823729693889617920e-01 -2.999859452247619629e-01 2.978549897670745850e-01
1.766221970319747925e-01 1.406158059835433960e-01 3.993687033653259277e-01
5.258093476295471191e-01 4.975876212120056152e-01 -3.447800576686859131e-01
7.209488749504089355e-02 3.697778880596160889e-01 3.572106063365936279e-01
-4.469503760337829590e-01 5.292055010795593262e-01 1.432541012763977051e-01
-1.198200061917304993e-01 3.091401159763336182e-01 3.782901167869567871e-01
3.312398791313171387e-01 2.446426153182983398e-01 -9.465835988521575928e-02
-1.059730723500251770e-01 2.446426153182983398e-01 -2.878210544586181641e-01
4.869579374790191650e-01 1.968344002962112427e-01 -2.888104319572448730e-01
-4.449529349803924561e-01 -5.487821698188781738e-01 -3.403394222259521484e-01
-9.070268832147121429e-03 3.655097782611846924e-01 -3.594690859317779541e-01
-4.002732932567596436e-01 2.569024264812469482e-01 -4.121664762496948242e-01
-1.631549596786499023e-01 2.446426153182983398e-01 -3.315439522266387939e-01
4.539571404457092285e-01 2.446426153182983398e-01 2.217117510735988617e-02
3.771215677261352539e-01 2.966304123401641846e-01 -2.934366762638092041e-01
-1.657007336616516113e-01 -1.558556854724884033e-01 4.196373745799064636e-02
2.397339493036270142e-01 -5.985105037689208984e-01 -3.538674414157867432e-01
-4.161708056926727295e-01 4.561419188976287842e-01 3.782901167869567871e-01
-3.023497760295867920e-01 2.788006961345672607e-01 3.572106063365936279e-01
-3.920783400535583496e-01 2.235630899667739868e-01 -1.704172790050506592e-01
4.614368677139282227e-01 -5.376600623130798340e-01 -3.856923580169677734e-01
-4.027957320213317871e-01 2.920648157596588135e-01 3.553194403648376465e-01
-1.829728037118911743e-01 2.551809847354888916e-01 4.238728433847427368e-02
-4.116900861263275146e-01 -6.195900440216064453e-01 1.159080639481544495e-01
3.756593465805053711e-01 -3.273897767066955566e-01 -3.594690859317779541e-01
-4.036170616745948792e-02 -4.309587776660919189e-01 3.782901167869567871e-01
4.403582513332366943e-01 1.977510601282119751e-01 -1.827563196420669556e-01
6.205252930521965027e-02 -5.511619448661804199e-01 -4.121664762496948242e-01
-4.660315215587615967e-01 -6.424953937530517578e-01 -2.270219177007675171e-01
-2.224928289651870728e-01 5.292055010795593262e-01 -9.232016652822494507e-02
-4.660315215587615967e-01 -5.943906307220458984e-01 3.306254744529724121e-01
-3.340254724025726318e-01 -4.484508931636810303e-01 -3.594690859317779541e-01
3.190136551856994629e-01 2.716287076473236084e-01 -3.805476427078247070e-01
4.403582513332366943e-01 -5.648643374443054199e-01 -1.762702688574790955e-02
4.259231686592102051e-02 2.446426153182983398e-01 -3.487040996551513672e-01
-1.888653784990310669e-01 1.779770553112030029e-01 3.782901167869567871e-01
1.118841320276260376e-01 -4.859482944011688232e-01 -3.594690859317779541e-01
-4.378714263439178467e-01 2.446426153182983398e-01 1.514658331871032715e-01
-3.306003510951995850e-01 -5.985105037689208984e-01 -3.239868283271789551e-01
-4.660315215587615967e-01 -1.849091649055480957e-01 -1.650543659925460815e-01
-4.027957320213317871e-01 2.906417846679687500e-01 -4.814548045396804810e-02
-1.614855043590068817e-02 -1.558556854724884033e-01 2.364572137594223022e-01
-1.970668435096740723e-01 -4.991387426853179932e-01 -3.914972543716430664e-01
-1.681308746337890625e-01 4.975876212120056152e-01 -2.973653674125671387e-01
4.866194427013397217e-01 -5.127879977226257324e-01 -2.938544154167175293e-01
-3.014983832836151123e-01 4.975876212120056152e-01 -2.410982698202133179e-01
-4.598713517189025879e-01 -5.985105037689208984e-01 -1.171612739562988281e-01
2.686400711536407471e-01 4.129244685173034668e-01 3.993687033653259277e-01
-4.660315215587615967e-01 -4.311611056327819824e-01 1.005812361836433411e-01
-2.650398313999176025e-01 -5.985105037689208984e-01 -1.070014014840126038e-02
-3.375168144702911377e-01 -3.329121470451354980e-01 -4.053013026714324951e-01
9.912358969449996948e-02 2.551809847354888916e-01 -6.576527655124664307e-02
-6.139171868562698364e-02 2.235630899667739868e-01 -5.506755039095878601e-02
-9.796182066202163696e-02 -2.295147627592086792e-01 3.993687033653259277e-01
2.123310267925262451e-01 -1.558556854724884033e-01 2.581600844860076904e-02
-3.587455451488494873e-01 1.025933846831321716e-01 -3.594690859317779541e-01
4.701101779937744141e-01 2.977988421916961670e-01 -1.097048819065093994e-01
-3.817162215709686279e-01 4.465631544589996338e-01 4.531920701265335083e-02
-4.027957320213317871e-01 4.701669812202453613e-01 -2.420056015253067017e-01
-3.875052928924560547e-01 4.749013185501098633e-01 -3.594690859317779541e-01
-4.660315215587615967e-01 -5.078624486923217773e-01 2.328194528818130493e-01
-4.366488754749298096e-01 -3.654812276363372803e-01 3.993687033653259277e-01
3.884917199611663818e-01 5.292055010795593262e-01 -3.345074951648712158e-01
-2.329649925231933594e-01 2.235630899667739868e-01 -6.060874834656715393e-02
4.403582513332366943e-01 3.621060848236083984e-01 -2.852184176445007324e-01
-3.832334280014038086e-01 4.343509078025817871e-01 4.197553694248199463e-01
4.614368677139282227e-01 -2.609004676342010498e-01 3.656470775604248047e-01
-1.442103413864970207e-03 -1.769348531961441040e-01 -3.133738636970520020e-01
3.850516676902770996e-01 4.975876212120056152e-01 3.591502308845520020e-01
-2.956095635890960693e-01 3.248402103781700134e-02 -3.594690859317779541e-01
-4.476404488086700439e-01 2.235630899667739868e-01 -3.222896456718444824e-01
-4.660315215587615967e-01 3.816208541393280029e-01 3.791797161102294922e-01
4.614368677139282227e-01 4.586718678474426270e-01 4.300596714019775391e-01
2.917319834232330322e-01 5.292055010795593262e-01 -3.054278790950775146e-01
4.614368677139282227e-01 -2.856706082820892334e-02 1.654311865568161011e-01
4.614368677139282227e-01 1.189991310238838196e-01 -1.743562221527099609e-01
-2.366045862436294556e-01 2.446426153182983398e-01 -2.132514566183090210e-01
-4.027957320213317871e-01 -5.829318761825561523e-01 -4.108768105506896973e-01
-3.915831744670867920e-01 -1.519575864076614380e-01 -4.121664762496948242e-01
-4.976494312286376953e-01 -4.775817692279815674e-01 3.438886702060699463e-01
-4.435299336910247803e-01 -2.700838744640350342e-01 -4.121664762496948242e-01
4.112190008163452148e-01 3.064404726028442383e-01 3.993687033653259277e-01
2.757598459720611572e-01 9.694232791662216187e-02 3.993687033653259277e-01
-4.660315215587615967e-01 3.646042943000793457e-01 6.652956455945968628e-02
3.621127009391784668e-01 2.804754972457885742e-01 3.572106063365936279e-01
9.270507842302322388e-02 2.235630899667739868e-01 1.844535768032073975e-01
-4.660315215587615967e-01 -4.449744820594787598e-01 -9.092540293931961060e-02
-2.678905129432678223e-01 4.947005212306976318e-01 3.782901167869567871e-01
-3.817162215709686279e-01 4.060965776443481445e-01 -3.314208686351776123e-01
-4.976494312286376953e-01 4.546657800674438477e-01 1.626196652650833130e-01
-4.449529349803924561e-01 -1.003295853734016418e-01 -3.469099402427673340e-01
3.023206889629364014e-01 2.796474397182464600e-01 3.572106063365936279e-01
-8.875490725040435791e-02 -3.935340940952301025e-01 -3.594690859317779541e-01
-4.119782447814941406e-01 -1.558556854724884033e-01 -6.114885583519935608e-02
-3.884415328502655029e-01 -6.195900440216064453e-01 3.739837408065795898e-01
-4.976494312286376953e-01 4.379606842994689941e-01 -4.076932072639465332e-01
-4.027957320213317871e-01 3.342089354991912842e-01 4.141117930412292480e-01
3.355919420719146729e-01 -5.638784170150756836e-02 -4.085054397583007812e-01
1.556613482534885406e-02 2.235630899667739868e-01 2.639477849006652832e-01
-3.248112797737121582e-01 4.975876212120056152e-01 2.545610964298248291e-01
2.712073028087615967e-01 -2.291538864374160767e-01 -3.594690859317779541e-01
2.517082961276173592e-03 2.446426153182983398e-01 -1.346011906862258911e-01
2.808252573013305664e-01 -1.329214870929718018e-01 3.782901167869567871e-01
-3.069228231906890869e-01 2.551809847354888916e-01 -3.214158713817596436e-01
-4.816726148128509521e-01 -1.394131928682327271e-01 -3.067716360092163086e-01
3.981992006301879883e-01 4.484896957874298096e-01 -2.058715224266052246e-01
4.554044008255004883e-01 4.975876212120056152e-01 -2.650602161884307861e-01
-5.070893168449401855e-01 4.975876212120056152e-01 -6.331220269203186035e-02
-3.829023838043212891e-01 9.574871510267257690e-02 -4.121664762496948242e-01
-8.476047217845916748e-02 -2.948608398437500000e-01 3.782901167869567871e-01
4.536550045013427734e-01 5.292055010795593262e-01 -1.635127142071723938e-02
-9.699480980634689331e-02 4.500927031040191650e-01 -4.121664762496948242e-01
-4.660315215587615967e-01 -7.458508014678955078e-01 3.521311879158020020e-01
-6.822248548269271851e-02 2.551809847354888916e-01 2.178069055080413818e-01
-4.449529349803924561e-01 -2.736153304576873779e-01 7.727000862360000610e-02
-3.273325413465499878e-02 5.292055010795593262e-01 1.349733620882034302e-01
4.403582513332366943e-01 -1.519239395856857300e-01 -2.380209565162658691e-01
1.930307447910308838e-01 2.220169901847839355e-01 3.782901167869567871e-01
4.203585684299468994e-01 -4.432922303676605225e-01 -3.805476427078247070e-01
-7.800132036209106445e-02 4.602058231830596924e-01 3.782901167869567871e-01
-3.468886017799377441e-01 4.975876212120056152e-01 -1.232478097081184387e-01
3.981992006301879883e-01 2.732326388359069824e-01 -1.574226617813110352e-01
-3.873019814491271973e-01 2.098457962274551392e-01 4.309875369071960449e-01
1.213808730244636536e-01 4.704793691635131836e-01 -3.805476427078247070e-01
-3.170620799064636230e-01 -6.195900440216064453e-01 2.982279956340789795e-01
3.061778284609317780e-02 -6.005154252052307129e-01 4.309875369071960449e-01
4.403582513332366943e-01 -1.003356426954269409e-01 -3.089533373713493347e-02
-9.526106715202331543e-02 5.292055010795593262e-01 -8.298745006322860718e-02
2.531864345073699951e-01 2.235630899667739868e-01 2.617656886577606201e-01
3.733401894569396973e-01 -5.725258588790893555e-01 -4.121664762496948242e-01
-2.457721680402755737e-01 -5.985105037689208984e-01 4.111137390136718750e-01
-4.539647698402404785e-01 -5.196549892425537109e-01 -4.121664762496948242e-01
4.930547773838043213e-01 1.228327229619026184e-01 3.268730342388153076e-01
-1.140962168574333191e-01 -1.558556854724884033e-01 2.354500889778137207e-01
-4.449529349803924561e-01 7.943925447762012482e-03 -1.618726402521133423e-01
4.397017657756805420e-01 2.235630899667739868e-01 3.815706968307495117e-01
4.900856316089630127e-01 -1.083260849118232727e-01 4.309875369071960449e-01
3.454048037528991699e-01 -6.264589428901672363e-01 3.993687033653259277e-01
4.665022790431976318e-01 -6.077862381935119629e-01 3.255926966667175293e-01
-1.937731951475143433e-01 -1.481132060289382935e-01 3.993687033653259277e-01
4.403582513332366943e-01 -3.943705558776855469e-01 -2.408539354801177979e-01
3.545257449150085449e-01 -1.769348531961441040e-01 -6.589955836534500122e-02
-2.956223674118518829e-02 -5.972003340721130371e-01 3.782901167869567871e-01
4.137547686696052551e-02 1.500584632158279419e-01 3.993687033653259277e-01
-4.449529349803924561e-01 -3.103983998298645020e-01 -2.202817052602767944e-01
5.061773583292961121e-02 -1.769348531961441040e-01 -3.396475017070770264e-01
-4.913512170314788818e-01 3.946770429611206055e-01 4.309875369071960449e-01
1.865506917238235474e-01 4.975876212120056152e-01 1.481899172067642212e-01
-2.264299094676971436e-01 -6.195900440216064453e-01 3.349280953407287598e-01
-4.660315215587615967e-01 1.261216849088668823e-01 3.797131478786468506e-01
3.981992006301879883e-01 3.981655538082122803e-01 2.331076264381408691e-01
3.154563903808593750e-02 5.292055010795593262e-01 -1.081251949071884155e-01
-4.976494312286376953e-01 -3.566605150699615479e-01 4.000755548477172852e-01
3.113754391670227051e-01 -6.195900440216064453e-01 1.788855493068695068e-01
-3.288145661354064941e-01 5.292055010795593262e-01 3.519884943962097168e-01
4.403582513332366943e-01 -2.952366471290588379e-01 -3.519175648689270020e-01
2.122844159603118896e-01 -6.580078005790710449e-01 3.993687033653259277e-01
-4.027957320213317871e-01 2.771827578544616699e-01 -2.075798958539962769e-01
-3.118446767330169678e-01 -6.208582520484924316e-01 4.309875369071960449e-01
3.362272307276725769e-02 -6.195900440216064453e-01 2.572187483310699463e-01
-3.817162215709686279e-01 3.328940868377685547e-01 -1.082175150513648987e-01
-4.976494312286376953e-01 -2.849127650260925293e-01 -3.776876330375671387e-01
8.786075562238693237e-02 -2.265549749135971069e-01 -3.929212093353271484e-01
5.144730210304260254e-02 4.158702790737152100e-01 3.782901167869567871e-01
9.994233399629592896e-02 2.446426153182983398e-01 3.450430929660797119e-01
1.330820769071578979e-01 2.446426153182983398e-01 -2.452442348003387451e-01
-3.368705809116363525e-01 2.446426153182983398e-01 1.120148152112960815e-01
-3.400467336177825928e-01 2.813110351562500000e-01 -3.594690859317779541e-01
2.790404260158538818e-01 2.446426153182983398e-01 -1.216214969754219055e-01
-2.266555726528167725e-01 4.975876212120056152e-01 1.475865691900253296e-01
-4.449529349803924561e-01 -3.125821053981781006e-02 -2.448992133140563965e-01
9.646429680287837982e-03 2.518863976001739502e-01 4.309875369071960449e-01
5.247593522071838379e-01 5.204669237136840820e-01 2.806575596332550049e-01
-3.663446307182312012e-01 5.292055010795593262e-01 2.161852568387985229e-01
-4.836933910846710205e-01 1.395620405673980713e-01 -4.121664762496948242e-01
-4.884995818138122559e-01 2.177833616733551025e-01 3.255926966667175293e-01
-1.294920593500137329e-01 -1.769348531961441040e-01 -3.485586345195770264e-01
4.614368677139282227e-01 -2.526411712169647217e-01 -4.556689038872718811e-02
-1.000264212489128113e-01 -5.985105037689208984e-01 -6.404366344213485718e-02
-3.964760899543762207e-01 2.235630899667739868e-01 -1.092024147510528564e-02
-2.923765182495117188e-01 2.446426153182983398e-01 2.299342602491378784e-01
4.930547773838043213e-01 2.231378853321075439e-01 1.318923234939575195e-01
2.707820832729339600e-01 -3.989501595497131348e-01 3.993687033653259277e-01
3.228127360343933105e-01 -1.230379287153482437e-02 3.782901167869567871e-01
-1.284371316432952881e-02 2.446426153182983398e-01 3.342939913272857666e-01
4.614368677139282227e-01 -3.753733336925506592e-01 -1.845845766365528107e-02
-1.936799585819244385e-01 -1.417069137096405029e-02 3.993687033653259277e-01
-3.187741935253143311e-01 2.446426153182983398e-01 -1.558914631605148315e-01
-4.337990880012512207e-01 2.235630899667739868e-01 -2.102254480123519897e-01
-1.420453470200300217e-02 -6.195900440216064453e-01 -2.598670125007629395e-01
4.769268929958343506e-01 1.393934362567961216e-03 -2.783504128456115723e-01
2.609533667564392090e-01 1.514199227094650269e-01 -3.805476427078247070e-01
-2.703178524971008301e-01 3.601281940937042236e-01 3.572106063365936279e-01
8.146135509014129639e-02 -2.205402255058288574e-01 3.993687033653259277e-01
1.184574365615844727e-01 5.292055010795593262e-01 3.848065435886383057e-01
-1.562478244304656982e-01 -1.990911513566970825e-01 3.782901167869567871e-01
4.614368677139282227e-01 -3.871276974678039551e-01 -1.564295142889022827e-01
3.945511877536773682e-01 -1.769348531961441040e-01 1.028299331665039062e-02
-1.300096213817596436e-01 2.164601236581802368e-01 -4.121664762496948242e-01
4.614368677139282227e-01 4.772550165653228760e-01 1.373950839042663574e-01
2.809364907443523407e-02 3.409261256456375122e-02 3.993687033653259277e-01
2.055861502885818481e-01 -1.689129620790481567e-01 -3.594690859317779541e-01
-4.660315215587615967e-01 1.333962529897689819e-01 7.298686355352401733e-02
-4.027957320213317871e-01 -2.935860753059387207e-01 -3.700512349605560303e-01
-4.449529349803924561e-01 -7.855263352394104004e-02 3.615822196006774902e-01
4.403582513332366943e-01 3.461404740810394287e-01 1.294933632016181946e-02
4.575184285640716553e-01 3.519584536552429199e-01 -3.805476427078247070e-01
3.049140274524688721e-01 4.975876212120056152e-01 4.223030209541320801e-01
-3.216360807418823242e-01 -1.558556854724884033e-01 2.547298669815063477e-01
1.397066861391067505e-01 2.446426153182983398e-01 2.873045206069946289e-01
3.915885984897613525e-01 4.343509078025817871e-01 4.004392325878143311e-01
2.498899698257446289e-01 3.157768249511718750e-01 3.782901167869567871e-01
1.788080036640167236e-01 2.446426153182983398e-01 8.865807950496673584e-02
-3.042658604681491852e-02 -6.195900440216064453e-01 7.332584261894226074e-02
3.793784976005554199e-02 -3.451980352401733398e-01 3.782901167869567871e-01
-8.779469132423400879e-02 -6.164613962173461914e-01 -3.805476427078247070e-01
-4.449529349803924561e-01 -4.666284620761871338e-01 4.844080656766891479e-02
3.981992006301879883e-01 4.711889624595642090e-01 8.991977572441101074e-02
-3.391132652759552002e-01 -5.336325168609619141e-01 3.782901167869567871e-01
-1.671601235866546631e-01 5.292055010795593262e-01 3.637204766273498535e-01
4.614368677139282227e-01 -1.000761315226554871e-01 2.808897495269775391e-01
2.663880586624145508e-01 -5.587041378021240234e-01 3.782901167869567871e-01
4.403582513332366943e-01 3.322189450263977051e-01 -1.541914939880371094e-01
-4.976494312286376953e-01 1.742143481969833374e-01 3.686777353286743164e-01
9.950032830238342285e-02 -1.769348531961441040e-01 2.019177675247192383e-01
4.046011716127395630e-02 -1.558556854724884033e-01 -1.859800368547439575e-01
4.930547773838043213e-01 -3.506047725677490234e-01 -3.324913680553436279e-01
4.818608164787292480e-01 -4.539546072483062744e-01 3.255926966667175293e-01
-3.427305221557617188e-01 2.306660860776901245e-01 -4.121664762496948242e-01
4.403582513332366943e-01 1.941338181495666504e-01 2.033967226743698120e-01
4.135614931583404541e-01 -4.067310690879821777e-01 3.782901167869567871e-01
3.516314551234245300e-02 5.292055010795593262e-01 3.674114048480987549e-01
-4.284324944019317627e-01 4.975876212120056152e-01 -2.541297674179077148e-02
-4.660315215587615967e-01 -2.821049392223358154e-01 1.552574634552001953e-01
-2.688183486461639404e-01 -1.588450670242309570e-01 3.993687033653259277e-01
3.429625630378723145e-01 4.184170067310333252e-01 -3.594690859317779541e-01
1.033338978886604309e-01 3.918458819389343262e-01 -3.839224576950073242e-01
1.841709166765213013e-01 -5.438423529267311096e-02 -3.594690859317779541e-01
-3.759672641754150391e-01 4.745190143585205078e-01 -4.121664762496948242e-01
-2.635878622531890869e-01 4.973731338977813721e-01 -3.805476427078247070e-01
-3.991523981094360352e-01 1.776142865419387817e-01 -3.594690859317779541e-01
-3.483992815017700195e-01 -3.981631100177764893e-01 -4.121664762496948242e-01
-1.397795826196670532e-01 -5.985105037689208984e-01 4.137275815010070801e-01
1.781617850065231323e-01 -3.508369624614715576e-01 -3.594690859317779541e-01
4.614368677139282227e-01 3.082551658153533936e-01 1.503356099128723145e-01
4.614368677139282227e-01 2.722742222249507904e-02 -5.519903451204299927e-02
1.534538418054580688e-01 -1.889187991619110107e-01 3.993687033653259277e-01
-4.660315215587615967e-01 -1.407775580883026123e-01 4.838746413588523865e-02
-3.061684370040893555e-01 8.435896039009094238e-02 3.782901167869567871e-01
-5.018352344632148743e-02 2.551809847354888916e-01 -2.561910450458526611e-01
2.649771869182586670e-01 2.551809847354888916e-01 1.849366426467895508e-01
-4.237560089677572250e-03 -5.985105037689208984e-01 -9.906207025051116943e-02
-6.378819048404693604e-02 2.235630899667739868e-01 -1.215441003441810608e-01
4.614368677139282227e-01 -9.276417642831802368e-02 -1.364298462867736816e-01
2.996098995208740234e-01 5.292055010795593262e-01 -6.337346881628036499e-02
9.108156710863113403e-02 5.292055010795593262e-01 6.586784869432449341e-02
4.403582513332366943e-01 -3.164877593517303467e-01 -9.794455021619796753e-02
4.403582513332366943e-01 4.459840357303619385e-01 -3.043023347854614258e-01
4.403582513332366943e-01 -1.108698099851608276e-01 -2.859625518321990967e-01
1.585798710584640503e-01 -3.036246299743652344e-01 3.782901167869567871e-01
1.406028270721435547e-01 2.551809847354888916e-01 1.541831940412521362e-01
-4.660315215587615967e-01 4.414454698562622070e-01 2.796420454978942871e-01
4.930547773838043213e-01 -5.614174902439117432e-02 -3.088455498218536377e-01
-1.595759689807891846e-01 -2.254844307899475098e-01 -3.594690859317779541e-01
-1.702262461185455322e-01 2.446426153182983398e-01 2.494816631078720093e-01
4.614368677139282227e-01 -3.634781539440155029e-01 2.679632008075714111e-01
-4.736940264701843262e-01 5.292055010795593262e-01 4.788670316338539124e-02
4.403582513332366943e-01 -5.493258237838745117e-01 -1.743897944688796997e-01
-3.038669824600219727e-01 -6.039600968360900879e-01 -4.121664762496948242e-01
-1.269155144691467285e-01 1.781775355339050293e-01 3.993687033653259277e-01
2.959833145141601562e-01 -5.119179487228393555e-01 -3.967566490173339844e-01
-4.449529349803924561e-01 -7.951787114143371582e-02 -4.780399426817893982e-02
-4.733946919441223145e-01 3.690523803234100342e-01 2.869184613227844238e-01
3.103030323982238770e-01 2.446426153182983398e-01 8.962509781122207642e-02
2.290715575218200684e-01 5.292055010795593262e-01 -3.754766285419464111e-01
-2.741784751415252686e-01 -3.663435205817222595e-02 3.993687033653259277e-01
-4.179593920707702637e-01 -6.158179640769958496e-01 4.309875369071960449e-01
-4.905222058296203613e-01 2.020266503095626831e-01 -1.212257146835327148e-02
3.981992006301879883e-01 -5.818799734115600586e-01 4.011582136154174805e-01
-1.697618365287780762e-01 -4.168535172939300537e-01 3.993687033653259277e-01
-2.502958178520202637e-01 1.361332088708877563e-01 -4.121664762496948242e-01
-2.624436914920806885e-01 -1.497266441583633423e-01 -3.594690859317779541e-01
-4.449529349803924561e-01 3.125484585762023926e-01 -2.568904161453247070e-01
4.403582513332366943e-01 1.414699852466583252e-01 2.580831944942474365e-01
2.327130436897277832e-01 4.632551968097686768e-01 -3.805476427078247070e-01
1.534463763236999512e-01 2.446426153182983398e-01 -3.309989348053932190e-02
-4.264611303806304932e-01 -1.558556854724884033e-01 2.692006528377532959e-01
-1.694513112306594849e-01 3.611989319324493408e-02 -3.594690859317779541e-01
-3.489727675914764404e-01 -1.816657781600952148e-01 -3.805476427078247070e-01
4.585861563682556152e-01 4.387626349925994873e-01 -4.121664762496948242e-01
-4.660315215587615967e-01 2.756313979625701904e-02 -1.157382577657699585e-01
-4.660315215587615967e-01 -1.650512367486953735e-01 1.969698220491409302e-01
-2.046239525079727173e-01 -1.558556854724884033e-01 -2.124383151531219482e-01
3.865716755390167236e-01 -1.356792151927947998e-01 3.782901167869567871e-01
-4.449529349803924561e-01 4.354233145713806152e-01 1.021002978086471558e-01
-1.012778505682945251e-01 -3.487779796123504639e-01 -3.915970623493194580e-01
-2.227613925933837891e-01 4.975876212120056152e-01 2.815145254135131836e-01
-3.237405046820640564e-02 2.446426153182983398e-01 -1.576316170394420624e-02
-3.020420670509338379e-01 -3.883437216281890869e-01 -3.594690859317779541e-01
4.354476332664489746e-01 2.408391050994396210e-02 3.993687033653259277e-01
-4.449529349803924561e-01 -1.159116774797439575e-01 -1.280940920114517212e-01
-2.316468628123402596e-03 -5.215368866920471191e-01 -4.121664762496948242e-01
1.509845256805419922e-01 -5.985105037689208984e-01 -4.006452262401580811e-01
-1.267626765184104443e-03 4.975876212120056152e-01 -3.209557756781578064e-02
-3.208686113357543945e-01 4.343509078025817871e-01 4.105700850486755371e-01
-2.850476093590259552e-02 4.975876212120056152e-01 -1.761578470468521118e-01
4.930547773838043213e-01 3.046090304851531982e-01 3.496394753456115723e-01
-3.385379314422607422e-01 -1.558556854724884033e-01 5.408607050776481628e-02
4.901537001132965088e-01 5.292055010795593262e-01 -3.925314247608184814e-01
2.738332748413085938e-01 5.292055010795593262e-01 2.621890604496002197e-01
2.601774930953979492e-01 -3.355166614055633545e-01 3.993687033653259277e-01
2.375742495059967041e-01 -6.195900440216064453e-01 -1.082025915384292603e-01
-4.660315215587615967e-01 -5.030711293220520020e-01 1.649770438671112061e-01
-3.274139165878295898e-01 4.975876212120056152e-01 -3.033726215362548828e-01
-4.660315215587615967e-01 -3.797253966331481934e-01 -3.246367871761322021e-01
5.428476259112358093e-02 2.235630899667739868e-01 6.864404678344726562e-02
-4.660315215587615967e-01 -5.609254240989685059e-01 3.834133744239807129e-01
1.589155793190002441e-01 4.343509078025817871e-01 4.104731082916259766e-01
-4.660315215587615967e-01 -2.360526472330093384e-01 2.428384125232696533e-01
-2.278352081775665283e-01 2.134331911802291870e-01 4.309875369071960449e-01
-4.327239096164703369e-01 -5.985105037689208984e-01 -3.697108924388885498e-01
-4.976494312286376953e-01 -1.696015447378158569e-01 3.333213925361633301e-01
-2.070783376693725586e-01 -5.579115152359008789e-01 -3.594690859317779541e-01
-4.154453277587890625e-01 -1.222030594944953918e-01 3.993687033653259277e-01
2.286137044429779053e-01 2.551809847354888916e-01 -3.547496199607849121e-01
4.403582513332366943e-01 2.986008226871490479e-01 -3.333017230033874512e-01
-4.660315215587615967e-01 -8.740650117397308350e-02 4.133881330490112305e-01
2.460536062717437744e-01 -6.195900440216064453e-01 3.620018362998962402e-01
-1.158950477838516235e-01 1.197666078805923462e-01 -3.805476427078247070e-01
-4.976494312286376953e-01 -2.218634635210037231e-01 -3.361822664737701416e-01
6.045345216989517212e-02 -2.726557552814483643e-01 -3.594690859317779541e-01
-2.743491232395172119e-01 -5.985105037689208984e-01 -2.576103210449218750e-01
-1.400183141231536865e-01 4.459243416786193848e-01 3.572106063365936279e-01
4.194437861442565918e-01 -2.266211658716201782e-01 3.993687033653259277e-01
-5.119756460189819336e-01 4.975876212120056152e-01 3.068696260452270508e-01
4.614368677139282227e-01 -3.402081727981567383e-01 -2.209344655275344849e-01
4.930547773838043213e-01 -6.436544656753540039e-01 -1.713358014822006226e-01
1.448103487491607666e-01 -5.985105037689208984e-01 -2.151081115007400513e-01
4.403582513332366943e-01 1.883037388324737549e-01 1.043042354285717010e-02
2.357399761676788330e-01 -4.599879682064056396e-01 -3.594690859317779541e-01
4.614368677139282227e-01 -7.002918124198913574e-01 3.468894958496093750e-01
4.511017799377441406e-01 -6.050903201103210449e-01 -4.121664762496948242e-01
1.089010238647460938e-01 -1.558556854724884033e-01 -3.499825894832611084e-01
-1.137483865022659302e-01 5.292055010795593262e-01 2.247289568185806274e-01
-1.618335992097854614e-01 4.975876212120056152e-01 5.383895337581634521e-02
-4.305362403392791748e-01 -4.194878935813903809e-01 4.309875369071960449e-01
-3.817162215709686279e-01 3.125987946987152100e-01 2.101779878139495850e-01
-4.133341312408447266e-01 -2.043153941631317139e-01 -4.605848807841539383e-03
3.814484179019927979e-01 -3.701904118061065674e-01 -4.121664762496948242e-01
-1.669034943915903568e-03 -4.195867180824279785e-01 -3.714416325092315674e-01
-4.449529349803924561e-01 3.103309273719787598e-01 -9.987010061740875244e-02
4.141470789909362793e-01 -1.558556854724884033e-01 6.566484272480010986e-02
-4.541985690593719482e-02 2.225727736949920654e-01 4.309875369071960449e-01
5.077271908521652222e-02 3.479383587837219238e-01 -3.594690859317779541e-01
9.878415614366531372e-02 5.292055010795593262e-01 -1.402484811842441559e-02
-4.449529349803924561e-01 -2.682318985462188721e-01 -1.316301971673965454e-01
3.981992006301879883e-01 4.962494075298309326e-01 -3.864663243293762207e-01
3.415267542004585266e-02 4.975876212120056152e-01 2.541703581809997559e-01
-1.231164559721946716e-01 3.207014501094818115e-01 -4.040237665176391602e-01
4.372100830078125000e-01 -1.237996146082878113e-01 -3.805476427078247070e-01
-4.976494312286376953e-01 4.595288336277008057e-01 -3.375250995159149170e-01
-4.419922232627868652e-01 -2.543305978178977966e-02 -3.805476427078247070e-01
-4.449529349803924561e-01 -3.341122865676879883e-01 1.819208860397338867e-01
-4.449529349803924561e-01 -3.362309634685516357e-01 -3.736023008823394775e-01
-4.660315215587615967e-01 -1.082872301340103149e-01 1.639699488878250122e-01
-4.027957320213317871e-01 4.667530059814453125e-01 -1.601959764957427979e-01
4.310974478721618652e-01 4.975876212120056152e-01 3.988632559776306152e-01
-4.125069677829742432e-01 1.238230615854263306e-01 3.993687033653259277e-01
3.981992006301879883e-01 2.941452264785766602e-01 3.196100890636444092e-02
-2.112622745335102081e-02 4.802558422088623047e-01 3.782901167869567871e-01
1.103827878832817078e-01 -5.985105037689208984e-01 3.009429760277271271e-02
1.571661829948425293e-01 4.495966136455535889e-01 -4.121664762496948242e-01
4.403582513332366943e-01 2.660410702228546143e-01 -7.360503822565078735e-02
-4.881545305252075195e-01 -5.773945450782775879e-01 -1.386838126927614212e-02
4.795202016830444336e-01 4.975876212120056152e-01 1.869685947895050049e-01
3.371138274669647217e-01 3.862600922584533691e-01 3.572106063365936279e-01
-7.409799098968505859e-02 3.617629110813140869e-01 3.993687033653259277e-01
4.074954390525817871e-01 1.460430473089218140e-01 3.782901167869567871e-01
2.481555044651031494e-01 -6.195900440216064453e-01 -3.876399621367454529e-02
1.893820613622665405e-02 4.975876212120056152e-01 1.455070674419403076e-01
-1.043616831302642822e-01 4.975876212120056152e-01 3.070952892303466797e-01
-3.589273989200592041e-01 2.446426153182983398e-01 1.688199490308761597e-01
4.614368677139282227e-01 3.698273003101348877e-01 -4.703233763575553894e-02
3.680752217769622803e-01 2.446426153182983398e-01 2.244930416345596313e-01
-5.338888764381408691e-01 5.163246393203735352e-01 8.029406517744064331e-02
-1.898006796836853027e-01 -5.985105037689208984e-01 -2.704744040966033936e-01
3.981992006301879883e-01 4.180066883563995361e-01 1.756086945533752441e-01
-4.027957320213317871e-01 4.296332895755767822e-01 -9.323533624410629272e-03
-4.027957320213317871e-01 4.698312580585479736e-01 2.635897099971771240e-01
-2.051918655633926392e-01 4.373228251934051514e-01 3.572106063365936279e-01
-3.577719926834106445e-01 1.814059168100357056e-01 -4.036255478858947754e-01
-2.412074953317642212e-01 2.446426153182983398e-01 6.179452687501907349e-02
-4.448550343513488770e-01 -6.195900440216064453e-01 1.983462125062942505e-01
4.628216326236724854e-01 -7.142916917800903320e-01 -3.067716360092163086e-01
4.168038368225097656e-01 9.980608522891998291e-02 -4.121664762496948242e-01
4.845846891403198242e-01 -2.010325640439987183e-01 4.309875369071960449e-01
-1.467855721712112427e-01 -3.308279812335968018e-01 -3.594690859317779541e-01
1.119093149900436401e-01 -5.985105037689208984e-01 -2.804867923259735107e-01
-9.509760141372680664e-02 -4.171174168586730957e-01 3.993687033653259277e-01
9.602483361959457397e-02 -6.617472171783447266e-01 4.061313271522521973e-01
-8.495969697833061218e-03 -4.807961583137512207e-01 3.993687033653259277e-01
2.289661914110183716e-01 -5.985105037689208984e-01 -4.048863351345062256e-01
3.717204034328460693e-01 -1.769348531961441040e-01 -3.414454162120819092e-01
8.790066093206405640e-02 -1.558556854724884033e-01 -2.335169017314910889e-01
3.981992006301879883e-01 4.018499255180358887e-01 5.013994500041007996e-02
-3.547665178775787354e-01 2.446426153182983398e-01 -2.895135581493377686e-01
-2.039655894041061401e-01 -3.576648533344268799e-01 3.782901167869567871e-01
-1.654431037604808807e-02 5.292055010795593262e-01 -3.546945750713348389e-01
-2.403178662061691284e-01 -5.985105037689208984e-01 4.388602077960968018e-02
2.010541260242462158e-01 -2.420813590288162231e-01 -3.805476427078247070e-01
-2.292013466358184814e-01 -1.769348531961441040e-01 -3.146388754248619080e-02
-1.084282342344522476e-02 2.467976808547973633e-01 -4.121664762496948242e-01
-6.664820760488510132e-02 2.805258631706237793e-01 -4.121664762496948242e-01
4.614368677139282227e-01 -2.030840963125228882e-01 -9.299708157777786255e-02
-2.994030117988586426e-01 -1.558556854724884033e-01 3.165417015552520752e-01
-4.580006897449493408e-01 2.446426153182983398e-01 2.773993313312530518e-01
-2.024838179349899292e-01 3.588758707046508789e-01 3.572106063365936279e-01
4.297238290309906006e-01 -5.985105037689208984e-01 -2.031439393758773804e-01
5.789723619818687439e-02 2.551809847354888916e-01 -1.136037260293960571e-01
-4.921336174011230469e-01 4.975876212120056152e-01 4.289024174213409424e-01
2.536433637142181396e-01 -1.769348531961441040e-01 2.716345191001892090e-01
3.573811352252960205e-01 5.292055010795593262e-01 -1.788695901632308960e-01
4.403582513332366943e-01 -3.798214495182037354e-01 8.095176517963409424e-02
-4.082360565662384033e-01 5.292055010795593262e-01 -9.552568942308425903e-02
-4.449529349803924561e-01 -3.528745174407958984e-01 7.875541341491043568e-04
-3.817162215709686279e-01 2.512280642986297607e-01 3.265317380428314209e-01
-4.660315215587615967e-01 -1.441846252419054508e-03 3.315309584140777588e-01
4.614368677139282227e-01 -4.970377981662750244e-01 9.808301925659179688e-02
-6.552752107381820679e-02 -1.769348531961441040e-01 2.567030489444732666e-01
4.666104316711425781e-01 -6.617472171783447266e-01 2.413827776908874512e-01
4.290123283863067627e-01 2.446426153182983398e-01 -1.971357166767120361e-01
3.040010929107666016e-01 -6.195900440216064453e-01 2.583713233470916748e-01
-4.660315215587615967e-01 -5.145801696926355362e-03 1.795746833086013794e-01
3.156500756740570068e-01 -1.769348531961441040e-01 -1.280894428491592407e-01
4.573729336261749268e-01 4.975876212120056152e-01 6.565468013286590576e-02
4.403582513332366943e-01 -4.721265435218811035e-01 -2.844649255275726318e-01
-4.027957320213317871e-01 4.084008634090423584e-01 -2.215806841850280762e-01
4.403582513332366943e-01 -5.108483433723449707e-01 -1.415705122053623199e-02
-8.191527426242828369e-02 1.823580265045166016e-01 -4.121664762496948242e-01
3.873120844364166260e-01 1.839022636413574219e-01 -4.121664762496948242e-01
-4.449529349803924561e-01 -4.175976812839508057e-01 -1.386781483888626099e-01
-4.449529349803924561e-01 3.945082426071166992e-01 -3.570305407047271729e-01
3.817738890647888184e-01 -1.558556854724884033e-01 2.534560561180114746e-01
4.161725044250488281e-01 -1.558556854724884033e-01 -3.313592970371246338e-01
-2.477798759937286377e-01 4.394834637641906738e-01 -3.594690859317779541e-01
4.930547773838043213e-01 -6.049895882606506348e-01 -4.434741102159023285e-03
-2.708773612976074219e-01 -3.587409853935241699e-01 3.993687033653259277e-01
1.319985091686248779e-01 -1.558556854724884033e-01 -7.287581264972686768e-02
-4.449529349803924561e-01 1.502906531095504761e-01 -6.030306965112686157e-02
-9.549055993556976318e-02 -4.925300180912017822e-01 3.993687033653259277e-01
3.981992006301879883e-01 -4.834939539432525635e-01 -4.065116941928863525e-01
-3.230171203613281250e-01 4.975876212120056152e-01 1.000636890530586243e-01
1.074780002236366272e-01 -9.778475016355514526e-02 -3.594690859317779541e-01
-4.027957320213317871e-01 3.531632721424102783e-01 -2.835063040256500244e-01
1.294462084770202637e-01 -1.769348531961441040e-01 5.963111296296119690e-03
4.403582513332366943e-01 1.830508857965469360e-01 -6.301482766866683960e-02
-8.723807334899902344e-02 -2.136591970920562744e-01 -3.594690859317779541e-01
4.287707153707742691e-03 -1.769348531961441040e-01 3.021333813667297363e-01
4.087394475936889648e-01 -2.343023121356964111e-01 2.188000231981277466e-01
-2.261858899146318436e-03 -5.985105037689208984e-01 -4.076228663325309753e-02
4.403582513332366943e-01 7.503472268581390381e-02 -2.609804570674896240e-01
4.930547773838043213e-01 -3.802326619625091553e-01 4.266998171806335449e-01
4.403582513332366943e-01 4.516621232032775879e-01 2.314309626817703247e-01
-4.509844481945037842e-01 -6.195900440216064453e-01 4.092111717909574509e-03
4.090592861175537109e-01 5.292055010795593262e-01 -4.131652116775512695e-01
3.195004463195800781e-01 4.975876212120056152e-01 -4.432062208652496338e-01
8.685251325368881226e-02 -6.195900440216064453e-01 -3.735062479972839355e-01
-4.976494312286376953e-01 -1.282518208026885986e-01 -3.615411221981048584e-01
4.820966627448797226e-03 -1.769348531961441040e-01 1.183727160096168518e-01
4.614368677139282227e-01 -3.338334858417510986e-01 1.842195242643356323e-01
9.272466599941253662e-02 2.235630899667739868e-01 -1.162968352437019348e-01
-8.284918963909149170e-02 5.417340993881225586e-02 3.993687033653259277e-01
-2.904918789863586426e-01 -1.558556854724884033e-01 -2.727054990828037262e-02
-2.448237836360931396e-01 9.457560628652572632e-02 -3.594690859317779541e-01
-4.449529349803924561e-01 -2.775561511516571045e-01 -6.599542498588562012e-02
2.028184384107589722e-01 2.370780557394027710e-01 4.309875369071960449e-01
-4.976494312286376953e-01 -6.429048180580139160e-01 5.889971926808357239e-02
2.375033795833587646e-01 -1.769348531961441040e-01 -2.400790303945541382e-01
3.391961157321929932e-01 2.235630899667739868e-01 -1.359309703111648560e-01
-6.689560413360595703e-02 7.746232673525810242e-03 -4.052472114562988281e-01
-3.795966207981109619e-01 -5.284710526466369629e-01 -3.594690859317779541e-01
-2.060926705598831177e-01 -1.558556854724884033e-01 2.675071954727172852e-01
3.981992006301879883e-01 4.004744291305541992e-01 -2.767847180366516113e-01
-4.660315215587615967e-01 1.484069675207138062e-01 -1.945955455303192139e-01
-1.704758964478969574e-02 -6.103916764259338379e-01 -4.121664762496948242e-01
-4.887485206127166748e-01 -6.617472171783447266e-01 3.147484660148620605e-01
2.190665900707244873e-01 2.446426153182983398e-01 2.225161194801330566e-01
-1.206107810139656067e-01 2.235630899667739868e-01 -1.518564522266387939e-01
4.614368677139282227e-01 -3.975951969623565674e-01 3.356741368770599365e-01
3.958110213279724121e-01 -3.508892059326171875e-01 3.782901167869567871e-01
2.990428805351257324e-01 1.343781948089599609e-01 -4.121664762496948242e-01
3.362605571746826172e-01 2.235630899667739868e-01 -3.592126071453094482e-01
-4.660315215587615967e-01 -3.789336979389190674e-01 1.408593952655792236e-01
-3.329437673091888428e-01 -1.868893653154373169e-01 3.782901167869567871e-01
2.797734141349792480e-01 -5.985105037689208984e-01 1.242363676428794861e-01
2.690988779067993164e-01 -1.769348531961441040e-01 2.149925529956817627e-01
-3.599140048027038574e-01 3.726686835289001465e-01 3.993687033653259277e-01
-3.771599531173706055e-01 -6.195900440216064453e-01 -3.696260452270507812e-01
-4.424202144145965576e-01 5.980050191283226013e-03 3.993687033653259277e-01
-2.021257430315017700e-01 -5.985105037689208984e-01 -4.053069055080413818e-01
3.231754899024963379e-01 -5.985105037689208984e-01 -3.122912049293518066e-01
1.172908619046211243e-01 2.043448686599731445e-01 3.993687033653259277e-01
4.858323931694030762e-01 1.865226328372955322e-01 8.857322484254837036e-02
4.930547773838043213e-01 4.358802437782287598e-01 -1.252126097679138184e-01
4.032012224197387695e-01 -2.125159353017807007e-01 -4.121664762496948242e-01
4.614368677139282227e-01 -7.656835913658142090e-01 -3.913732469081878662e-01
-3.019804954528808594e-01 -5.773721933364868164e-01 3.993687033653259277e-01
4.403582513332366943e-01 2.547044754028320312e-01 -2.814612984657287598e-01
-4.133341312408447266e-01 -2.177268415689468384e-01 -1.069959253072738647e-01
8.331371098756790161e-02 4.744704961776733398e-01 3.782901167869567871e-01
-1.947010606527328491e-01 -6.195900440216064453e-01 3.972602784633636475e-01
4.614368677139282227e-01 -6.344179511070251465e-01 -3.242740333080291748e-01
3.296564817428588867e-01 5.292055010795593262e-01 1.594845503568649292e-01
3.771215677261352539e-01 4.197318553924560547e-01 -1.517156660556793213e-01
4.294452816247940063e-02 -6.046389937400817871e-01 -4.121664762496948242e-01
3.830551505088806152e-01 -1.558556854724884033e-01 1.420921832323074341e-01
-4.517948031425476074e-01 -7.362813353538513184e-01 -3.805476427078247070e-01
-8.091887831687927246e-02 -4.243294894695281982e-01 -4.026147127151489258e-01
3.591911196708679199e-01 5.292055010795593262e-01 -4.723403975367546082e-02
1.116176880896091461e-02 2.989020347595214844e-01 3.993687033653259277e-01
1.826639771461486816e-01 2.235630899667739868e-01 -2.177573740482330322e-01
2.735749483108520508e-01 5.292055010795593262e-01 -4.213666915893554688e-01
3.981992006301879883e-01 3.643646240234375000e-01 1.265909671783447266e-01
1.397859454154968262e-01 -5.985105037689208984e-01 -5.136433988809585571e-02
-2.010384351015090942e-01 4.975876212120056152e-01 -1.682314425706863403e-01
-1.285810023546218872e-01 -5.985105037689208984e-01 7.898406684398651123e-02
-7.609506696462631226e-02 -5.529608130455017090e-01 -3.594690859317779541e-01
3.771215677261352539e-01 2.752683162689208984e-01 -7.357593625783920288e-02
5.920761078596115112e-02 -1.769348531961441040e-01 8.358117938041687012e-02
-4.851294457912445068e-01 5.292055010795593262e-01 -2.385842055082321167e-01
4.614368677139282227e-01 -6.384650468826293945e-01 -3.910865634679794312e-02
4.614368677139282227e-01 3.912434875965118408e-01 2.320300415158271790e-02
-4.140670895576477051e-01 -6.195900440216064453e-01 -2.487775534391403198e-01
4.156897217035293579e-02 -2.982533276081085205e-01 -4.121664762496948242e-01
-4.660315215587615967e-01 2.161066979169845581e-01 -1.430619210004806519e-01
-2.426389008760452271e-01 2.509958744049072266e-01 3.782901167869567871e-01
3.402806520462036133e-01 4.975876212120056152e-01 -1.001596450805664062e-01
-4.916487038135528564e-01 -4.351271092891693115e-01 3.163934350013732910e-01
4.930547773838043213e-01 4.760757461190223694e-02 -3.648105263710021973e-01
1.294974982738494873e-01 2.753578424453735352e-01 -3.805476427078247070e-01
-4.449529349803924561e-01 1.826023310422897339e-01 1.025991961359977722e-01
