-2.836467325687408447e-01 -1.073361560702323914e-01 2.664564847946166992e-01
2.289826422929763794e-01 8.048090934753417969e-01 2.891112565994262695e-01
3.095357716083526611e-01 7.095806598663330078e-01 -1.993806213140487671e-01
1.210685819387435913e-01 -6.220509409904479980e-01 -5.312877893447875977e-01
-8.371933549642562866e-02 4.939097464084625244e-01 3.832544684410095215e-01
2.949141561985015869e-01 5.232027769088745117e-01 -2.843556702136993408e-01
-2.553197741508483887e-01 4.926389455795288086e-01 -8.889281749725341797e-02
-2.125968039035797119e-01 -6.220509409904479980e-01 4.858196377754211426e-01
1.246719807386398315e-01 1.883027106523513794e-01 -2.583397924900054932e-01
-1.488982439041137695e-01 -6.220509409904479980e-01 5.140352249145507812e-01
-2.785195708274841309e-01 6.897058486938476562e-01 3.408021032810211182e-01
-2.701982557773590088e-01 4.594973623752593994e-01 -2.485454827547073364e-01
-1.981021910905838013e-01 -6.220509409904479980e-01 -4.515610337257385254e-01
2.349371761083602905e-01 -7.611598968505859375e-01 -2.063226848840713501e-01
3.777770325541496277e-02 7.371164560317993164e-01 3.669498860836029053e-01
2.989160716533660889e-01 -6.094650030136108398e-01 -1.232924088835716248e-01
1.122217699885368347e-01 8.970367908477783203e-01 -3.325740396976470947e-01
9.560741484165191650e-02 1.558487862348556519e-01 -2.885217070579528809e-01
2.300492972135543823e-01 9.027745127677917480e-01 -2.888293862342834473e-01
6.230685539776459336e-05 -1.887224912643432617e-01 3.460347950458526611e-01
2.193446308374404907e-01 -2.197786271572113037e-01 2.305984497070312500e-01
-3.036153316497802734e-01 -7.611598968505859375e-01 4.869712889194488525e-01
2.323222905397415161e-01 -7.611598968505859375e-01 4.835798740386962891e-01
1.755956746637821198e-02 -4.495944082736968994e-01 2.481719404458999634e-01
2.483905255794525146e-01 7.190945744514465332e-01 3.647139966487884521e-01
1.583869308233261108e-01 7.338822484016418457e-01 4.092772006988525391e-01
-2.111618965864181519e-01 -7.611598968505859375e-01 5.183917284011840820e-01
-2.877482771873474121e-01 -6.157096624374389648e-01 1.555251181125640869e-01
3.259497880935668945e-01 4.349652230739593506e-01 -1.226760521531105042e-01
-2.960441708564758301e-01 7.008227109909057617e-01 -2.091817706823348999e-01
-2.887993156909942627e-01 5.552045106887817383e-01 3.050212562084197998e-01
-3.148503899574279785e-01 5.662939548492431641e-01 -5.500769242644309998e-02
-3.877327442169189453e-01 7.991935014724731445e-01 -1.608735322952270508e-01
4.309458192437887192e-03 -6.220509409904479980e-01 -4.344398081302642822e-01
3.753832578659057617e-01 7.214310765266418457e-01 2.347781360149383545e-01
2.627069875597953796e-02 -7.611598968505859375e-01 7.288205623626708984e-02
-9.532284736633300781e-02 7.830373644828796387e-01 3.596678972244262695e-01
3.785676360130310059e-01 5.031111836433410645e-01 -1.246315911412239075e-01
-6.525718420743942261e-02 -7.611598968505859375e-01 -2.440239489078521729e-01
9.914389252662658691e-02 -7.611598968505859375e-01 -3.457880914211273193e-01
3.513092696666717529e-01 6.765367388725280762e-01 -9.760863333940505981e-02
5.383557826280593872e-02 9.057146310806274414e-01 -3.622060418128967285e-01
3.252132833003997803e-01 8.874886631965637207e-01 1.419565081596374512e-01
3.363946080207824707e-01 -6.220509409904479980e-01 3.323323726654052734e-01
1.229518428444862366e-01 4.856705069541931152e-01 3.672663271427154541e-01
-3.227174580097198486e-01 1.267062127590179443e-01 2.323639206588268280e-02
1.935299783945083618e-01 5.516284108161926270e-01 3.730333447456359863e-01
5.648155212402343750e-01 -6.444116830825805664e-01 1.213393434882164001e-01
3.460336029529571533e-01 6.975914835929870605e-01 1.198907718062400818e-01
-2.771373987197875977e-01 -1.713150590658187866e-01 2.230849713087081909e-01
-1.071032583713531494e-01 3.182024061679840088e-01 2.539389133453369141e-01
6.228854879736900330e-03 -6.220509409904479980e-01 -5.323700904846191406e-01
-3.451826870441436768e-01 8.302623033523559570e-01 -1.147474348545074463e-01
-1.315797120332717896e-01 3.739694356918334961e-01 -2.663455903530120850e-01
-1.803128570318222046e-01 5.039189457893371582e-01 3.534154593944549561e-01
-2.520455420017242432e-01 -4.734008014202117920e-01 3.268443746492266655e-03
-5.171464011073112488e-02 8.126439452171325684e-01 3.629000782966613770e-01
1.947763562202453613e-01 -7.611598968505859375e-01 -7.422540336847305298e-02
-5.609649419784545898e-01 -7.611598968505859375e-01 3.688638284802436829e-02
2.592592835426330566e-01 -2.617894709110260010e-01 -1.230267211794853210e-01
-1.738513708114624023e-01 2.721681296825408936e-01 -2.054631114006042480e-01
-3.256947100162506104e-01 -1.957290172576904297e-01 -8.819900453090667725e-02
1.101070195436477661e-01 -4.562541842460632324e-01 -2.244148254394531250e-01
-3.549095988273620605e-01 -6.220509409904479980e-01 -3.120522014796733856e-02
-1.339982450008392334e-01 -7.611598968505859375e-01 3.405930995941162109e-01
-5.591421723365783691e-01 -7.302131056785583496e-01 1.326584219932556152e-01
2.746984660625457764e-01 -1.466891765594482422e-01 -2.562289237976074219e-01
3.480965793132781982e-01 -7.611598968505859375e-01 3.296920955181121826e-01
-3.990899026393890381e-01 8.034230470657348633e-01 1.303141117095947266e-01
3.080021739006042480e-01 -5.907711982727050781e-01 1.554161403328180313e-02
-3.551000952720642090e-01 -6.220509409904479980e-01 1.548150032758712769e-01
1.492568701505661011e-01 4.864968955516815186e-01 -2.232299745082855225e-01
1.965414285659790039e-01 4.986159503459930420e-01 2.000375539064407349e-01
-5.677272081375122070e-01 -7.556683421134948730e-01 -6.683909147977828979e-02
-1.228520721197128296e-01 -7.611598968505859375e-01 -5.495908856391906738e-01
2.954357862472534180e-01 4.386643469333648682e-01 1.923130750656127930e-01
-1.729195117950439453e-01 -6.682483553886413574e-01 -5.481804609298706055e-01
-1.047560200095176697e-01 4.386438429355621338e-01 3.344480991363525391e-01
2.787423729896545410e-01 1.458825916051864624e-01 -1.402749270200729370e-01
-2.220394611358642578e-01 -3.805899024009704590e-01 1.052525639533996582e-01
-2.426742017269134521e-01 3.772677481174468994e-02 2.971766293048858643e-01
-4.296180233359336853e-02 6.467005610466003418e-01 4.373746216297149658e-01
-1.299924254417419434e-01 5.500196814537048340e-01 2.832700312137603760e-01
6.443641334772109985e-02 -6.220509409904479980e-01 3.519668579101562500e-01
1.552426517009735107e-01 4.069351851940155029e-01 -2.836298942565917969e-01
-6.073483079671859741e-02 6.279960274696350098e-01 -4.325848817825317383e-01
-3.626770377159118652e-01 6.274499893188476562e-01 -2.426280975341796875e-01
1.347901765257120132e-02 -7.611598968505859375e-01 -2.139051258563995361e-02
-3.599420487880706787e-01 -1.503003537654876709e-01 -8.945691585540771484e-02
-5.750277638435363770e-01 -6.438452005386352539e-01 1.198921538889408112e-02
-2.693845927715301514e-01 -6.220509409904479980e-01 -2.394330203533172607e-01
2.876790463924407959e-01 -1.263634115457534790e-02 -2.797794044017791748e-01
-1.616643182933330536e-02 3.448844850063323975e-01 -2.839200198650360107e-01
4.319200217723846436e-01 7.625393867492675781e-01 4.491708055138587952e-02
-2.562441863119602203e-02 -7.611598968505859375e-01 2.555008232593536377e-01
-9.614852815866470337e-02 -7.611598968505859375e-01 -3.959561288356781006e-01
2.668020725250244141e-01 -6.220509409904479980e-01 -3.512395620346069336e-01
8.702483028173446655e-02 1.178566589951515198e-01 3.250181376934051514e-01
-8.827929943799972534e-02 -6.220509409904479980e-01 3.746333122253417969e-01
-7.287547737360000610e-02 5.256418585777282715e-01 -2.893920242786407471e-01
-2.581876516342163086e-01 -1.018573269248008728e-01 -2.922833263874053955e-01
3.724011480808258057e-01 -7.611598968505859375e-01 3.768350183963775635e-01
-1.371933221817016602e-01 8.150771260261535645e-01 -3.927493393421173096e-01
3.618976771831512451e-01 7.712081074714660645e-02 -6.656969338655471802e-02
4.332298934459686279e-01 6.495528221130371094e-01 9.181903302669525146e-02
8.660881221294403076e-02 -7.611598968505859375e-01 2.870746254920959473e-01
-2.607527077198028564e-01 -3.165347874164581299e-01 3.111297264695167542e-03
9.519550204277038574e-02 8.827375769615173340e-01 3.731056153774261475e-01
-1.386165171861648560e-01 -6.220509409904479980e-01 4.673416614532470703e-01
5.807431340217590332e-01 -6.222931742668151855e-01 2.589658834040164948e-04
-2.836467325687408447e-01 6.873137354850769043e-01 2.223416268825531006e-01
-3.520222008228302002e-01 -7.611598968505859375e-01 4.023107290267944336e-01
4.376235008239746094e-01 -7.611598968505859375e-01 1.945577412843704224e-01
1.236717402935028076e-01 8.010718822479248047e-01 4.058379232883453369e-01
-8.697332441806793213e-02 -7.611598968505859375e-01 -1.018762439489364624e-01
-3.744688630104064941e-01 -6.220509409904479980e-01 -3.903307914733886719e-01
3.389635682106018066e-01 4.795606732368469238e-01 -1.823512166738510132e-01
1.812849044799804688e-01 -7.611598968505859375e-01 -4.095931649208068848e-01
3.230633437633514404e-01 5.631027817726135254e-01 2.744134664535522461e-01
-1.209590509533882141e-01 4.538218677043914795e-02 -3.621220290660858154e-01
9.310965985059738159e-02 4.368807077407836914e-01 -1.964697837829589844e-01
-3.632142841815948486e-01 -7.611598968505859375e-01 2.540766298770904541e-01
2.115347981452941895e-02 8.030459880828857422e-01 -4.213351607322692871e-01
4.702900536358356476e-03 -2.392405457794666290e-02 4.012089073657989502e-01
4.767450094223022461e-01 -6.597111821174621582e-01 -3.235318958759307861e-01
2.264859676361083984e-01 -6.895434260368347168e-01 5.283335447311401367e-01
-2.909599840641021729e-01 -6.220509409904479980e-01 -3.892250657081604004e-01
-4.026942551136016846e-01 -7.611598968505859375e-01 1.723302714526653290e-02
-1.931576728820800781e-01 -7.611598968505859375e-01 -2.183704525232315063e-01
6.908135954290628433e-03 -2.110167890787124634e-01 -3.247294425964355469e-01
7.789670675992965698e-02 3.594083786010742188e-01 -2.824919521808624268e-01
1.971333622932434082e-01 4.687505364418029785e-01 -3.211866021156311035e-01
2.368223816156387329e-01 -6.220509409904479980e-01 4.704243838787078857e-01
7.546420395374298096e-02 4.109693467617034912e-01 -3.174132704734802246e-01
-7.638118416070938110e-02 4.644077122211456299e-01 -3.634094297885894775e-01
-1.271675378084182739e-01 -5.515617132186889648e-01 2.503912150859832764e-01
-1.174220889806747437e-01 -7.611598968505859375e-01 4.831539690494537354e-01
3.427418172359466553e-01 7.789270281791687012e-01 -2.599768936634063721e-01
-2.735408544540405273e-01 -7.611598968505859375e-01 2.412703260779380798e-02
4.851362481713294983e-02 5.418204665184020996e-01 -3.031687140464782715e-01
-2.309741824865341187e-01 4.906218647956848145e-01 -1.399838328361511230e-01
1.825924403965473175e-02 -7.611598968505859375e-01 -3.306663930416107178e-01
2.946279644966125488e-01 9.828847646713256836e-02 1.951653063297271729e-01
3.314940631389617920e-01 -6.220509409904479980e-01 -6.417264789342880249e-02
-4.275009036064147949e-01 -6.220509409904479980e-01 -2.476907968521118164e-01
2.506468892097473145e-01 -3.904388844966888428e-01 -9.047157363966107368e-04
4.250697791576385498e-01 6.029334664344787598e-01 1.003598049283027649e-01
-3.818954527378082275e-01 5.870518088340759277e-01 1.950295418500900269e-01
-1.602983772754669189e-01 8.395086526870727539e-01 3.265048265457153320e-01
3.289309442043304443e-01 4.001852497458457947e-02 2.047359198331832886e-01
-2.649841308593750000e-01 7.336875051259994507e-02 -2.561576366424560547e-01
-2.917238473892211914e-01 -7.611598968505859375e-01 1.701555252075195312e-01
-3.874201774597167969e-01 8.490353226661682129e-01 1.081546097993850708e-01
-1.055003330111503601e-01 -1.640008538961410522e-01 -3.470745384693145752e-01
-5.243840217590332031e-01 -7.161512374877929688e-01 2.284524291753768921e-01
-4.044446945190429688e-01 -6.220509409904479980e-01 2.509346976876258850e-02
-3.666399121284484863e-01 8.036760091781616211e-01 -1.334057003259658813e-02
1.516759861260652542e-02 -7.451072335243225098e-01 5.772405266761779785e-01
3.869270086288452148e-01 -6.220509409904479980e-01 4.244135916233062744e-01
-2.443210929632186890e-01 -7.611598968505859375e-01 -8.878243714570999146e-02
1.473081558942794800e-01 -1.396933794021606445e-01 -3.464288711547851562e-01
3.706347197294235229e-02 5.298020243644714355e-01 2.978447377681732178e-01
3.735391199588775635e-01 6.386127471923828125e-01 2.368411272764205933e-01
-2.153933644294738770e-01 -7.611598968505859375e-01 3.752613961696624756e-01
-3.592068701982498169e-02 6.062477231025695801e-01 -3.368494808673858643e-01
2.490322738885879517e-01 3.033629953861236572e-01 -1.173554733395576477e-01
-4.638692364096641541e-02 -4.454801678657531738e-01 2.435565739870071411e-01
-3.883168697357177734e-01 -6.220509409904479980e-01 2.381676137447357178e-01
2.749612033367156982e-01 8.038859963417053223e-01 -3.200095891952514648e-01
3.303804993629455566e-01 4.652360379695892334e-01 1.782746165990829468e-01
-3.802944719791412354e-01 -7.157526612281799316e-01 4.300350248813629150e-01
1.166534796357154846e-01 8.415101170539855957e-01 -3.904646039009094238e-01
3.427564501762390137e-01 6.334416866302490234e-01 -2.757911682128906250e-01
2.333479374647140503e-01 -8.427897840738296509e-02 -3.192642927169799805e-01
-3.997658491134643555e-01 -6.220509409904479980e-01 3.967801332473754883e-01
2.985732257366180420e-01 3.123743459582328796e-02 -2.485816478729248047e-01
3.103972971439361572e-01 -6.220509409904479980e-01 -4.697371721267700195e-01
4.899639785289764404e-01 -7.611598968505859375e-01 9.392696432769298553e-03
8.437010645866394043e-02 -6.220509409904479980e-01 5.082311630249023438e-01
2.172484397888183594e-01 7.548637390136718750e-01 3.000249564647674561e-01
1.092884615063667297e-01 -4.606995582580566406e-01 2.263171672821044922e-01
1.471876259893178940e-02 6.036905050277709961e-01 -3.390423655509948730e-01
4.189775288105010986e-01 7.822628021240234375e-01 1.095045283436775208e-01
3.749097231775522232e-04 3.416678905487060547e-01 2.856065332889556885e-01
-3.114736080169677734e-01 -7.611598968505859375e-01 -4.127941131591796875e-01
4.430867135524749756e-01 -6.220509409904479980e-01 2.316934317350387573e-01
3.410128653049468994e-01 1.126340478658676147e-01 1.347364764660596848e-02
1.028045192360877991e-01 3.612867891788482666e-01 2.737931907176971436e-01
-1.711759418249130249e-01 -1.396230459213256836e-01 3.354620039463043213e-01
2.017604261636734009e-01 7.291242480278015137e-01 -3.102045357227325439e-01
-3.814754188060760498e-01 5.374805927276611328e-01 1.527021974325180054e-01
4.554573819041252136e-02 1.530600488185882568e-01 -3.011223077774047852e-01
7.671186327934265137e-02 -7.611598968505859375e-01 1.663753390312194824e-01
3.145066499710083008e-01 -2.223788499832153320e-01 2.227210253477096558e-02
-3.904671175405383110e-03 -2.395264506340026855e-01 3.017353117465972900e-01
-1.619091033935546875e-01 -6.220509409904479980e-01 2.994769811630249023e-01
3.080236911773681641e-01 6.300814747810363770e-01 3.173874318599700928e-01
-1.218176558613777161e-01 7.343081235885620117e-01 -3.467697799205780029e-01
-1.735485643148422241e-01 -3.110598921775817871e-01 1.968063265085220337e-01
6.881947815418243408e-02 -6.220509409904479980e-01 -4.712883234024047852e-01
2.179956883192062378e-01 -3.962179273366928101e-02 -3.367459177970886230e-01
2.165861874818801880e-01 -6.220509409904479980e-01 4.040679633617401123e-01
3.279404938220977783e-01 -6.220509409904479980e-01 -1.654361188411712646e-01
2.309909313917160034e-01 -3.756805360317230225e-01 9.456967562437057495e-02
3.362588286399841309e-01 -7.611598968505859375e-01 5.256676231510937214e-04
3.015690445899963379e-01 -6.220509409904479980e-01 1.599285006523132324e-01
-4.864174872636795044e-02 -6.220509409904479980e-01 -5.696923136711120605e-01
-3.110701739788055420e-01 4.326844215393066406e-01 -1.431193500757217407e-01
9.892578236758708954e-03 4.900446236133575439e-01 -2.708270847797393799e-01
3.179644942283630371e-01 -6.220509409904479980e-01 2.315322607755661011e-01
3.504496812820434570e-01 -1.826370805501937866e-01 2.450163103640079498e-02
-3.667063117027282715e-01 9.045708179473876953e-01 1.024573855102062225e-02
3.080764412879943848e-01 5.720443725585937500e-01 1.082552149891853333e-01
-3.938455283641815186e-01 5.142661333084106445e-01 6.634233146905899048e-02
3.496467471122741699e-01 4.642230868339538574e-01 1.299654096364974976e-01
1.491978671401739120e-02 -7.611598968505859375e-01 5.144533514976501465e-01
-2.671350538730621338e-01 -7.611598968505859375e-01 2.344772964715957642e-01
4.373011589050292969e-01 -7.611598968505859375e-01 1.084998250007629395e-02
-9.642495959997177124e-02 6.230300068855285645e-01 4.275022149085998535e-01
1.878509074449539185e-01 9.099265933036804199e-01 3.151222467422485352e-01
1.935915052890777588e-01 -2.880232036113739014e-01 -1.953171640634536743e-01
-2.369150221347808838e-01 7.162463068962097168e-01 2.789448201656341553e-01
2.628978490829467773e-01 8.736143708229064941e-01 2.449651360511779785e-01
-3.407842218875885010e-01 8.563222289085388184e-01 2.064540982246398926e-01
-1.702665388584136963e-01 -2.432538866996765137e-01 2.425416857004165649e-01
2.043137550354003906e-01 2.869821786880493164e-01 1.824523508548736572e-01
-3.341742455959320068e-01 6.451318860054016113e-01 -1.075787618756294250e-01
-1.538056433200836182e-01 -7.058441042900085449e-01 5.567074418067932129e-01
3.658478260040283203e-01 7.033838629722595215e-01 -2.897217683494091034e-02
1.322655528783798218e-01 -5.706990957260131836e-01 -2.614616453647613525e-01
-2.242743670940399170e-01 -4.339754879474639893e-01 -9.798470139503479004e-02
-4.202306270599365234e-01 5.988807678222656250e-01 9.922086447477340698e-02
1.005461812019348145e-01 -7.611598968505859375e-01 1.000960692763328552e-01
1.693309247493743896e-01 1.244546994566917419e-01 2.842214405536651611e-01
-2.650437355041503906e-01 2.986656129360198975e-01 5.695614591240882874e-02
6.255937041714787483e-04 1.533110886812210083e-01 -3.064780533313751221e-01
-3.033974766731262207e-01 -7.167285084724426270e-01 4.890381395816802979e-01
-3.932965695858001709e-01 -3.688833862543106079e-02 5.130442231893539429e-02
4.098835885524749756e-01 -7.611598968505859375e-01 1.598064005374908447e-01
5.663422346115112305e-01 -6.359468102455139160e-01 -1.091298982501029968e-01
-2.309628389775753021e-02 -7.611598968505859375e-01 -1.646244078874588013e-01
3.789563775062561035e-01 4.774898886680603027e-01 -4.631600156426429749e-02
-4.789244849234819412e-03 -7.351645231246948242e-01 -5.774471163749694824e-01
-7.494226843118667603e-02 7.807916998863220215e-01 -4.213204979896545410e-01
3.243214488029479980e-01 5.821893215179443359e-01 -6.900844722986221313e-02
3.658663928508758545e-01 -1.017430499196052551e-01 -1.421767473220825195e-01
3.784084022045135498e-01 -8.373881131410598755e-02 1.224597319960594177e-01
4.037405252456665039e-01 -6.220509409904479980e-01 -1.042264029383659363e-01
7.259086519479751587e-02 -7.611598968505859375e-01 -5.003664493560791016e-01
3.188064992427825928e-01 -6.764905452728271484e-01 4.804209172725677490e-01
-1.606089919805526733e-01 6.679839491844177246e-01 -4.092014431953430176e-01
2.707912921905517578e-01 7.198340296745300293e-01 -2.526050508022308350e-01
2.606443762779235840e-01 5.353003740310668945e-01 -1.603655815124511719e-01
-2.556968033313751221e-01 1.172132417559623718e-01 2.123548984527587891e-01
-2.903660833835601807e-01 9.416791796684265137e-01 1.654884070158004761e-01
-1.154001280665397644e-01 7.434216141700744629e-01 3.503698110580444336e-01
-7.375683635473251343e-02 9.251134097576141357e-02 3.483957052230834961e-01
-9.646441787481307983e-03 1.174873337149620056e-01 3.349931240081787109e-01
-2.246191650629043579e-01 -6.367227435111999512e-02 -3.267054855823516846e-01
1.789591610431671143e-01 8.932585716247558594e-01 -3.319176435470581055e-01
1.758086122572422028e-02 5.664102435111999512e-01 -4.239373505115509033e-01
-3.149197101593017578e-01 -7.611598968505859375e-01 -9.520035237073898315e-02
-1.720775067806243896e-01 -6.219503283500671387e-01 -2.855561673641204834e-01
-4.722637683153152466e-02 -1.549401283264160156e-01 -3.646421432495117188e-01
3.131049573421478271e-01 -2.175378650426864624e-01 -6.583328545093536377e-02
-2.118026912212371826e-01 4.561290517449378967e-02 -3.168818652629852295e-01
-2.116141617298126221e-01 -7.611598968505859375e-01 2.335551977157592773e-01
-3.248214721679687500e-01 -7.611598968505859375e-01 -2.382862567901611328e-01
3.641101419925689697e-01 8.440077304840087891e-01 -1.804259717464447021e-01
1.310191750526428223e-01 -2.286860048770904541e-01 2.791880369186401367e-01
-9.529989212751388550e-02 -3.471699357032775879e-01 -2.327957004308700562e-01
3.991847634315490723e-01 7.115302681922912598e-01 -1.895833909511566162e-01
-3.785420954227447510e-01 8.796861171722412109e-01 4.978482797741889954e-02
1.413067579269409180e-01 -7.401607632637023926e-01 5.606350898742675781e-01
-3.148826062679290771e-01 7.860878705978393555e-01 2.874516844749450684e-01
-1.219798028469085693e-01 -5.986132100224494934e-02 -3.787645995616912842e-01
-4.286333918571472168e-02 4.346077144145965576e-01 -2.089824825525283813e-01
1.647468358278274536e-01 -7.280387878417968750e-01 -5.532978773117065430e-01
2.008275836706161499e-01 8.432507514953613281e-01 -3.546622693538665771e-01
-6.769797764718532562e-03 -6.220509409904479980e-01 4.041764140129089355e-01
-1.488025039434432983e-01 -7.611598968505859375e-01 -1.432902812957763672e-01
3.499769270420074463e-01 5.010018870234489441e-02 1.526650637388229370e-01
-2.963411509990692139e-01 -6.220509409904479980e-01 4.185909330844879150e-01
3.980927169322967529e-01 -6.220509409904479980e-01 -1.986372768878936768e-01
2.445019185543060303e-01 5.689635276794433594e-01 3.481065630912780762e-01
-1.875762790441513062e-01 9.084945917129516602e-01 -3.131466209888458252e-01
3.658312261104583740e-01 5.859714746475219727e-01 -2.304670363664627075e-01
4.064902067184448242e-01 -6.220509409904479980e-01 9.434745460748672485e-02
-1.518999040126800537e-01 -4.283247590065002441e-01 1.926998794078826904e-01
3.106336593627929688e-01 -6.220509409904479980e-01 4.073998034000396729e-01
-1.971566528081893921e-01 9.193516373634338379e-01 2.940371930599212646e-01
1.061617508530616760e-01 -7.611598968505859375e-01 3.757888674736022949e-01
3.831331431865692139e-01 7.640348672866821289e-01 2.084213644266128540e-01
-3.009203374385833740e-01 8.575451374053955078e-01 2.574075162410736084e-01
3.627617657184600830e-02 4.225521385669708252e-01 -1.929406225681304932e-01
-3.077217340469360352e-01 -5.960018634796142578e-01 1.714326068758964539e-02
4.680300652980804443e-01 -6.220509409904479980e-01 -1.961122751235961914e-01
1.062272042036056519e-01 4.860084652900695801e-01 -2.450534552335739136e-01
2.748625576496124268e-01 -7.611598968505859375e-01 -3.355659842491149902e-01
3.703694045543670654e-01 7.644275426864624023e-01 -3.003209456801414490e-02
-2.274596840143203735e-01 2.346144020557403564e-01 -1.493385732173919678e-01
3.538713753223419189e-01 -2.494167909026145935e-02 -1.901323497295379639e-01
-1.565435826778411865e-01 -7.611598968505859375e-01 -2.562025785446166992e-01
-8.375781774520874023e-02 -4.023450016975402832e-01 -2.302003651857376099e-01
5.156077146530151367e-01 -7.611598968505859375e-01 -1.547685712575912476e-01
-1.530363131314516068e-02 4.714239835739135742e-01 2.541567385196685791e-01
-1.336495280265808105e-01 -6.239176392555236816e-01 -5.604831576347351074e-01
2.910261414945125580e-02 8.671929240226745605e-01 3.922546505928039551e-01
-2.103775441646575928e-01 -1.119309887290000916e-01 -3.246591091156005859e-01
3.905870616436004639e-01 -6.220509409904479980e-01 3.732091784477233887e-01
-4.457506909966468811e-02 6.985458135604858398e-01 -3.603706359863281250e-01
-4.525155723094940186e-01 -7.611598968505859375e-01 1.128842383623123169e-01
2.338226586580276489e-01 -5.627869963645935059e-01 1.685809195041656494e-01
2.856082618236541748e-01 4.030368030071258545e-01 -1.446392238140106201e-01
-6.197378784418106079e-02 4.973295032978057861e-01 -3.874150514602661133e-01
2.698112512007355690e-03 7.897410988807678223e-01 -3.714552521705627441e-01
1.700683981180191040e-01 -4.589432775974273682e-01 1.858799159526824951e-01
2.238828092813491821e-01 5.440368056297302246e-01 2.176930755376815796e-01
-2.160341441631317139e-01 -2.268652468919754028e-01 -2.212470918893814087e-01
2.162911891937255859e-01 -6.220509409904479980e-01 -3.998388946056365967e-01
2.710032761096954346e-01 8.880161643028259277e-01 -2.284782826900482178e-01
3.942363262176513672e-01 -7.611598968505859375e-01 -4.057250320911407471e-01
-3.202823102474212646e-01 6.915031671524047852e-01 -3.037303686141967773e-01
-3.465525433421134949e-02 5.492362976074218750e-01 4.158695936203002930e-01
7.569755613803863525e-02 -7.611598968505859375e-01 -4.382278025150299072e-01
4.617707729339599609e-01 -7.611598968505859375e-01 2.723299562931060791e-01
4.149238467216491699e-01 -7.611598968505859375e-01 3.844676613807678223e-01
-2.841507494449615479e-01 3.480482995510101318e-01 1.148900017142295837e-02
-7.214942574501037598e-02 8.710688352584838867e-01 3.500318229198455811e-01
-3.660762906074523926e-01 6.703399419784545898e-01 -2.439038008451461792e-01
-3.557232618331909180e-01 8.432096838951110840e-01 6.105349212884902954e-02
2.838226854801177979e-01 -1.058651059865951538e-01 -2.718859314918518066e-01
-2.697831094264984131e-01 -7.611598968505859375e-01 9.661751985549926758e-02
4.792295768857002258e-02 6.151765584945678711e-01 4.328687191009521484e-01
-4.254496097564697266e-01 7.436696887016296387e-01 -9.034569561481475830e-02
-1.147407963871955872e-01 4.666533470153808594e-01 2.212290614843368530e-01
-2.437252402305603027e-01 -6.220509409904479980e-01 4.561720490455627441e-01
-8.908534049987792969e-02 3.522025942802429199e-01 2.728662192821502686e-01
-5.745974183082580566e-02 -6.220509409904479980e-01 3.360764086246490479e-01
-4.138603806495666504e-02 8.333529233932495117e-01 -3.616922199726104736e-01
4.730117321014404297e-01 -6.220509409904479980e-01 -8.315514028072357178e-02
3.586244583129882812e-01 -7.611598968505859375e-01 8.559812605381011963e-02
2.498543448746204376e-02 -7.611598968505859375e-01 -1.181749999523162842e-01
2.529658377170562744e-01 -6.935570240020751953e-01 -5.167560577392578125e-01
5.768789052963256836e-01 -6.613355875015258789e-01 -2.909066341817378998e-02
3.560623526573181152e-01 8.587309718132019043e-01 -6.289412081241607666e-02
3.222164809703826904e-01 9.269129633903503418e-01 -1.348742395639419556e-01
-1.417676508426666260e-01 7.495949268341064453e-01 4.110598564147949219e-01
3.180709779262542725e-01 7.781543731689453125e-01 -1.949567347764968872e-01
2.032730728387832642e-02 -3.217449784278869629e-01 -2.587197422981262207e-01
2.052524536848068237e-01 8.034523129463195801e-01 3.711706101894378662e-01
-1.340392678976058960e-01 -7.611598968505859375e-01 1.794233322143554688e-01
4.151563048362731934e-01 -6.996785998344421387e-01 4.044049978256225586e-01
-1.418282091617584229e-01 -7.611598968505859375e-01 5.179834961891174316e-01
2.635386288166046143e-01 3.496101796627044678e-01 1.158947125077247620e-01
-2.053919881582260132e-01 -4.991753399372100830e-01 -1.544784605503082275e-01
-1.926321536302566528e-01 4.891527891159057617e-01 1.885875910520553589e-01
3.293802738189697266e-01 6.981648802757263184e-01 1.603397428989410400e-01
3.661496639251708984e-01 8.434842228889465332e-01 -1.250726915895938873e-02
4.194137826561927795e-02 8.709330558776855469e-01 -3.539765179157257080e-01
2.924887835979461670e-01 -6.220509409904479980e-01 -2.214141339063644409e-01
3.585980832576751709e-01 -1.692042201757431030e-01 -3.889745846390724182e-02
7.796870172023773193e-02 -5.035133361816406250e-01 -2.500165402889251709e-01
-5.039847493171691895e-01 -6.220509409904479980e-01 4.813238978385925293e-02
-4.415680840611457825e-02 1.718681901693344116e-01 -2.898413538932800293e-01
-2.988641858100891113e-01 6.478629708290100098e-01 1.875746548175811768e-01
1.314606815576553345e-01 -7.611598968505859375e-01 -1.764426082372665405e-01
-1.682817041873931885e-01 -6.220509409904479980e-01 -3.674660325050354004e-01
6.591517478227615356e-02 6.465697288513183594e-01 -4.342845082283020020e-01
3.407101035118103027e-01 7.637828588485717773e-01 2.682000696659088135e-01
2.678276896476745605e-01 -5.787820219993591309e-01 -1.346222311258316040e-01
1.263647526502609253e-01 -7.280264049768447876e-02 3.780901730060577393e-01
-9.509798884391784668e-02 -6.220509409904479980e-01 4.646349549293518066e-01
1.155291870236396790e-01 4.405094981193542480e-01 -3.329315483570098877e-01
-4.400312006473541260e-01 6.965355873107910156e-01 1.697036810219287872e-02
-2.322313040494918823e-01 -3.411440849304199219e-01 -9.725943207740783691e-02
2.875510752201080322e-01 -6.220509409904479980e-01 -4.341946542263031006e-01
-3.704077750444412231e-02 6.044474840164184570e-01 3.365032672882080078e-01
-5.572134256362915039e-02 -2.807900309562683105e-01 -2.698239386081695557e-01
2.602380216121673584e-01 -7.611598968505859375e-01 1.077883094549179077e-01
3.462074697017669678e-01 -6.220509409904479980e-01 -3.180892169475555420e-01
1.120459511876106262e-01 9.290697574615478516e-01 3.287700116634368896e-01
5.114690065383911133e-01 -7.611598968505859375e-01 -1.967735737562179565e-01
2.724938392639160156e-01 -7.611598968505859375e-01 3.901144862174987793e-01
3.149579465389251709e-01 6.113856434822082520e-01 -3.050363361835479736e-01
-1.279440969228744507e-01 4.372294247150421143e-01 -3.228490948677062988e-01
-4.661119356751441956e-02 4.064340889453887939e-01 1.671010851860046387e-01
2.953898608684539795e-01 8.280323147773742676e-01 2.177722007036209106e-01
2.477976083755493164e-01 7.846256494522094727e-01 3.496997356414794922e-01
2.277958393096923828e-01 1.769816875457763672e-01 1.844479441642761230e-01
-3.093832731246948242e-01 -1.716637760400772095e-01 1.806677579879760742e-01
-2.826972901821136475e-01 1.823833435773849487e-01 -4.667253047227859497e-02
-1.587472409009933472e-01 3.084393739700317383e-01 2.224861830472946167e-01
2.890178747475147247e-02 -2.348664775490760803e-02 -3.973832428455352783e-01
-2.633880674839019775e-01 -2.679901719093322754e-01 9.554314613342285156e-02
5.068380236625671387e-01 -7.176769375801086426e-01 2.809101045131683350e-01
1.426732838153839111e-01 -2.551827766001224518e-02 3.727774322032928467e-01
2.103620618581771851e-01 -7.611598968505859375e-01 5.495031829923391342e-03
3.879838883876800537e-01 7.077182643115520477e-03 8.289250731468200684e-02
-9.757855534553527832e-02 -6.220509409904479980e-01 -5.372520685195922852e-01
-7.471803692169487476e-04 6.361678838729858398e-01 3.522305786609649658e-01
1.947841793298721313e-01 8.322560191154479980e-01 3.121147155761718750e-01
1.765220612287521362e-01 8.430290222167968750e-01 3.654622137546539307e-01
1.247335225343704224e-01 -1.119554117321968079e-01 -3.679358959197998047e-01
-5.442885309457778931e-02 2.987515330314636230e-01 -2.668613195419311523e-01
-1.123115122318267822e-01 -5.018703341484069824e-01 2.340670377016067505e-01
-4.541018605232238770e-01 -6.220509409904479980e-01 -3.276832401752471924e-01
2.622609734535217285e-01 3.748524785041809082e-01 1.506704688072204590e-01
-1.173947378993034363e-01 -1.508375853300094604e-01 3.517158329486846924e-01
-1.908729523420333862e-01 7.958460450172424316e-01 -3.155934810638427734e-01
-2.118847370147705078e-01 -6.220509409904479980e-01 -3.707334101200103760e-01
3.014478981494903564e-01 -5.891037583351135254e-01 5.665548518300056458e-02
3.443892672657966614e-02 -7.611598968505859375e-01 1.771474033594131470e-01
-2.503107786178588867e-01 4.190425276756286621e-01 2.165375202894210815e-01
2.200479209423065186e-01 6.624992489814758301e-01 -3.859254717826843262e-01
-5.578854680061340332e-02 4.087373912334442139e-01 3.180291950702667236e-01
3.084896206855773926e-01 1.151372641324996948e-01 -1.366275697946548462e-01
-4.160841405391693115e-01 -6.220509409904479980e-01 1.080071181058883667e-01
-2.728844583034515381e-01 -7.611598968505859375e-01 3.126744031906127930e-01
-2.949652075767517090e-02 4.103696048259735107e-01 -1.756416410207748413e-01
-1.260588765144348145e-01 -7.611598968505859375e-01 -5.931425839662551880e-03
2.791311442852020264e-01 1.406596750020980835e-01 1.492111533880233765e-01
4.542666673660278320e-02 -7.611598968505859375e-01 -4.022447466850280762e-01
-4.690956473350524902e-01 -7.502031922340393066e-01 -3.280514776706695557e-01
-2.678377181291580200e-02 9.034367799758911133e-01 3.673865199089050293e-01
-3.476871848106384277e-01 4.436410963535308838e-01 -5.582614615559577942e-02
1.790310442447662354e-02 4.038661122322082520e-01 1.672915667295455933e-01
-2.084073424339294434e-01 -6.838584542274475098e-01 -5.334806442260742188e-01
-3.698144853115081787e-01 4.831442236900329590e-02 9.128168970346450806e-02
2.862080037593841553e-01 3.575837612152099609e-01 -5.860717594623565674e-02
2.928531169891357422e-01 6.969467997550964355e-01 3.324163556098937988e-01
-6.068276613950729370e-02 -7.611598968505859375e-01 1.724353581666946411e-01
1.602057218551635742e-01 -3.196107149124145508e-01 -2.059856951236724854e-01
1.030534226447343826e-02 4.659373760223388672e-01 -3.737058043479919434e-01
1.557837873697280884e-01 -2.123911231756210327e-01 -2.841730117797851562e-01
2.137847244739532471e-01 3.271654546260833740e-01 1.813485771417617798e-01
-1.604282855987548828e-01 6.292414069175720215e-01 -3.082118630409240723e-01
-4.182389676570892334e-01 5.841146111488342285e-01 -9.095452725887298584e-02
-2.565114498138427734e-01 4.742899239063262939e-01 -4.102772567421197891e-03
-1.598451435565948486e-01 1.027224361896514893e-01 3.084986209869384766e-01
1.030272319912910461e-01 -3.102315366268157959e-01 2.432723343372344971e-01
-8.607720024883747101e-03 1.132382899522781372e-01 -3.383927941322326660e-01
-2.383450567722320557e-01 -7.611598968505859375e-01 -2.347287833690643311e-01
2.348580509424209595e-01 -5.566810965538024902e-01 -1.613111197948455811e-01
-4.327404201030731201e-01 -7.611598968505859375e-01 2.093932628631591797e-01
3.495422601699829102e-01 8.944610357284545898e-01 4.739041626453399658e-02
5.321570485830307007e-02 3.525249287486076355e-02 -3.816559016704559326e-01
-2.656766772270202637e-01 8.053267598152160645e-01 -2.539286017417907715e-01
-3.443612158298492432e-01 9.131079912185668945e-01 1.045394986867904663e-01
-4.813866019248962402e-01 -6.220509409904479980e-01 -2.172608077526092529e-01
4.319688677787780762e-01 5.874132513999938965e-01 2.440151013433933258e-02
2.108289599418640137e-01 8.055768013000488281e-01 -3.674699366092681885e-01
-1.022349148988723755e-01 6.188083291053771973e-01 -3.289569914340972900e-01
-6.319829821586608887e-02 -2.454653382301330566e-01 -2.892523407936096191e-01
3.442363142967224121e-01 8.447374701499938965e-01 -2.162342071533203125e-01
-2.309634387493133545e-01 -5.815306901931762695e-01 1.877622008323669434e-01
7.862285524606704712e-02 -7.611598968505859375e-01 3.287914991378784180e-01
3.603699803352355957e-01 -7.217755913734436035e-01 4.485286176204681396e-01
1.725006103515625000e-01 4.105871170759201050e-02 3.447024524211883545e-01
4.184735119342803955e-01 8.060837984085083008e-01 -5.078297108411788940e-02
-3.220366537570953369e-01 5.111986398696899414e-02 -2.001962363719940186e-01
-2.319841831922531128e-01 4.572829902172088623e-01 5.131291970610618591e-02
2.701388001441955566e-01 -7.841236144304275513e-02 2.931082844734191895e-01
1.654061675071716309e-01 -6.220509409904479980e-01 -5.221254825592041016e-01
7.154940813779830933e-02 -4.963426589965820312e-01 2.506500482559204102e-01
2.471177577972412109e-01 -4.534888863563537598e-01 4.222631081938743591e-02
-2.661475241184234619e-01 -6.252431273460388184e-01 -5.095648765563964844e-01
3.053394556045532227e-01 -7.611598968505859375e-01 1.775703430175781250e-01
-2.694842517375946045e-01 4.227651059627532959e-01 -1.964658647775650024e-01
-4.252933561801910400e-01 6.603610515594482422e-01 -1.179386153817176819e-01
1.884486973285675049e-01 -7.611598968505859375e-01 4.159663021564483643e-01
-9.189743548631668091e-02 -7.329217791557312012e-01 -5.659795403480529785e-01
1.418351978063583374e-01 4.936616718769073486e-01 2.369134128093719482e-01
-8.610095083713531494e-02 9.372591972351074219e-01 3.263963758945465088e-01
7.732616364955902100e-02 -6.535720229148864746e-01 -5.684478878974914551e-01
1.123790368437767029e-01 -7.611598968505859375e-01 -7.767289131879806519e-02
6.295657157897949219e-02 1.002769321203231812e-01 -3.436049818992614746e-01
-4.165881872177124023e-01 7.594058513641357422e-01 1.199581697583198547e-01
-2.063189595937728882e-01 -4.211043119430541992e-01 -1.320386081933975220e-01
-1.043701842427253723e-01 -3.887816146016120911e-02 3.878552019596099854e-01
1.958605945110321045e-01 4.711260795593261719e-01 -1.637999862432479858e-01
3.920825123786926270e-01 7.914299964904785156e-01 -1.673457473516464233e-01
3.716294765472412109e-01 -7.611598968505859375e-01 1.731327921152114868e-01
-4.238457381725311279e-01 -7.611598968505859375e-01 -3.068951666355133057e-01
-6.931643187999725342e-02 -7.611598968505859375e-01 -3.656404316425323486e-01
5.196433886885643005e-02 6.276673823595046997e-02 3.703871965408325195e-01
2.279195003211498260e-02 9.126006811857223511e-02 -3.559018075466156006e-01
3.732362985610961914e-01 8.872913718223571777e-01 8.228123933076858521e-02
3.745695948600769043e-01 6.331046223640441895e-01 -2.342950850725173950e-01
-1.105425357818603516e-01 -5.481019020080566406e-01 -2.548067271709442139e-01
2.420589774847030640e-01 -1.576555967330932617e-01 -2.774184942245483398e-01
-3.686462044715881348e-01 -6.220509409904479980e-01 -7.634924352169036865e-02
4.963664337992668152e-02 -4.374460577964782715e-01 -2.425382286310195923e-01
-1.103110462427139282e-01 8.416097164154052734e-01 3.919186294078826904e-01
2.579005658626556396e-01 6.707443594932556152e-01 2.567315399646759033e-01
-1.442262381315231323e-01 -1.691837161779403687e-01 3.278352022171020508e-01
-3.202559351921081543e-01 5.578574538230895996e-01 -2.690893709659576416e-01
-2.759965062141418457e-01 -2.469559311866760254e-01 -9.814099222421646118e-02
-1.784364283084869385e-01 1.873620599508285522e-01 2.225125581026077271e-01
2.533037662506103516e-01 6.511401534080505371e-01 -3.609068691730499268e-01
-4.709788858890533447e-01 -6.220509409904479980e-01 -1.224025562405586243e-01
5.028884485363960266e-02 -7.145932912826538086e-01 -5.720072984695434570e-01
-1.359479278326034546e-01 -1.378355026245117188e-01 -3.504034280776977539e-01
5.003609061241149902e-01 -7.611598968505859375e-01 -1.092207431793212891e-01
-2.174876034259796143e-01 -7.611598968505859375e-01 -5.295764207839965820e-01
3.874242007732391357e-01 -7.611598968505859375e-01 -2.900269329547882080e-01
5.087222456932067871e-01 -6.220509409904479980e-01 1.835952103137969971e-01
-5.020506978034973145e-01 -7.611598968505859375e-01 3.464319743216037750e-03
-2.421682178974151611e-01 -5.146907567977905273e-01 1.007378250360488892e-01
2.042287737131118774e-01 -4.854280352592468262e-01 1.553160995244979858e-01
4.538304209709167480e-01 -6.715157628059387207e-01 3.540034592151641846e-01
1.984774172306060791e-01 3.651480078697204590e-01 2.190928161144256592e-01
3.205910921096801758e-01 7.295159697532653809e-01 1.895848959684371948e-01
-2.006467282772064209e-01 4.815963208675384521e-01 3.268896639347076416e-01
2.173666357994079590e-01 -7.611598968505859375e-01 1.589995622634887695e-01
-3.988300859928131104e-01 8.560086488723754883e-01 1.690767821855843067e-03
1.768072843551635742e-01 -1.700286269187927246e-01 3.154494762420654297e-01
-2.108327299356460571e-01 -4.134101271629333496e-01 1.259439438581466675e-01
2.810525000095367432e-01 -7.611598968505859375e-01 -4.336945116519927979e-01
-2.478863894939422607e-01 -4.819858074188232422e-01 4.790000990033149719e-02
-1.395171135663986206e-01 5.270416140556335449e-01 -2.634454965591430664e-01
3.247278034687042236e-01 -1.571818590164184570e-01 -1.791082769632339478e-01
-1.445954591035842896e-01 -7.611598968505859375e-01 8.771201223134994507e-02
-4.456940665841102600e-02 -6.220509409904479980e-01 -4.639818966388702393e-01
1.232946962118148804e-01 8.250003457069396973e-01 -3.449510037899017334e-01
-1.117039471864700317e-01 7.952648401260375977e-01 -3.510344624519348145e-01
3.901514112949371338e-01 -6.481336057186126709e-02 -9.646794199943542480e-02
-2.126134186983108521e-01 8.305084705352783203e-01 -3.521499633789062500e-01
-2.628840506076812744e-01 5.271685719490051270e-01 1.391697078943252563e-01
-2.021168023347854614e-01 2.361723631620407104e-01 -1.818589121103286743e-01
-2.969252467155456543e-01 3.816743791103363037e-01 4.423156753182411194e-02
-3.632729053497314453e-01 -7.611598968505859375e-01 3.846878558397293091e-02
1.112156808376312256e-01 2.948932051658630371e-01 2.493362724781036377e-01
-6.220284476876258850e-02 7.540872097015380859e-01 4.292321205139160156e-01
1.734324693679809570e-01 4.688872694969177246e-01 1.854852885007858276e-01
2.209133654832839966e-01 5.835245847702026367e-01 -3.718254864215850830e-01
2.883725762367248535e-01 6.769818067550659180e-02 -2.360005527734756470e-01
-2.909580171108245850e-01 -6.387032866477966309e-01 4.985833466053009033e-01
2.377757281064987183e-01 9.115158319473266602e-01 2.750034630298614502e-01
-4.942343533039093018e-01 -7.611598968505859375e-01 -2.062289118766784668e-01
3.506118357181549072e-01 7.463129162788391113e-01 -1.211688667535781860e-01
1.519322991371154785e-01 1.032124906778335571e-01 3.130270242691040039e-01
2.746975123882293701e-01 -7.611598968505859375e-01 -1.091631129384040833e-01
2.346363216638565063e-01 -2.541148364543914795e-01 1.731787025928497314e-01
-2.832143940031528473e-02 4.569192975759506226e-02 -3.808099925518035889e-01
-5.686746835708618164e-01 -6.632716059684753418e-01 -5.964198708534240723e-02
-3.064704537391662598e-01 -1.074931817129254341e-03 2.470193356275558472e-01
5.763065218925476074e-01 -6.590753197669982910e-01 3.405368700623512268e-02
-3.677837252616882324e-01 7.121534943580627441e-01 -2.396166622638702393e-01
4.304011166095733643e-01 -7.219934463500976562e-01 -3.839259743690490723e-01
4.216998517513275146e-01 6.300531029701232910e-01 1.312899291515350342e-01
-1.485895663499832153e-01 8.606747984886169434e-01 -3.255978226661682129e-01
-2.812829315662384033e-01 4.002217054367065430e-01 1.389567852020263672e-01
-5.731103420257568359e-01 -7.269945740699768066e-01 -2.594236284494400024e-02
5.729112029075622559e-01 -7.279332876205444336e-01 5.984491109848022461e-02
-2.418976575136184692e-01 -3.818587362766265869e-01 4.051028192043304443e-02
-3.979372978210449219e-01 -7.611598968505859375e-01 -2.065493017435073853e-01
-3.305650055408477783e-01 4.705478250980377197e-01 -1.765559166669845581e-01
3.151268959045410156e-01 -7.611598968505859375e-01 -4.783579334616661072e-02
2.362636625766754150e-01 -4.586922526359558105e-01 8.676187694072723389e-02
-3.271706700325012207e-01 5.143266916275024414e-01 2.302429080009460449e-01
-1.691295653581619263e-01 2.337450683116912842e-01 -2.129053026437759399e-01
-1.692975610494613647e-01 -3.472695350646972656e-01 -1.865885406732559204e-01
2.503060102462768555e-01 6.208224892616271973e-01 3.593631386756896973e-01
-2.661709487438201904e-01 6.597856879234313965e-01 -2.353978753089904785e-01
2.001516520977020264e-01 -6.572917103767395020e-01 -5.386322736740112305e-01
1.507454961538314819e-01 -7.611598968505859375e-01 -4.673557579517364502e-01
1.163379773497581482e-01 7.610293030738830566e-01 -4.202626645565032959e-01
-2.417335361242294312e-01 -1.461913157254457474e-02 -3.132716417312622070e-01
1.299574077129364014e-01 -6.220509409904479980e-01 3.843924403190612793e-01
-2.452151617035269737e-03 4.454559683799743652e-01 2.276573181152343750e-01
3.347659111022949219e-02 -7.070807218551635742e-01 5.748308300971984863e-01
-3.952983301132917404e-03 4.299347698688507080e-01 -2.073385417461395264e-01
-3.340247869491577148e-01 -1.700709573924541473e-02 2.150146961212158203e-01
3.017106652259826660e-01 -7.611598968505859375e-01 -2.600648105144500732e-01
-3.093520104885101318e-01 9.320470094680786133e-01 -1.282173991203308105e-01
-2.994317114353179932e-01 -6.063382625579833984e-01 -1.045712083578109741e-01
-2.861863970756530762e-01 5.763852596282958984e-01 -1.554523110389709473e-01
5.596238970756530762e-01 -7.178371548652648926e-01 1.534728854894638062e-01
1.904188841581344604e-01 -7.611598968505859375e-01 6.190603226423263550e-02
4.375297427177429199e-01 -7.611598968505859375e-01 -4.987846314907073975e-02
4.429646134376525879e-01 6.493614315986633301e-01 -1.716363802552223206e-02
-1.386595070362091064e-01 6.436803340911865234e-01 3.224892318248748779e-01
1.794241219758987427e-01 6.723550558090209961e-01 3.158939182758331299e-01
1.266743987798690796e-01 -5.878427028656005859e-01 2.769863307476043701e-01
4.841373860836029053e-01 -7.272495627403259277e-01 3.145078420639038086e-01
-1.271753609180450439e-01 -6.220509409904479980e-01 3.783070445060729980e-01
-1.836925595998764038e-01 -5.169070959091186523e-01 1.915853619575500488e-01
-4.622893631458282471e-01 -6.796455383300781250e-01 -3.369227349758148193e-01
-5.194356441497802734e-01 -6.220509409904479980e-01 -8.503409475088119507e-02
-3.774666786193847656e-01 -1.225995048880577087e-01 -5.503631383180618286e-02
-1.804261654615402222e-01 4.519330859184265137e-01 1.451447457075119019e-01
1.833156645298004150e-01 -7.611598968505859375e-01 2.298033535480499268e-01
-3.913087844848632812e-01 -6.220509409904479980e-01 3.150763511657714844e-01
-1.959132105112075806e-01 4.248202741146087646e-01 2.333133667707443237e-02
3.883599638938903809e-01 -6.220509409904479980e-01 1.870862692594528198e-01
-3.262495398521423340e-01 9.395351409912109375e-01 6.662482023239135742e-02
2.728327810764312744e-01 -6.391946077346801758e-01 -5.085265636444091797e-01
-1.420186907052993774e-01 7.014390826225280762e-01 4.170759320259094238e-01
-2.906835377216339111e-01 -5.698785781860351562e-01 -6.068000569939613342e-03
-5.238755047321319580e-02 6.049368977546691895e-01 4.296833872795104980e-01
-1.261926889419555664e-01 4.075476527214050293e-01 -1.191820725798606873e-01
2.914885282516479492e-01 -2.463971972465515137e-01 6.195624172687530518e-02
-3.299545049667358398e-01 7.393132448196411133e-01 1.609424203634262085e-01
-3.514156043529510498e-01 -6.882129907608032227e-01 -4.515835046768188477e-01
-2.235828042030334473e-01 -1.893300563097000122e-01 2.588385045528411865e-01
-2.743900381028652191e-02 -7.350814938545227051e-01 5.750749707221984863e-01
3.923550546169281006e-01 6.680532693862915039e-01 2.094704210758209229e-01
-1.211358532309532166e-01 -5.947721004486083984e-01 -2.822985649108886719e-01
-3.088870644569396973e-01 -1.871078610420227051e-01 -1.491432189941406250e-01
2.619679272174835205e-01 8.588736057281494141e-01 -2.510060369968414307e-01
-1.492752730846405029e-01 -5.287741422653198242e-01 -2.228724658489227295e-01
-3.997218906879425049e-01 -7.611598968505859375e-01 3.544029593467712402e-01
-2.908925712108612061e-01 1.508241742849349976e-01 -9.208781272172927856e-02
-6.945113837718963623e-02 5.251846909523010254e-01 4.009813070297241211e-01
3.539491444826126099e-02 5.750187039375305176e-01 -3.234478831291198730e-01
1.150632649660110474e-01 5.179173946380615234e-01 3.896925449371337891e-01
-8.107476681470870972e-02 -7.307406067848205566e-01 5.680137872695922852e-01
4.427008628845214844e-01 -6.220509409904479980e-01 1.076466739177703857e-01
2.650790214538574219e-01 9.402862787246704102e-01 2.085278183221817017e-01
-4.349303841590881348e-01 6.664923429489135742e-01 5.560817196965217590e-02
1.617138981819152832e-01 3.847053647041320801e-01 2.613166272640228271e-01
1.176185533404350281e-01 7.764592766761779785e-02 -3.470266759395599365e-01
1.135482564568519592e-01 4.410350024700164795e-01 1.936083137989044189e-01
6.440554559230804443e-02 -7.611598968505859375e-01 7.836937904357910156e-02
-3.099371194839477539e-01 -1.310067623853683472e-01 -2.176427245140075684e-01
1.397936940193176270e-01 3.889934718608856201e-01 -1.098562218248844147e-02
