5.949559062719345093e-02 -1.313350256532430649e-02 -3.272967338562011719e-01
-3.863987922668457031e-01 -5.519939586520195007e-02 -6.532722711563110352e-01
3.216300010681152344e-01 -1.316334772855043411e-02 3.728821575641632080e-01
1.971195787191390991e-01 -1.314473804086446762e-02 3.642116280389018357e-05
-2.399640157818794250e-02 1.237602159380912781e-02 -7.967036366462707520e-01
2.174887210130691528e-01 1.746004261076450348e-02 5.849074721336364746e-01
-3.826490640640258789e-01 1.003392226994037628e-02 4.301834106445312500e-01
-4.550797864794731140e-02 1.239245384931564331e-02 -8.379408121109008789e-01
-3.720690310001373291e-01 1.218437775969505310e-02 3.947381079196929932e-01
-2.367944717407226562e-01 -1.313750166445970535e-02 -3.420709669589996338e-01
-4.061096608638763428e-01 -2.602708712220191956e-02 -1.967618167400360107e-01
3.580335080623626709e-01 1.482710894197225571e-02 -6.347879171371459961e-01
3.585116267204284668e-01 1.747607812285423279e-02 2.759740650653839111e-01
2.338586598634719849e-01 1.234394963830709457e-02 6.334765255451202393e-02
-3.809504210948944092e-01 1.077337563037872314e-02 -5.459465384483337402e-01
-2.240425944328308105e-01 -1.314704399555921555e-02 -6.700672209262847900e-02
-4.013145864009857178e-01 -4.172836244106292725e-02 8.031543493270874023e-01
2.927734553813934326e-01 1.681888289749622345e-02 -6.730761528015136719e-01
7.062948774546384811e-03 1.235751062631607056e-02 -3.609285354614257812e-01
2.943187057971954346e-01 -1.313129439949989319e-02 -4.726553857326507568e-01
2.311631739139556885e-01 -1.315030083060264587e-02 1.149631291627883911e-01
1.206449866294860840e-01 1.751517690718173981e-02 -1.656423807144165039e-01
2.102278172969818115e-01 -1.312879007309675217e-02 -5.208070874214172363e-01
2.245516479015350342e-01 1.240304671227931976e-02 -2.067033797502517700e-01
2.160988897085189819e-01 1.751715876162052155e-02 -3.437350094318389893e-01
-2.070420980453491211e-01 1.755962520837783813e-02 4.228413105010986328e-01
-1.081383600831031799e-01 1.235652063041925430e-02 -6.390665471553802490e-02
-3.363851904869079590e-01 1.239393930882215500e-02 -5.654029846191406250e-01
4.381382092833518982e-02 1.241690479218959808e-02 -4.553549587726593018e-01
-3.378314077854156494e-01 -3.657208010554313660e-02 5.165530443191528320e-01
8.320841193199157715e-02 -1.318153273314237595e-02 8.250459432601928711e-01
-1.527778357267379761e-01 1.754289679229259491e-02 8.256801217794418335e-02
-2.676218748092651367e-01 1.750448718667030334e-02 -7.111281901597976685e-02
-3.107270002365112305e-01 1.234949193894863129e-02 5.994085073471069336e-01
8.881717920303344727e-02 1.236661802977323532e-02 3.824416100978851318e-01
-1.330491602420806885e-01 1.234721485525369644e-02 2.483628243207931519e-01
-3.388796001672744751e-02 1.234384998679161072e-02 1.873385608196258545e-01
1.861970424652099609e-01 1.237483415752649307e-02 2.143370509147644043e-01
1.409962922334671021e-01 1.285572629421949387e-02 3.356956243515014648e-01
-4.052860736846923828e-01 -3.227077424526214600e-02 -2.685531973838806152e-01
-1.133115664124488831e-01 1.754022203385829926e-02 2.027601897716522217e-01
-1.519958227872848511e-01 -1.314761769026517868e-02 3.116248734295368195e-02
2.531963586807250977e-01 1.750102266669273376e-02 -6.864213198423385620e-02
3.869543671607971191e-01 1.746222004294395447e-02 2.075453549623489380e-01
3.174575865268707275e-01 1.234325673431158066e-02 7.011364102363586426e-01
-2.477090805768966675e-01 1.234523672610521317e-02 5.699699521064758301e-01
-1.831766217947006226e-01 1.751092262566089630e-02 8.485253453254699707e-01
2.122244387865066528e-01 1.746449433267116547e-02 4.154052138328552246e-01
-3.255042135715484619e-01 1.238146610558032990e-02 -2.476970404386520386e-01
-3.059032261371612549e-01 1.238176319748163223e-02 -3.021651804447174072e-01
-2.302532196044921875e-01 1.235592737793922424e-02 2.349863350391387939e-01
-2.845045924186706543e-01 -1.317420788109302521e-02 6.058695316314697266e-01
-1.436569094657897949e-01 1.240829192101955414e-02 -4.148928523063659668e-01
-1.769085973501205444e-01 -1.312165334820747375e-02 -8.133012652397155762e-01
2.036539018154144287e-01 -1.313951052725315094e-02 -1.499435752630233765e-01
-3.440291583538055420e-01 1.236493419855833054e-02 2.515522539615631104e-01
-3.725897371768951416e-01 -5.884182453155517578e-02 -4.135099947452545166e-01
2.443278133869171143e-01 1.744836010038852692e-02 8.634124398231506348e-01
6.181987002491950989e-02 1.236770581454038620e-02 -7.683103680610656738e-01
1.818444579839706421e-01 1.238542515784502029e-02 5.603665858507156372e-02
-1.256544981151819229e-02 -1.312531623989343643e-02 -6.631029844284057617e-01
-1.933280229568481445e-01 1.238503027707338333e-02 -6.530139446258544922e-01
1.295906901359558105e-01 1.747281104326248169e-02 7.718666195869445801e-01
-5.252784490585327148e-02 1.244323607534170151e-02 -5.132857561111450195e-01
3.310965374112129211e-02 1.237324997782707214e-02 -8.547769784927368164e-01
2.335923761129379272e-01 1.234434451907873154e-02 -2.370397895574569702e-01
1.635630130767822266e-01 1.235919259488582611e-02 -7.698912620544433594e-01
1.402786225080490112e-01 1.752774976193904877e-02 -4.682166874408721924e-01
3.851131796836853027e-01 -1.315842848271131516e-02 1.710883975028991699e-01
2.773092687129974365e-01 1.234335452318191528e-02 6.289381980895996094e-01
-8.610777556896209717e-02 -1.312787085771560669e-02 -5.584519505500793457e-01
-3.171098828315734863e-01 1.234820485115051270e-02 6.492627263069152832e-01
3.895302116870880127e-02 1.528236269950866699e-02 -3.867104649543762207e-01
-1.811859458684921265e-01 1.237146928906440735e-02 -3.081808388233184814e-01
1.040671542286872864e-01 -1.317519694566726685e-02 6.946297883987426758e-01
2.394535690546035767e-01 1.234929542988538742e-02 -6.715854406356811523e-01
3.941895365715026855e-01 1.748775877058506012e-02 -6.295496970415115356e-02
3.730057179927825928e-01 1.234335452318191528e-02 6.474373936653137207e-01
-1.741606295108795166e-01 1.751329749822616577e-02 -5.369829535484313965e-01
2.687892019748687744e-01 -1.315615139901638031e-02 2.339617908000946045e-01
-3.275236189365386963e-01 -1.022024173289537430e-02 -8.893452882766723633e-01
2.908223867416381836e-01 -1.317633502185344696e-02 7.179617285728454590e-01
3.551925122737884521e-01 1.236582454293966293e-02 8.982248604297637939e-02
3.505904674530029297e-01 1.234315708279609680e-02 8.667315244674682617e-01
-3.663890063762664795e-01 -5.851139873266220093e-02 -5.844396948814392090e-01
-2.578791975975036621e-02 1.327772065997123718e-02 4.175899028778076172e-01
2.537764012813568115e-01 1.752002909779548645e-02 -3.473560512065887451e-01
4.118899106979370117e-01 -8.037406951189041138e-03 -2.420041412115097046e-01
3.661298751831054688e-01 -1.315216161310672760e-02 1.912661083042621613e-02
7.047079503536224365e-02 1.240621414035558701e-02 -1.543426811695098877e-01
3.350015282630920410e-01 1.240878831595182419e-02 -4.653757214546203613e-01
3.546718060970306396e-01 1.746370270848274231e-02 1.770376712083816528e-01
-2.121549099683761597e-01 -1.312327757477760315e-02 -7.468217015266418457e-01
1.826235055923461914e-01 1.751082204282283783e-02 -2.942806780338287354e-01
-4.017174839973449707e-01 -4.110848903656005859e-02 -4.041386246681213379e-01
1.672731488943099976e-01 1.234315708279609680e-02 8.226761221885681152e-01
-2.552303373813629150e-01 1.238700840622186661e-02 -5.637904405593872070e-01
1.098659783601760864e-01 1.752289943397045135e-02 -3.491269648075103760e-01
5.491286981850862503e-03 1.239621452987194061e-02 7.998827099800109863e-01
-3.334659636020660400e-01 -1.698802970349788666e-02 -3.761551380157470703e-01
5.455452017486095428e-03 -1.318393740803003311e-02 8.744567632675170898e-01
-3.667255640029907227e-01 -5.857296660542488098e-02 -1.069829836487770081e-01
-1.564463973045349121e-01 1.754507422447204590e-02 1.513943672180175781e-01
1.862296909093856812e-01 -1.314986590296030045e-02 1.520427465438842773e-01
-2.887324690818786621e-01 1.745430007576942444e-02 -8.444800972938537598e-01
-3.489707410335540771e-01 1.240403670817613602e-02 -8.147494792938232422e-01
3.618099689483642578e-01 -1.318004727363586426e-02 7.854767441749572754e-01
2.212245911359786987e-01 -1.317460276186466217e-02 6.823253631591796875e-01
-1.670670062303543091e-01 1.234345417469739914e-02 5.390593409538269043e-01
2.368738949298858643e-01 1.746766269207000732e-02 6.513712406158447266e-01
1.405132263898849487e-01 1.234384998679161072e-02 2.144667357206344604e-01
1.724087446928024292e-01 -1.315652765333652496e-02 3.641839325428009033e-01
-3.866660892963409424e-01 -5.512544885277748108e-02 3.613894581794738770e-01
-2.388435602188110352e-01 1.235473807901144028e-02 2.882408797740936279e-01
2.099100649356842041e-01 -1.317883003503084183e-02 7.692780494689941406e-01
-1.460989862680435181e-01 1.751458458602428436e-02 -2.872810959815979004e-01
9.540950506925582886e-02 1.236780546605587006e-02 -8.479417562484741211e-01
-1.311802268028259277e-01 1.757100969552993774e-02 6.463415622711181641e-01
6.285342574119567871e-02 1.234355289489030838e-02 4.652951061725616455e-01
-7.836454547941684723e-03 1.753160916268825531e-02 -7.608290761709213257e-02
4.143052697181701660e-01 -8.062955923378467560e-03 4.564869701862335205e-01
-2.718428373336791992e-01 1.239789836108684540e-02 -1.951967924833297729e-01
-9.642746299505233765e-02 -1.314577739685773849e-02 4.448860138654708862e-02
2.427192330360412598e-01 1.752161234617233276e-02 -4.669219255447387695e-01
-3.379710018634796143e-01 -3.691478073596954346e-02 6.779351234436035156e-01
-8.093950782495085150e-06 1.749429106712341309e-02 3.854756653308868408e-01
1.083396561443805695e-02 1.750260591506958008e-02 5.473645925521850586e-01
3.895302116870880127e-02 1.591203734278678894e-02 2.799217998981475830e-01
8.118069916963577271e-02 1.748775877058506012e-02 2.470729798078536987e-01
-4.866229370236396790e-02 1.242036931216716766e-02 -4.343467205762863159e-02
2.087815701961517334e-01 1.748696528375148773e-02 1.186336800456047058e-01
-1.935458034276962280e-01 -1.316522806882858276e-02 4.646160602569580078e-01
-1.450516730546951294e-01 1.755210198462009430e-02 2.165148258209228516e-01
-2.012917697429656982e-01 -1.313361153006553650e-02 -4.077566564083099365e-01
1.023298799991607666e-01 1.751171238720417023e-02 -1.393150538206100464e-01
-8.338931202888488770e-02 1.752210780978202820e-02 -1.319970749318599701e-02
-1.679054647684097290e-01 1.751329749822616577e-02 8.677996397018432617e-01
-1.723342686891555786e-01 1.637293398380279541e-02 1.994074322283267975e-03
2.567797899246215820e-01 1.240829192101955414e-02 -3.844287097454071045e-01
-5.145390704274177551e-02 -1.315892301499843597e-02 3.595115840435028076e-01
-3.701902031898498535e-01 -5.900664255023002625e-02 -7.187966704368591309e-01
5.836740136146545410e-02 1.236582454293966293e-02 6.267960667610168457e-01
-2.525328695774078369e-01 1.240680739283561707e-02 5.686569586396217346e-02
-4.045287966728210449e-01 -3.433104977011680603e-02 -1.331430226564407349e-01
-1.159298494458198547e-01 1.238423772156238556e-02 -8.097445368766784668e-01
4.177245125174522400e-02 -1.316574402153491974e-02 4.999762177467346191e-01
3.553310632705688477e-01 1.755467429757118225e-02 -6.901905536651611328e-01
-1.656178086996078491e-01 1.245194673538208008e-02 3.842927217483520508e-01
3.951319158077239990e-01 -1.118322368711233139e-02 -1.650019139051437378e-01
2.287527769804000854e-01 1.235998515039682388e-02 -8.446978926658630371e-01
2.218878269195556641e-01 1.747607812285423279e-02 3.262747526168823242e-01
6.995307654142379761e-02 1.747637428343296051e-02 7.119945883750915527e-01
2.532567083835601807e-01 1.750339753925800323e-02 -1.401485353708267212e-01
5.404204502701759338e-02 1.749983616173267365e-02 1.280284393578767776e-02
-1.327808946371078491e-01 1.238156575709581375e-02 -6.971604228019714355e-01
-7.804682850837707520e-02 1.753962971270084381e-02 -2.913654148578643799e-01
3.132574260234832764e-01 -8.079032413661479950e-03 8.965492844581604004e-01
-3.952613770961761475e-01 -4.918417707085609436e-02 -3.387033343315124512e-01
3.948874175548553467e-01 1.572593674063682556e-02 -4.524684250354766846e-01
-3.445478975772857666e-01 -4.745037108659744263e-02 -3.025463521480560303e-01
-1.824470758438110352e-01 1.235246285796165466e-02 2.195557951927185059e-01
-1.249606907367706299e-01 1.755457744002342224e-02 2.874717116355895996e-01
1.015419214963912964e-01 1.749082654714584351e-02 2.223542332649230957e-01
-9.822442382574081421e-02 -8.079032413661479950e-03 8.964166045188903809e-01
-3.349458873271942139e-01 -2.308055572211742401e-02 -5.319354534149169922e-01
-1.509009748697280884e-01 1.752913556993007660e-02 -1.654166877269744873e-01
-1.913045533001422882e-02 1.234394963830709457e-02 1.436454355716705322e-01
2.623707056045532227e-01 -1.312313787639141083e-02 -7.524393200874328613e-01
-2.274646908044815063e-01 1.234325673431158066e-02 7.145267724990844727e-01
1.225049942731857300e-01 1.748508401215076447e-02 2.893208563327789307e-01
-1.919559203088283539e-02 1.749518141150474548e-02 6.111130714416503906e-01
3.195066452026367188e-01 -1.312176138162612915e-02 -8.090525865554809570e-01
1.347413868643343449e-03 1.238928548991680145e-02 7.611747384071350098e-01
3.244056701660156250e-01 1.234315708279609680e-02 8.448102474212646484e-01
-3.799169659614562988e-01 -5.787598341703414917e-02 -4.565101563930511475e-01
7.513598352670669556e-02 1.746865175664424896e-02 7.897858023643493652e-01
-3.758474588394165039e-01 1.168942917138338089e-02 3.251769542694091797e-01
3.276624083518981934e-01 -1.312449481338262558e-02 -6.987779140472412109e-01
-3.391658067703247070e-01 -3.978766873478889465e-02 3.393532931804656982e-01
4.040162563323974609e-01 -8.019044063985347748e-03 -7.547329068183898926e-01
3.169863820075988770e-01 -1.315131131559610367e-02 4.933811351656913757e-02
4.188767448067665100e-02 1.234325673431158066e-02 7.619211673736572266e-01
3.368704915046691895e-01 1.234424673020839691e-02 -1.474926024675369263e-01
-8.098712563514709473e-02 1.234315708279609680e-02 8.360110521316528320e-01
-1.839932948350906372e-01 1.238552480936050415e-02 -6.877831220626831055e-01
1.939509212970733643e-01 1.750785298645496368e-02 -2.559369802474975586e-01
2.456701248884201050e-01 1.234375033527612686e-02 2.588864564895629883e-01
2.568658888339996338e-01 1.237513031810522079e-02 2.922638356685638428e-01
3.276327550411224365e-01 1.236414350569248199e-02 3.268172144889831543e-01
1.552656739950180054e-01 -1.313343364745378494e-02 -3.440656065940856934e-01
3.948874175548553467e-01 1.237364672124385834e-02 6.776595860719680786e-02
-6.665231287479400635e-02 1.749617233872413635e-02 3.317271173000335693e-01
-3.175286054611206055e-01 -8.046652190387248993e-03 1.247609872370958328e-02
-1.866838335990905762e-01 1.757100969552993774e-02 6.677550077438354492e-01
2.107969969511032104e-01 -1.313435286283493042e-02 -2.985610067844390869e-01
-2.431367486715316772e-01 1.751874200999736786e-02 -3.976369500160217285e-01
2.751819491386413574e-01 1.234454382210969925e-02 -4.672980904579162598e-01
-3.336589932441711426e-01 -1.750010251998901367e-02 8.880302309989929199e-01
1.410665810108184814e-01 1.405211724340915680e-02 -5.563632119446992874e-03
2.887247800827026367e-01 -1.317161321640014648e-02 6.450834274291992188e-01
4.485390707850456238e-02 1.234612707048654556e-02 -1.349347382783889771e-01
-5.581391230225563049e-02 1.241344027221202850e-02 7.752309739589691162e-02
-4.441988468170166016e-02 1.234483998268842697e-02 1.089504882693290710e-01
3.153916597366333008e-01 1.755912974476814270e-02 -8.580574989318847656e-01
-2.397166490554809570e-01 -1.315691322088241577e-02 1.847539395093917847e-01
1.709090471267700195e-01 1.747756265103816986e-02 2.888962030410766602e-01
3.726602494716644287e-01 -1.313077099621295929e-02 -5.722609758377075195e-01
3.774859905242919922e-01 -1.312501914799213409e-02 -7.345221638679504395e-01
3.863050043582916260e-01 -1.313362084329128265e-02 -5.060516595840454102e-01
-1.449883282184600830e-01 -1.316912844777107239e-02 5.696630477905273438e-01
-2.197424769401550293e-01 -1.318419538438320160e-02 8.798140883445739746e-01
3.354440331459045410e-01 1.747409813106060028e-02 5.679591000080108643e-02
-6.006046663969755173e-03 1.748963817954063416e-02 -7.240737676620483398e-01
-2.111838161945343018e-01 -1.316852495074272156e-02 5.343821048736572266e-01
-2.125399857759475708e-01 1.750993169844150543e-02 8.571582436561584473e-01
-2.340444363653659821e-02 1.245689671486616135e-02 -6.910596489906311035e-01
-4.057374894618988037e-01 -1.783963851630687714e-02 -8.220727443695068359e-01
3.493936657905578613e-01 -1.313404738903045654e-02 -4.574010968208312988e-01
-3.279809355735778809e-01 -1.057544630020856857e-02 -7.844971418380737305e-01
-2.201146781444549561e-01 1.238067355006933212e-02 -4.712596833705902100e-01
8.369003626285120845e-05 1.755101233720779419e-02 -4.248215556144714355e-01
-2.224191725254058838e-01 -1.314463838934898376e-02 -1.306326538324356079e-01
-7.065991312265396118e-02 1.242927834391593933e-02 -2.313884645700454712e-01
-1.486034393310546875e-01 -1.318171061575412750e-02 8.285551071166992188e-01
-2.018401622772216797e-01 -1.315493416041135788e-02 1.739838570356369019e-01
-1.886180937290191650e-01 1.235810481011867523e-02 7.883540540933609009e-02
-1.811314970254898071e-01 -1.318447198718786240e-02 8.855059742927551270e-01
-1.466018706560134888e-01 1.237522996962070465e-02 -4.919901192188262939e-01
-1.966610252857208252e-01 1.236057933419942856e-02 2.723734639585018158e-02
3.840539753437042236e-01 1.235384773463010788e-02 8.571572899818420410e-01
4.155545234680175781e-01 -5.240175407379865646e-03 2.510147690773010254e-01
-1.489361189305782318e-02 1.243244577199220657e-02 -1.962421238422393799e-01
-2.035754621028900146e-01 1.750359684228897095e-02 7.866418361663818359e-01
-2.072915434837341309e-01 1.753477752208709717e-02 -2.529191225767135620e-02
-1.838289797306060791e-01 -1.314232219010591507e-02 -1.499584317207336426e-01
-2.212302982807159424e-01 1.235889550298452377e-02 1.320418566465377808e-01
3.704131841659545898e-01 1.234315708279609680e-02 8.264684677124023438e-01
-3.347063362598419189e-01 -2.130250073969364166e-02 8.289906978607177734e-01
1.021497249603271484e-01 -1.315966527909040451e-02 3.748174309730529785e-01
-2.979563176631927490e-01 1.751834526658058167e-02 -1.436191201210021973e-01
-1.108863204717636108e-01 1.235058158636093140e-02 1.058291420340538025e-01
-3.195489943027496338e-01 1.238681096583604813e-02 -4.087515175342559814e-01
-8.679822832345962524e-02 1.478157378733158112e-02 -6.069925427436828613e-01
-2.152067571878433228e-01 1.597727276384830475e-02 -2.057837396860122681e-01
-3.184145689010620117e-01 -8.022142574191093445e-03 -6.518775224685668945e-01
-2.063706982880830765e-03 -1.313866954296827316e-02 -1.152209192514419556e-01
-2.828247249126434326e-01 1.751131750643253326e-02 -6.117876172065734863e-01
-2.887928485870361328e-01 1.749151945114135742e-02 -3.860561251640319824e-01
3.443194627761840820e-01 -1.315938867628574371e-02 2.401714175939559937e-01
-1.373047232627868652e-01 1.757704839110374451e-02 7.104365229606628418e-01
-2.640206217765808105e-01 -1.317585073411464691e-02 6.742497682571411133e-01
-3.691468834877014160e-01 -5.892814323306083679e-02 8.800041079521179199e-01
-2.928989529609680176e-01 -1.314981561154127121e-02 -6.327579170465469360e-02
-3.354803919792175293e-01 -2.716576680541038513e-02 1.775098592042922974e-01
-1.529223620891571045e-01 1.237404067069292068e-02 -4.425635039806365967e-01
-2.872753143310546875e-01 -1.317070238292217255e-02 5.069995522499084473e-01
-8.758994936943054199e-02 -1.315468642860651016e-02 2.722787857055664062e-01
1.223990842700004578e-01 -1.312731578946113586e-02 -5.813344120979309082e-01
3.340492546558380127e-01 1.755051873624324799e-02 -5.408059954643249512e-01
2.780843675136566162e-01 -1.317969150841236115e-02 7.870566248893737793e-01
-3.830301761627197266e-01 -5.662484839558601379e-02 1.726722270250320435e-01
-2.553996145725250244e-01 1.751072332262992859e-02 -1.030996069312095642e-01
7.435297966003417969e-02 1.234691869467496872e-02 -2.253777980804443359e-01
2.685328125953674316e-01 1.234434451907873154e-02 -2.418922632932662964e-01
-1.130928024649620056e-01 1.527870073914527893e-02 -9.515666216611862183e-02
-1.321233343333005905e-03 1.239027548581361771e-02 4.843565821647644043e-01
2.484962940216064453e-01 3.937335219234228134e-03 -8.927396535873413086e-01
2.826775796711444855e-02 -1.313124597072601318e-02 -4.198868870735168457e-01
-3.406466841697692871e-01 1.234394963830709457e-02 8.193926215171813965e-01
2.462630718946456909e-01 1.234355289489030838e-02 4.388262331485748291e-01
1.472088992595672607e-01 -1.316371466964483261e-02 4.582708179950714111e-01
4.051288962364196777e-01 1.234345417469739914e-02 5.847639441490173340e-01
3.577890098094940186e-01 1.748172007501125336e-02 -1.351974345743656158e-02
-3.654585182666778564e-01 1.238799840211868286e-02 -3.346279561519622803e-01
-3.950425982475280762e-01 2.647755201905965805e-03 -2.765822708606719971e-01
1.156935170292854309e-01 1.237126998603343964e-02 7.223588824272155762e-01
-1.917293518781661987e-01 1.234335452318191528e-02 6.054171919822692871e-01
-2.844134159386157990e-02 1.604498177766799927e-02 2.682835459709167480e-01
-3.333303630352020264e-01 -1.668264530599117279e-02 2.627866566181182861e-01
-2.860122323036193848e-01 1.750498078763484955e-02 5.615633726119995117e-02
-9.723878651857376099e-02 1.237176544964313507e-02 -5.094885826110839844e-01
-3.979806303977966309e-01 -6.800559349358081818e-04 -7.018657773733139038e-02
1.247401833534240723e-01 1.751775108277797699e-02 -2.358459681272506714e-01
3.333315551280975342e-01 -1.313558127731084824e-02 -3.980596661567687988e-01
1.036753528751432896e-03 1.244303677231073380e-02 -4.856032729148864746e-01
-2.797847688198089600e-01 1.750330068171024323e-02 1.907735168933868408e-01
9.269222617149353027e-02 -1.313091814517974854e-02 -4.335405528545379639e-01
-3.431907296180725098e-01 1.236592419445514679e-02 2.206417173147201538e-01
2.361512780189514160e-01 -1.314219366759061813e-02 -1.117780432105064392e-01
2.110207229852676392e-01 1.751498132944107056e-02 -4.128328859806060791e-01
-1.201082095503807068e-01 -1.313772890716791153e-02 -2.024745196104049683e-01
-3.850277960300445557e-01 -5.580966919660568237e-02 5.086833238601684570e-01
-2.921773195266723633e-01 -1.315720006823539734e-02 1.379406601190567017e-01
1.410339176654815674e-01 1.753160916268825531e-02 -7.892823219299316406e-01
7.278032600879669189e-02 1.106193102896213531e-02 -8.927396535873413086e-01
-1.235896870493888855e-01 -1.312684081494808197e-02 -6.004523038864135742e-01
2.595683038234710693e-01 -1.315187476575374603e-02 1.270042508840560913e-01
-1.391162425279617310e-01 1.243482064455747604e-02 4.843849688768386841e-02
-2.335377037525177002e-01 1.234335452318191528e-02 6.388817429542541504e-01
2.088597714900970459e-01 1.234375033527612686e-02 2.528539896011352539e-01
1.590183824300765991e-01 -1.313768979161977768e-02 -1.592644602060317993e-01
2.927734553813934326e-01 1.510220207273960114e-02 4.406749829649925232e-02
3.761080503463745117e-01 1.234424673020839691e-02 -1.461255550384521484e-01
-9.139531850814819336e-02 -1.315805222839117050e-02 3.416726291179656982e-01
-3.992239236831665039e-01 -4.442276805639266968e-02 -3.436591476202011108e-02
-3.053409755229949951e-01 -8.042920380830764771e-03 -9.602084010839462280e-02
1.004649102687835693e-01 1.753844134509563446e-02 -7.342360615730285645e-01
4.155545234680175781e-01 -1.221827464178204536e-03 -2.885402441024780273e-01
-4.230417311191558838e-02 1.749290712177753448e-02 3.920080065727233887e-01
2.137419432401657104e-01 1.751250587403774261e-02 -2.987886369228363037e-01
-3.951861560344696045e-01 -4.926554858684539795e-02 3.075518310070037842e-01
-5.398872774094343185e-03 1.234315708279609680e-02 8.390441536903381348e-01
-1.032864674925804138e-01 1.234315708279609680e-02 8.108201622962951660e-01
-3.336767107248306274e-02 1.236008480191230774e-02 -3.367324769496917725e-01
-7.970625883899629116e-04 -1.313385926187038422e-02 -3.126699924468994141e-01
-2.723516225814819336e-01 1.750171557068824768e-02 -2.787689566612243652e-01
-2.709113359451293945e-01 1.750755496323108673e-02 8.047332763671875000e-01
7.329803705215454102e-02 1.752042584121227264e-02 -2.832957506179809570e-01
1.102025434374809265e-01 1.465278770774602890e-02 7.633759081363677979e-02
-3.264208734035491943e-01 1.239700801670551300e-02 -6.750609874725341797e-01
2.063216716051101685e-01 -1.318262144923210144e-02 8.474127054214477539e-01
1.819206774234771729e-01 1.234355289489030838e-02 4.649031162261962891e-01
1.792954653501510620e-01 1.750171557068824768e-02 -1.526568979024887085e-01
1.021378412842750549e-01 1.234315708279609680e-02 8.620602488517761230e-01
3.882095515727996826e-01 1.234493777155876160e-02 -8.035556674003601074e-01
8.265258371829986572e-02 1.234375033527612686e-02 3.065797388553619385e-01
-1.975618302822113037e-01 1.240393705666065216e-02 -4.404856562614440918e-01
-2.110402882099151611e-01 1.236582454293966293e-02 -8.339983969926834106e-02
-6.867042183876037598e-02 1.748657040297985077e-02 -7.287955880165100098e-01
-7.417534291744232178e-02 -1.312403008341789246e-02 -7.157982587814331055e-01
-2.396236062049865723e-01 -1.313558127731084824e-02 -3.978566825389862061e-01
3.134078681468963623e-01 1.234375033527612686e-02 2.738626003265380859e-01
3.789084851741790771e-01 1.234365254640579224e-02 3.995935320854187012e-01
2.701057791709899902e-01 1.234404742717742920e-02 1.085200253874063492e-02
-3.269177675247192383e-01 -9.914412163197994232e-03 -4.592789113521575928e-01
-2.903875708580017090e-01 1.750240847468376160e-02 7.054582834243774414e-01
4.050942659378051758e-01 1.234454382210969925e-02 -4.086080193519592285e-01
6.042165216058492661e-03 -1.313675940036773682e-02 -1.938515156507492065e-01
-2.696779072284698486e-01 1.239878870546817780e-02 6.226859688758850098e-01
1.478582769632339478e-01 1.235038321465253830e-02 -4.912991821765899658e-01
3.825255930423736572e-01 -1.316179335117340088e-02 2.644110321998596191e-01
-5.027988553047180176e-02 -1.313901599496603012e-02 -1.009970679879188538e-01
-1.191301941871643066e-01 1.240393705666065216e-02 -3.441765308380126953e-01
-3.048429451882839203e-02 -1.313401758670806885e-02 -3.064504861831665039e-01
3.519317507743835449e-01 1.320031099021434784e-02 4.336094558238983154e-01
-3.870343267917633057e-01 8.238937705755233765e-03 -1.556226313114166260e-01
2.586140334606170654e-01 -1.314014475792646408e-02 -1.922478824853897095e-01
-4.058334827423095703e-01 -1.863274537026882172e-02 8.664108514785766602e-01
-1.276106536388397217e-01 1.234355289489030838e-02 4.246231317520141602e-01
-8.768448233604431152e-02 -1.312946341931819916e-02 -4.931542277336120605e-01
-2.119618803262710571e-01 -1.317572128027677536e-02 7.053286433219909668e-01
9.466113895177841187e-02 1.750508137047290802e-02 -2.203633263707160950e-02
-1.086323186755180359e-01 -1.316716894507408142e-02 5.293682217597961426e-01
-1.255269199609756470e-01 1.238374318927526474e-02 -7.735093235969543457e-01
1.238027513027191162e-01 1.747597754001617432e-02 3.648738563060760498e-01
-3.348716199398040771e-01 -2.255957201123237610e-02 7.496463656425476074e-01
-2.137466669082641602e-01 -1.315844804048538208e-02 2.564097046852111816e-01
3.936342000961303711e-01 1.234464067965745926e-02 -4.912843108177185059e-01
-2.213688790798187256e-01 -1.316731702536344528e-02 4.898504912853240967e-01
-2.085952311754226685e-01 -1.312715653330087662e-02 -5.923668146133422852e-01
2.672657668590545654e-01 1.234335452318191528e-02 5.983275771141052246e-01
-1.083868220448493958e-01 -1.315039023756980896e-02 1.566754728555679321e-01
2.311265468597412109e-01 1.234315708279609680e-02 8.349488973617553711e-01
1.075872331857681274e-01 1.234345417469739914e-02 5.167856216430664062e-01
3.693263977766036987e-02 1.234375033527612686e-02 3.095979690551757812e-01
3.843025490641593933e-02 -1.312169339507818222e-02 -8.116104602813720703e-01
-6.395196914672851562e-02 1.236285641789436340e-02 -3.411019146442413330e-01
-3.374730646610260010e-01 -3.571225702762603760e-02 6.041164994239807129e-01
-3.348954021930694580e-01 -2.273874357342720032e-02 5.430585145950317383e-01
6.370285898447036743e-02 -1.314428262412548065e-02 1.352214068174362183e-01
5.753054842352867126e-02 1.751577109098434448e-02 -2.486186623573303223e-01
9.069798141717910767e-02 -1.312289014458656311e-02 -7.625412344932556152e-01
1.583749502897262573e-01 -1.312033645808696747e-02 -8.673071265220642090e-01
-6.491850316524505615e-02 -1.316117029637098312e-02 4.058853387832641602e-01
-2.509163618087768555e-01 1.236146967858076096e-02 1.285188049077987671e-01
4.155545234680175781e-01 -2.770028309896588326e-03 3.743511438369750977e-01
3.614141419529914856e-02 1.234305743128061295e-02 8.901357054710388184e-01
-2.587593495845794678e-01 -1.315686479210853577e-02 1.617219746112823486e-01
2.550583183765411377e-01 1.235345285385847092e-02 4.838804602622985840e-01
-3.110238723456859589e-02 1.688421703875064850e-02 -4.767496287822723389e-01
3.507706224918365479e-01 -1.314149051904678345e-02 -2.556676864624023438e-01
-8.564836531877517700e-02 1.755596138536930084e-02 -6.496017575263977051e-01
1.877373158931732178e-01 1.234325673431158066e-02 7.093961238861083984e-01
3.913406133651733398e-01 1.747073233127593994e-02 4.708553254604339600e-01
1.165052354335784912e-01 1.234394963830709457e-02 1.098176389932632446e-01
3.050333559513092041e-01 1.746459491550922394e-02 4.974163472652435303e-01
-1.278462558984756470e-01 -8.013282902538776398e-03 -8.919615745544433594e-01
-2.674288451671600342e-01 1.750498078763484955e-02 4.811889231204986572e-01
4.155545234680175781e-01 6.945339031517505646e-03 6.168772578239440918e-01
2.390468306839466095e-02 1.234394963830709457e-02 1.120825260877609253e-01
2.487259507179260254e-01 -1.314129307866096497e-02 -1.500425636768341064e-01
-1.583400815725326538e-01 1.750626787543296814e-02 7.911339998245239258e-01
-1.805533915758132935e-01 -1.314334198832511902e-02 -1.183193027973175049e-01
2.833476364612579346e-01 1.234444417059421539e-02 -3.417482674121856689e-01
2.644207775592803955e-01 1.235325355082750320e-02 7.548701167106628418e-01
1.934213042259216309e-01 1.746113039553165436e-02 5.630020499229431152e-01
1.243204697966575623e-01 -1.314256060868501663e-02 7.008332014083862305e-02
-6.255611032247543335e-02 1.749963685870170593e-02 7.945313453674316406e-01
1.548944711685180664e-01 1.234424673020839691e-02 -1.741644144058227539e-01
-1.803346276283264160e-01 1.751399040222167969e-02 -2.778186798095703125e-01
-6.243128329515457153e-02 -1.316367462277412415e-02 4.573353230953216553e-01
-6.533139199018478394e-02 1.238681096583604813e-02 -7.912740111351013184e-01
3.886094689369201660e-01 -1.315716188400983810e-02 1.370655745267868042e-01
-2.741274833679199219e-01 1.465773768723011017e-02 -3.582132160663604736e-01
2.142477929592132568e-01 1.234424673020839691e-02 -1.605651974678039551e-01
-3.623709976673126221e-01 -5.800724029541015625e-02 8.934367448091506958e-02
-1.140668615698814392e-01 1.234325673431158066e-02 6.929430365562438965e-01
1.839361041784286499e-01 -1.312977075576782227e-02 -4.805399477481842041e-01
-2.707034349441528320e-01 1.239572092890739441e-02 -7.663978934288024902e-01
-5.362574011087417603e-02 1.239294931292533875e-02 4.360396564006805420e-01
-4.058384299278259277e-01 -2.808459103107452393e-02 -2.261994183063507080e-01
-2.330417633056640625e-01 1.237453706562519073e-02 -2.708685696125030518e-01
-3.187669515609741211e-01 -8.049532771110534668e-03 9.072447568178176880e-02
-3.122879564762115479e-02 1.753903552889823914e-02 -2.650330960750579834e-01
3.381642699241638184e-01 1.234493777155876160e-02 -7.707197666168212891e-01
-3.136442303657531738e-01 1.235760841518640518e-02 3.826474845409393311e-01
2.702097296714782715e-01 1.234464067965745926e-02 -5.515611767768859863e-01
1.673978716135025024e-01 1.234414707869291306e-02 -5.108133703470230103e-02
2.787564992904663086e-01 -1.313701644539833069e-02 -2.995063364505767822e-01
1.122783571481704712e-01 -1.316492259502410889e-02 4.831340610980987549e-01
-2.591691315174102783e-01 -1.318025588989257812e-02 7.986176609992980957e-01
-7.721006870269775391e-02 1.236691419035196304e-02 -4.235871732234954834e-01
-1.893881149590015411e-02 1.756002008914947510e-02 -6.612479090690612793e-01
3.594985306262969971e-01 -1.312345452606678009e-02 -7.576956748962402344e-01
1.374535635113716125e-02 1.234394963830709457e-02 5.741202086210250854e-02
3.887599408626556396e-01 1.236186642199754715e-02 7.411649227142333984e-01
-1.724243462085723877e-01 1.750676520168781281e-02 -3.685042262077331543e-01
-1.060517411679029465e-02 1.239334419369697571e-02 3.255996406078338623e-01
-3.840181231498718262e-01 -5.618067830801010132e-02 -7.827718257904052734e-01
-7.774075865745544434e-02 1.238602027297019958e-02 4.961670637130737305e-01
-8.795720338821411133e-02 1.327524613589048386e-02 3.551203906536102295e-01
-3.850515782833099365e-01 9.070947766304016113e-03 -4.507162868976593018e-01
-1.444517970085144043e-01 1.235741190612316132e-02 -5.643813405185937881e-03
6.183898076415061951e-02 -1.312403846532106400e-02 -7.154567241668701172e-01
-1.206764020025730133e-02 -8.013589307665824890e-03 -8.856341242790222168e-01
3.163498640060424805e-01 -1.314060948789119720e-02 -2.421664893627166748e-01
4.666512086987495422e-02 1.235701516270637512e-02 8.381383419036865234e-01
1.997972577810287476e-01 1.236057933419942856e-02 -8.922278285026550293e-01
-2.697135508060455322e-01 1.239928510040044785e-02 3.756192028522491455e-01
-1.482025235891342163e-01 1.238473318517208099e-02 -7.479619979858398438e-01
-2.685633003711700439e-01 1.750438846647739410e-02 2.307178974151611328e-01
1.803606003522872925e-01 -1.314725261181592941e-02 8.701008558273315430e-02
2.673251628875732422e-01 -1.314905378967523575e-02 4.156562685966491699e-02
-8.835978806018829346e-02 -1.314252056181430817e-02 -3.527691587805747986e-02
3.948874175548553467e-01 1.727423816919326782e-02 -2.718891501426696777e-01
2.241289466619491577e-01 -1.313324552029371262e-02 -3.431608676910400391e-01
-1.109293662011623383e-02 -1.317814737558364868e-02 7.553561329841613770e-01
-3.110744655132293701e-01 -8.048007264733314514e-03 4.766914620995521545e-02
4.059782326221466064e-01 -8.066064678132534027e-03 5.280101299285888672e-01
1.424098610877990723e-01 -1.313156168907880783e-02 -4.069083333015441895e-01
-2.111996561288833618e-01 1.376742310822010040e-02 9.859891980886459351e-02
-7.670166343450546265e-02 -1.314352080225944519e-02 5.325052887201309204e-03
8.428304642438888550e-02 -1.312698889523744583e-02 -5.945861339569091797e-01
2.412809282541275024e-01 1.241007540374994278e-02 -4.103710055351257324e-01
8.902623504400253296e-02 1.235701516270637512e-02 -5.362218022346496582e-01
-2.068262845277786255e-01 1.754804141819477081e-02 2.050013244152069092e-01
1.408230662345886230e-01 -1.314614340662956238e-02 1.466923505067825317e-01
-3.167613223195075989e-02 1.370773278176784515e-02 1.993793249130249023e-02
2.485962659120559692e-01 -1.315015275031328201e-02 9.202738106250762939e-02
-6.163005903363227844e-02 -1.313104759901762009e-02 -4.281891882419586182e-01
-1.433898136019706726e-02 -1.312149409204721451e-02 -8.199533820152282715e-01
2.052931636571884155e-01 1.752012781798839569e-02 -4.671169519424438477e-01
-2.702629566192626953e-01 1.237275544553995132e-02 -1.365146338939666748e-01
-2.785671949386596680e-01 1.234305743128061295e-02 8.879975080490112305e-01
-2.594977915287017822e-01 1.240165997296571732e-02 -4.531979560852050781e-01
5.769605562090873718e-02 1.242581382393836975e-02 -6.310995817184448242e-01
3.522465825080871582e-01 -1.318061165511608124e-02 8.141372799873352051e-01
-1.542666405439376831e-01 1.234681904315948486e-02 3.094524145126342773e-01
2.439209967851638794e-01 1.234681904315948486e-02 -6.153047084808349609e-01
-2.357926964759826660e-01 -1.313349232077598572e-02 -4.503074586391448975e-01
-1.492290496826171875e-01 1.236701384186744690e-02 -2.589304149150848389e-01
6.976480036973953247e-02 1.752715557813644409e-02 -5.749485492706298828e-01
1.668870896100997925e-01 -1.314118504524230957e-02 -6.408791244029998779e-02
-2.990620732307434082e-01 -8.013322949409484863e-03 -8.911399245262145996e-01
-1.898376643657684326e-01 -1.312061399221420288e-02 -8.562371134757995605e-01
3.866187930107116699e-01 1.429820619523525238e-02 -6.343553662300109863e-01
1.686075329780578613e-01 1.234355289489030838e-02 5.045890808105468750e-01
2.679548226296901703e-02 1.236107293516397476e-02 -5.033482313156127930e-01
3.659269511699676514e-01 1.234315708279609680e-02 7.976168394088745117e-01
-1.940228231251239777e-02 -1.313763018697500229e-02 -1.581013351678848267e-01
-3.685024380683898926e-01 1.240660902112722397e-02 -8.395622968673706055e-01
-1.042813137173652649e-01 -1.317778136581182480e-02 7.477635741233825684e-01
-1.931260973215103149e-01 -1.316627766937017441e-02 4.938952326774597168e-01
3.553993701934814453e-01 1.236236002296209335e-02 3.558252155780792236e-01
2.233063429594039917e-01 1.241799443960189819e-02 -5.956799983978271484e-01
3.298629820346832275e-01 -1.315311249345541000e-02 8.439377695322036743e-02
-8.065323531627655029e-02 1.752784848213195801e-02 -7.594373077154159546e-02
-3.102419376373291016e-01 1.239661127328872681e-02 -7.014061212539672852e-01
1.901002079248428345e-01 1.234365254640579224e-02 3.818892538547515869e-01
2.460849136114120483e-01 -1.313634403049945831e-02 -2.825582921504974365e-01
-3.459990918636322021e-01 -4.906925186514854431e-02 3.041920959949493408e-01
2.696543931961059570e-01 1.235374994575977325e-02 -8.639672398567199707e-01
2.821964025497436523e-01 1.234414707869291306e-02 -7.978235185146331787e-02
1.896884143352508545e-01 1.234325673431158066e-02 7.680673599243164062e-01
1.260587275028228760e-01 1.234355289489030838e-02 4.468008279800415039e-01
3.756787395104765892e-03 1.752072200179100037e-02 8.785525709390640259e-02
-1.747258752584457397e-01 -1.313533447682857513e-02 -3.302713930606842041e-01
3.996202349662780762e-02 -8.036130107939243317e-03 4.887147620320320129e-02
-3.133848905563354492e-01 -8.038960397243499756e-03 -1.971904337406158447e-01
-2.086684852838516235e-01 1.644420810043811798e-02 2.958383876830339432e-03
2.314383536577224731e-01 -1.317798811942338943e-02 7.520419359207153320e-01
3.267200291156768799e-01 1.746360398828983307e-02 3.927771449089050293e-01
3.653627038002014160e-01 1.234345417469739914e-02 5.312213301658630371e-01
1.440491527318954468e-01 -1.318011712282896042e-02 7.957707047462463379e-01
1.610131375491619110e-02 1.235444098711013794e-02 -2.950161397457122803e-01
3.283939659595489502e-01 1.238275319337844849e-02 -1.056654304265975952e-01
1.742994487285614014e-01 -1.315055880695581436e-02 2.127739936113357544e-01
-3.230720162391662598e-01 -8.517834357917308807e-03 6.312476396560668945e-01
-2.992412149906158447e-01 -1.204427797347307205e-02 8.510397076606750488e-01
3.126892149448394775e-01 -1.315638888627290726e-02 1.927196532487869263e-01
3.605023324489593506e-01 1.240482740104198456e-02 -3.249506652355194092e-01
3.073180615901947021e-01 1.234335452318191528e-02 6.290302276611328125e-01
-2.961992621421813965e-01 1.237869448959827423e-02 -2.408103048801422119e-01
1.249559819698333740e-01 1.746548525989055634e-02 8.449468612670898438e-01
3.166527748107910156e-01 -1.314382720738649368e-02 -1.548584252595901489e-01
-3.583688437938690186e-01 1.235602516680955887e-02 5.297978520393371582e-01
3.626315891742706299e-01 1.234434451907873154e-02 -2.915584743022918701e-01
3.121220171451568604e-01 -1.317081134766340256e-02 5.872624516487121582e-01
1.876967400312423706e-01 1.234434451907873154e-02 -2.271358668804168701e-01
3.611714839935302734e-01 1.234454382210969925e-02 -4.557231962680816650e-01
-2.276755273342132568e-01 1.235216576606035233e-02 3.331634700298309326e-01
1.110152527689933777e-01 -1.314111426472663879e-02 9.408247657120227814e-03
3.339096605777740479e-01 1.746697165071964264e-02 4.837953150272369385e-01
-2.646185159683227539e-01 -1.317053474485874176e-02 5.282149910926818848e-01
-1.358179152011871338e-01 1.751755364239215851e-02 -6.446354389190673828e-01
-4.040089622139930725e-02 -1.315008290112018585e-02 1.776029169559478760e-01
-1.666344404220581055e-01 1.238879188895225525e-02 -8.188199400901794434e-01
3.909298181533813477e-01 1.244699768722057343e-02 -5.542151331901550293e-01
-2.276616692543029785e-01 -1.312385126948356628e-02 -7.234620451927185059e-01
7.006256282329559326e-02 1.752389036118984222e-02 -4.636998176574707031e-01
2.376291900873184204e-01 1.745786145329475403e-02 -7.539568543434143066e-01
-3.965977132320404053e-01 -4.785029217600822449e-02 1.012994647026062012e-01
-1.317118108272552490e-01 -1.316293235868215561e-02 4.420097172260284424e-01
-2.751441299915313721e-01 1.239958219230175018e-02 -3.298724889755249023e-01
-1.674283295869827271e-01 -1.317873038351535797e-02 7.673259377479553223e-01
-3.411485850811004639e-01 -4.300711303949356079e-02 -6.446948051452636719e-01
-3.080985974520444870e-03 1.239215675741434097e-02 5.888432860374450684e-01
-9.017378091812133789e-02 -1.316939666867256165e-02 5.752173662185668945e-01
-3.088966906070709229e-01 1.239849161356687546e-02 -7.553545832633972168e-01
-1.699713915586471558e-01 -1.316188368946313858e-02 4.003062844276428223e-01
-3.411683738231658936e-01 -4.305284842848777771e-02 -1.079204156994819641e-01
2.003496140241622925e-01 1.234355289489030838e-02 -6.783533692359924316e-01
6.757850944995880127e-02 1.234365254640579224e-02 3.643690347671508789e-01
-1.088570207357406616e-01 -1.314759813249111176e-02 7.981847226619720459e-02
1.098006442189216614e-01 -1.313161198049783707e-02 -4.047265946865081787e-01
-3.857434988021850586e-01 -5.549220740795135498e-02 -6.728013604879379272e-02
-2.135120630264282227e-01 1.236849837005138397e-02 -1.510354280471801758e-01
-1.622382737696170807e-02 1.418674271553754807e-02 5.417627692222595215e-01
1.983975470066070557e-01 1.241116318851709366e-02 -5.448021888732910156e-01
-3.290757834911346436e-01 1.234563160687685013e-02 7.463707923889160156e-01
-4.034963250160217285e-01 -3.680559992790222168e-02 -6.322379112243652344e-01
3.704656362533569336e-01 -1.314972713589668274e-02 -5.216488242149353027e-02
-2.873446345329284668e-01 1.451063901185989380e-02 -1.037143394351005554e-01
2.393289655447006226e-02 -1.315232086926698685e-02 2.236272543668746948e-01
1.857001036405563354e-01 1.747449301183223724e-02 3.245473802089691162e-01
1.226584315299987793e-01 1.240304671227931976e-02 -7.359430193901062012e-02
-4.499521479010581970e-02 -1.317517738789319992e-02 6.940962672233581543e-01
2.554938793182373047e-01 -1.313096843659877777e-02 -4.395284652709960938e-01
-2.030399143695831299e-01 1.236028224229812622e-02 5.219664424657821655e-02
-2.688107490539550781e-01 1.750607043504714966e-02 -5.878756046295166016e-01
3.373654186725616455e-01 1.746538653969764709e-02 1.515685766935348511e-01
3.613249063491821289e-01 1.746885105967521667e-02 4.756583869457244873e-01
5.246008560061454773e-02 -1.316343713551759720e-02 4.525264501571655273e-01
1.268012635409832001e-02 1.237641740590333939e-02 -8.923812508583068848e-01
-1.698681153357028961e-02 -1.316216029226779938e-02 4.261357188224792480e-01
1.220397502183914185e-01 -1.312283147126436234e-02 -7.652584910392761230e-01
3.723998963832855225e-01 -1.317639462649822235e-02 6.740705966949462891e-01
-1.559349987655878067e-02 -1.312703918665647507e-02 -5.926033854484558105e-01
-2.403412908315658569e-01 1.386472955346107483e-02 -3.327659666538238525e-01
1.083633080124855042e-01 1.234315708279609680e-02 7.977326512336730957e-01
1.804576069116592407e-01 -1.316455565392971039e-02 4.754257500171661377e-01
2.415699809789657593e-01 -1.312737446278333664e-02 -5.786795020103454590e-01
-2.875444665551185608e-02 1.750161685049533844e-02 6.688914895057678223e-01
8.635905385017395020e-02 1.687510870397090912e-02 6.720620989799499512e-01
-4.015125632286071777e-01 -4.145604372024536133e-02 4.176829457283020020e-01
-1.275809556245803833e-01 -1.317052450031042099e-02 5.984284877777099609e-01
-2.643225491046905518e-01 -1.317267306149005890e-02 5.871030688285827637e-01
-3.475819230079650879e-01 1.238898932933807373e-02 -4.026418626308441162e-01
4.155545234680175781e-01 5.263403523713350296e-03 8.451517820358276367e-01
-2.728070020675659180e-01 -8.013728074729442596e-03 -8.828000426292419434e-01
-6.129081919789314270e-02 -1.314873713999986649e-02 1.499629765748977661e-01
2.544732987880706787e-01 -1.317701861262321472e-02 7.320430278778076172e-01
-3.373572528362274170e-01 -3.540815785527229309e-02 -5.636195093393325806e-02
2.595524787902832031e-01 1.241710223257541656e-02 -5.769501328468322754e-01
-1.705781817436218262e-01 1.242323964834213257e-02 -1.202773153781890869e-01
-2.590632438659667969e-01 -1.316891144961118698e-02 4.903860688209533691e-01
4.751405864953994751e-02 1.235275994986295700e-02 -3.217176795005798340e-01
2.651216387748718262e-01 -1.315962616354227066e-02 3.328625559806823730e-01
3.432582616806030273e-01 1.238116901367902756e-02 -7.856220006942749023e-02
-8.450403809547424316e-02 1.238493062555789948e-02 3.838779330253601074e-01
-9.061072021722793579e-02 1.234305743128061295e-02 8.736093640327453613e-01
3.890410959720611572e-01 -1.315229013562202454e-02 3.999499138444662094e-03
1.235157903283834457e-02 1.751606911420822144e-02 1.836363375186920166e-01
7.316213101148605347e-02 1.241660770028829575e-02 -3.577380776405334473e-01
1.150847226381301880e-01 1.235256064683198929e-02 -4.753232002258300781e-01
6.373156607151031494e-02 1.234404742717742920e-02 -2.300623431801795959e-02
-3.766897693276405334e-02 -1.313712541013956070e-02 -1.785595566034317017e-01
2.691356837749481201e-01 -1.314584631472826004e-02 -4.801690950989723206e-02
-2.022559195756912231e-01 -1.317295897752046585e-02 6.484777927398681641e-01
1.989370286464691162e-01 1.234414707869291306e-02 -9.388364851474761963e-02
-2.361005544662475586e-01 1.235790550708770752e-02 1.938352733850479126e-01
1.230207383632659912e-01 1.240898482501506805e-02 -2.045265734195709229e-01
1.033514589071273804e-01 -1.313529349863529205e-02 -2.518882751464843750e-01
-5.407090112566947937e-02 1.243373285979032516e-02 -2.817584574222564697e-01
3.058757483959197998e-01 1.234424673020839691e-02 -1.735427677631378174e-01
2.092715799808502197e-01 1.234404742717742920e-02 -1.509892754256725311e-02
1.819285899400711060e-01 1.745360717177391052e-02 -7.297360301017761230e-01
-2.913418412208557129e-01 1.239255350083112717e-02 7.418291568756103516e-01
-1.198775619268417358e-01 1.240156032145023346e-02 7.843343615531921387e-01
-2.427665293216705322e-01 1.235117577016353607e-02 3.951875269412994385e-01
6.946653872728347778e-02 -8.036130107939243317e-03 6.855560094118118286e-02
-3.862394392490386963e-01 8.556696586310863495e-03 1.629870682954788208e-01
2.386260181665420532e-01 1.235394738614559174e-02 7.362510561943054199e-01
2.972606718540191650e-01 1.746885105967521667e-02 9.743133187294006348e-02
1.232503876090049744e-01 1.753141358494758606e-02 -5.122276544570922852e-01
-2.970416545867919922e-01 1.241215318441390991e-02 6.229096651077270508e-01
1.475345790386199951e-01 1.236335001885890961e-02 -8.465816378593444824e-01
-2.780475020408630371e-01 1.236374676227569580e-02 1.300976872444152832e-01
-1.450843513011932373e-01 1.751280203461647034e-02 8.530590534210205078e-01
-3.419038653373718262e-01 1.236097607761621475e-02 3.531564176082611084e-01
2.337190955877304077e-01 1.235038321465253830e-02 7.727218866348266602e-01
2.737378142774105072e-02 1.235176902264356613e-02 -2.488037496805191040e-01
4.246716201305389404e-02 -1.312330737709999084e-02 -7.457941770553588867e-01
2.163691371679306030e-01 1.234186999499797821e-02 8.577244281768798828e-01
3.084603548049926758e-01 1.750914007425308228e-02 -4.236000180244445801e-01
3.778285086154937744e-01 1.750894263386726379e-02 -3.863263428211212158e-01
3.397867083549499512e-01 1.755685172975063324e-02 -8.216411471366882324e-01
2.463403046131134033e-01 -1.316096168011426926e-02 3.897708058357238770e-01
