-6.594938635826110840e-01 7.175867557525634766e-01 -1.336962282657623291e-01
-2.542575001716613770e-01 7.096612453460693359e-01 -5.875566005706787109e-01
-2.070396542549133301e-01 -7.275224924087524414e-01 1.464419811964035034e-01
7.513181120157241821e-02 -7.275224924087524414e-01 1.191991493105888367e-01
-3.782002329826354980e-01 -2.266392707824707031e-01 -3.208183050155639648e-01
2.988247573375701904e-01 -6.557581424713134766e-01 -1.056097149848937988e-01
2.998822927474975586e-01 5.047231912612915039e-01 -4.595868885517120361e-01
-1.625226289033889771e-01 -3.545362055301666260e-01 4.130221307277679443e-01
-5.668721795082092285e-01 3.979962468147277832e-01 -2.289271056652069092e-01
-3.862667977809906006e-01 4.308942332863807678e-02 -3.774441480636596680e-01
1.378331929445266724e-01 3.798074126243591309e-01 5.149350166320800781e-01
8.102764189243316650e-02 3.124466538429260254e-02 4.731628298759460449e-01
4.161376059055328369e-01 -4.210704565048217773e-01 5.306081846356391907e-02
4.737616777420043945e-01 2.517415285110473633e-01 -3.599200770258903503e-02
3.408781588077545166e-01 -3.328440710902214050e-02 2.649579048156738281e-01
2.304288297891616821e-01 -4.825822710990905762e-01 -2.907057404518127441e-01
4.427056610584259033e-01 -3.275485336780548096e-01 -4.361228086054325104e-03
-2.229769080877304077e-01 7.291879653930664062e-01 5.925970077514648438e-01
-4.579727351665496826e-01 6.870788335800170898e-01 4.540350735187530518e-01
-2.259859144687652588e-01 1.247783005237579346e-01 -4.889186918735504150e-01
-4.538639783859252930e-01 2.767193019390106201e-01 3.566092252731323242e-01
-3.997673690319061279e-01 5.827499628067016602e-01 -4.870435595512390137e-01
3.421360552310943604e-01 7.135543227195739746e-01 -4.733003675937652588e-01
2.810447514057159424e-01 -5.505936741828918457e-01 1.891323924064636230e-01
-3.581713140010833740e-01 1.594623550772666931e-02 3.823435008525848389e-01
-4.077961742877960205e-01 -5.226113796234130859e-01 1.693047285079956055e-01
-2.361702024936676025e-01 -6.012958288192749023e-01 3.362496495246887207e-01
-3.937493264675140381e-01 -7.275224924087524414e-01 1.897319220006465912e-03
4.443058967590332031e-01 7.248339056968688965e-01 -3.641286790370941162e-01
7.345704734325408936e-02 -2.885309979319572449e-02 -4.767639935016632080e-01
3.040530383586883545e-01 -3.565182685852050781e-01 2.181479334831237793e-01
-2.889343798160552979e-01 -3.043057322502136230e-01 3.647189140319824219e-01
-1.541227251291275024e-01 -1.347300708293914795e-01 4.525606930255889893e-01
-2.142850011587142944e-01 -1.239761486649513245e-01 -4.470306038856506348e-01
7.303767800331115723e-01 -1.138529703021049500e-01 1.630620807409286499e-01
-4.982507228851318359e-01 2.229003161191940308e-01 -2.952736020088195801e-01
3.312095999717712402e-01 -5.336015820503234863e-01 1.640478335320949554e-02
3.395385146141052246e-01 1.151444315910339355e-01 3.102368116378784180e-01
4.803367555141448975e-01 5.775117874145507812e-01 2.371813803911209106e-01
-1.234995499253273010e-01 7.270681206136941910e-03 4.814729094505310059e-01
-4.352133274078369141e-01 -5.933469533920288086e-01 -1.791628263890743256e-02
5.295159816741943359e-01 5.415276885032653809e-01 3.068695077672600746e-03
-2.543051242828369141e-01 -7.275224924087524414e-01 -2.173834145069122314e-01
-7.506100833415985107e-02 1.598328799009323120e-01 5.144201517105102539e-01
9.573757648468017578e-02 -4.551768004894256592e-01 3.751619458198547363e-01
3.543392121791839600e-01 -2.111808955669403076e-01 -1.811809241771697998e-01
1.872703135013580322e-01 -3.072698116302490234e-01 -3.666057884693145752e-01
3.719885647296905518e-02 -6.866011619567871094e-01 -3.682428300380706787e-01
2.601915039122104645e-02 -2.898626327514648438e-01 -4.390655457973480225e-01
-5.167344212532043457e-02 7.495395839214324951e-02 -5.129916667938232422e-01
-4.475764334201812744e-01 -2.476556301116943359e-01 2.025646865367889404e-01
-5.688452720642089844e-01 2.465564012527465820e-01 -1.528104990720748901e-01
-5.028743147850036621e-01 -1.884026080369949341e-01 -6.600090861320495605e-02
-3.247963488101959229e-01 -7.275224924087524414e-01 1.920542567968368530e-01
4.177144169807434082e-01 4.014589786529541016e-01 -3.039394617080688477e-01
-1.502754390239715576e-01 -7.275224924087524414e-01 2.855627536773681641e-01
1.322338581085205078e-01 -2.629765272140502930e-01 3.959824442863464355e-01
-6.464847922325134277e-01 6.169299483299255371e-01 8.120689541101455688e-02
7.077547907829284668e-01 -2.753593623638153076e-01 4.489506781101226807e-02
3.777113556861877441e-01 1.390154510736465454e-01 -2.790991365909576416e-01
5.014294981956481934e-01 6.372742652893066406e-01 -2.256916612386703491e-01
-3.220703601837158203e-01 -2.290570586919784546e-01 -3.663883507251739502e-01
-3.879514634609222412e-01 4.673724472522735596e-01 -4.704639017581939697e-01
5.702701807022094727e-01 -2.673413455486297607e-01 8.845045417547225952e-02
5.266552567481994629e-01 2.491970509290695190e-01 -5.428828764706850052e-03
3.353111743927001953e-01 -4.275628924369812012e-01 -1.250384598970413208e-01
-2.271341830492019653e-01 -4.256715774536132812e-01 -3.846499621868133545e-01
-9.181659668684005737e-02 -5.777232646942138672e-01 3.836750686168670654e-01
6.817671656608581543e-01 1.765663772821426392e-01 2.292613498866558075e-02
-5.461047291755676270e-01 1.638371497392654419e-01 1.571321040391921997e-01
-1.487749665975570679e-01 -6.545011997222900391e-01 -3.740928173065185547e-01
3.443004786968231201e-01 4.318402111530303955e-01 -4.089880287647247314e-01
-4.732981622219085693e-01 -1.519529242068529129e-02 -2.573765814304351807e-01
-2.011564075946807861e-01 2.628242969512939453e-01 5.140464305877685547e-01
-6.054206490516662598e-01 3.623768687248229980e-01 -5.145405232906341553e-02
-1.184999570250511169e-01 -7.275224924087524414e-01 -2.834181487560272217e-01
3.808794021606445312e-01 6.534603834152221680e-01 4.142467677593231201e-01
4.326597452163696289e-01 4.692044258117675781e-01 2.927236258983612061e-01
3.661021292209625244e-01 -2.799308598041534424e-01 7.438608258962631226e-02
7.207396626472473145e-01 2.188860438764095306e-02 1.630647778511047363e-01
-3.274783194065093994e-01 5.995731353759765625e-01 -5.364573001861572266e-01
3.762405812740325928e-01 -1.175843626260757446e-01 1.585993319749832153e-01
-1.104713976383209229e-01 -4.627680778503417969e-01 4.012116193771362305e-01
5.600544214248657227e-01 1.435613185167312622e-01 8.441896736621856689e-02
1.194772273302078247e-01 5.996045470237731934e-01 5.640073418617248535e-01
2.848965227603912354e-01 6.143630146980285645e-01 -4.953077435493469238e-01
-1.328189522027969360e-01 4.765360057353973389e-01 5.619731545448303223e-01
3.948930203914642334e-01 1.234642863273620605e-01 2.304724156856536865e-01
-4.310821294784545898e-01 1.147381514310836792e-01 -3.514205515384674072e-01
-3.965535163879394531e-01 -8.653106540441513062e-02 -3.377439081668853760e-01
4.979262948036193848e-01 4.549976587295532227e-01 -1.345282196998596191e-01
5.805978924036026001e-02 -7.275224924087524414e-01 3.191838860511779785e-01
-3.451379239559173584e-01 3.945038616657257080e-01 4.759777784347534180e-01
-8.524439483880996704e-02 -7.275224924087524414e-01 1.008908152580261230e-01
3.587988391518592834e-02 -5.386465191841125488e-01 3.826184272766113281e-01
3.414280414581298828e-01 -6.332061439752578735e-02 -2.670415341854095459e-01
-7.952592521905899048e-02 -7.275224924087524414e-01 2.740433216094970703e-01
-4.630765318870544434e-02 5.902387499809265137e-01 5.903750658035278320e-01
-2.699782252311706543e-01 3.175453543663024902e-01 -5.070652961730957031e-01
1.882968842983245850e-02 2.297952324151992798e-01 -5.306764245033264160e-01
5.664885044097900391e-01 -3.894062042236328125e-01 1.177660673856735229e-01
-4.383930563926696777e-01 -4.969202280044555664e-01 -1.174606829881668091e-01
-4.487175047397613525e-01 1.298010796308517456e-01 3.201417028903961182e-01
-7.642481476068496704e-02 3.707120716571807861e-01 -5.624836087226867676e-01
-6.787703186273574829e-02 -2.426466047763824463e-01 -4.568267166614532471e-01
6.793699860572814941e-01 3.920843824744224548e-02 -4.616019781678915024e-03
1.067565456032752991e-01 -7.275224924087524414e-01 -1.155738681554794312e-01
7.338979244232177734e-01 -2.340777516365051270e-01 1.453090012073516846e-01
-4.193263947963714600e-01 -4.082572162151336670e-01 1.956715434789657593e-01
1.522304564714431763e-01 3.148634135723114014e-01 -5.086897015571594238e-01
-6.612657308578491211e-01 6.590246558189392090e-01 -3.896858543157577515e-02
2.497775852680206299e-01 -5.361072719097137451e-02 3.619965016841888428e-01
-6.455538328737020493e-03 -3.962184786796569824e-01 -4.249153733253479004e-01
-2.667562961578369141e-01 -1.559090465307235718e-01 4.077579379081726074e-01
-3.098150491714477539e-01 -5.819002985954284668e-01 -2.972987890243530273e-01
2.067610472440719604e-01 -7.275224924087524414e-01 -1.234813928604125977e-01
-5.261710286140441895e-01 -9.365961700677871704e-02 8.899951353669166565e-03
2.494029253721237183e-01 -4.589647948741912842e-01 2.605220973491668701e-01
-4.017709791660308838e-01 -6.028448343276977539e-01 -1.572561860084533691e-01
4.110027551651000977e-01 2.914642691612243652e-01 -2.804262042045593262e-01
5.333911180496215820e-01 6.339893937110900879e-01 -1.135603711009025574e-01
3.264997601509094238e-01 5.505070686340332031e-01 4.374122917652130127e-01
-5.939739942550659180e-01 3.184474110603332520e-01 6.582006067037582397e-02
4.061860442161560059e-01 -1.290498673915863037e-01 9.190520271658897400e-03
4.302338659763336182e-01 6.516405381262302399e-03 -2.628733962774276733e-02
2.860645353794097900e-01 2.837373316287994385e-01 -4.213681817054748535e-01
7.626699209213256836e-01 3.453516587615013123e-02 5.326927080750465393e-02
-5.597769618034362793e-01 6.037312746047973633e-01 -3.262549936771392822e-01
4.597611725330352783e-02 -5.608794689178466797e-01 -3.882250189781188965e-01
-3.712082803249359131e-01 3.343622088432312012e-01 -4.537449181079864502e-01
-3.226148486137390137e-01 -4.603610634803771973e-01 -3.143752813339233398e-01
-5.057790875434875488e-01 5.910833477973937988e-01 -3.929393589496612549e-01
1.279804408550262451e-01 6.109622716903686523e-01 -5.743453502655029297e-01
-2.805228233337402344e-01 -4.544858932495117188e-01 3.379944860935211182e-01
2.924626171588897705e-01 -3.874951303005218506e-01 -2.357762157917022705e-01
6.359621882438659668e-02 -3.308846056461334229e-01 4.123752415180206299e-01
-5.782955288887023926e-01 6.213792562484741211e-01 2.952133417129516602e-01
4.763178229331970215e-01 2.906331717967987061e-01 1.399333924055099487e-01
-1.325902938842773438e-01 -7.275224924087524414e-01 2.573784068226814270e-02
3.282563090324401855e-01 2.350226044654846191e-01 3.605697453022003174e-01
3.776130452752113342e-02 6.450317502021789551e-01 5.888655781745910645e-01
4.887461289763450623e-02 -7.275224924087524414e-01 1.686236709356307983e-01
3.456383049488067627e-01 -2.806666791439056396e-01 -1.693973690271377563e-01
1.453103423118591309e-01 -8.430822938680648804e-02 -4.363862872123718262e-01
-2.694526016712188721e-01 1.396436840295791626e-01 4.626218676567077637e-01
-3.691453635692596436e-01 5.220323801040649414e-01 -4.970445334911346436e-01
4.852909743785858154e-01 3.470380008220672607e-01 -8.067569881677627563e-02
1.516841799020767212e-01 -7.275224924087524414e-01 -2.932672798633575439e-01
7.750919461250305176e-02 1.308626383543014526e-01 -5.050823688507080078e-01
-3.388045430183410645e-01 -6.482010483741760254e-01 -2.485723644495010376e-01
-4.675827454775571823e-03 3.815819025039672852e-01 5.484932661056518555e-01
2.461154013872146606e-01 -6.232115626335144043e-01 2.161011993885040283e-01
7.083972692489624023e-01 -1.795570701360702515e-01 -5.095663480460643768e-03
-4.643753170967102051e-01 -2.631633877754211426e-01 -1.648708134889602661e-01
-8.558230847120285034e-02 -1.801572442054748535e-01 -4.652967154979705811e-01
-5.398216843605041504e-01 4.409570693969726562e-01 -3.047283291816711426e-01
-2.865771576762199402e-02 5.696088075637817383e-01 -5.961101055145263672e-01
-4.823512434959411621e-01 -2.522387504577636719e-01 1.150104254484176636e-01
-2.121295481920242310e-01 -3.186446130275726318e-01 -4.112584888935089111e-01
1.510372608900070190e-01 1.479930728673934937e-01 4.657296836376190186e-01
4.146389365196228027e-01 3.999586775898933411e-02 1.300015896558761597e-01
6.705810427665710449e-01 -7.447165995836257935e-02 1.374616771936416626e-01
-4.629620015621185303e-01 6.809727549552917480e-01 -4.603874087333679199e-01
2.272562831640243530e-01 -2.777879536151885986e-01 3.294463455677032471e-01
-4.893225431442260742e-01 -8.932714164257049561e-02 -1.865448504686355591e-01
2.970565557479858398e-01 -6.655803322792053223e-01 4.805745184421539307e-02
-3.833296895027160645e-01 6.096468567848205566e-01 4.942034482955932617e-01
-2.698973715305328369e-01 3.001750409603118896e-01 4.925880134105682373e-01
3.317352235317230225e-01 -1.270354837179183960e-01 -2.609857618808746338e-01
4.004249572753906250e-01 -3.149500489234924316e-01 1.505489349365234375e-01
-5.094081163406372070e-01 6.822981685400009155e-02 2.006787657737731934e-01
4.435511529445648193e-01 7.431190460920333862e-02 7.608656305819749832e-03
-3.897960484027862549e-01 1.958650201559066772e-01 3.978261351585388184e-01
-6.264819502830505371e-01 5.499625802040100098e-01 -1.520018726587295532e-01
-2.422376424074172974e-01 4.653428867459297180e-02 4.564079940319061279e-01
4.826594144105911255e-03 -7.275224924087524414e-01 -7.605562359094619751e-02
-5.824868679046630859e-01 2.426902502775192261e-01 -5.954675748944282532e-02
2.410978823900222778e-02 4.373506009578704834e-01 -5.661287307739257812e-01
4.447308480739593506e-01 6.420227289199829102e-01 3.276781439781188965e-01
4.627530649304389954e-02 7.449205219745635986e-02 -4.999465942382812500e-01
5.595045685768127441e-01 -2.945464551448822021e-01 -4.459980409592390060e-03
-4.986820518970489502e-01 3.184114992618560791e-01 -3.226979076862335205e-01
5.025019124150276184e-02 -6.452296972274780273e-01 3.588428497314453125e-01
-3.007143735885620117e-01 5.080270394682884216e-02 -4.440081119537353516e-01
4.107125699520111084e-01 1.819709092378616333e-01 -2.301840633153915405e-01
-4.113730490207672119e-01 -7.445009052753448486e-02 3.094785213470458984e-01
3.270882666110992432e-01 3.364817798137664795e-01 3.893857896327972412e-01
2.348196953535079956e-01 2.457091212272644043e-01 4.400089085102081299e-01
1.416849792003631592e-01 -5.440949201583862305e-01 -3.492642045021057129e-01
-2.842012047767639160e-01 -5.852632224559783936e-02 4.187796115875244141e-01
1.050616335123777390e-02 -1.473986506462097168e-01 -4.660649001598358154e-01
7.030189037322998047e-01 1.523812413215637207e-01 1.324984580278396606e-01
1.706888526678085327e-01 -2.255197316408157349e-01 -3.973904252052307129e-01
2.103244215250015259e-01 5.841003656387329102e-01 -5.351922512054443359e-01
-6.321504116058349609e-01 5.043907761573791504e-01 3.390197828412055969e-02
-1.704822778701782227e-01 -5.246481895446777344e-01 -3.902852535247802734e-01
-2.992681972682476044e-02 7.330325245857238770e-01 -6.247383952140808105e-01
-2.312860637903213501e-01 -7.275224924087524414e-01 2.137947976589202881e-01
-4.376185536384582520e-01 -5.520716905593872070e-01 4.644575715065002441e-02
4.944914281368255615e-01 1.753112822771072388e-01 3.758665872737765312e-03
-1.742109656333923340e-01 2.117843031883239746e-01 -5.218695402145385742e-01
1.673303097486495972e-01 2.449903488159179688e-01 4.772814810276031494e-01
-2.468800693750381470e-01 -4.219644367694854736e-01 3.657305836677551270e-01
-8.517351001501083374e-02 -3.649531900882720947e-01 4.216915965080261230e-01
-2.139642536640167236e-01 -6.772156357765197754e-01 -3.428795933723449707e-01
2.972658872604370117e-01 -5.825589299201965332e-01 -1.446145623922348022e-01
5.388952493667602539e-01 6.481629610061645508e-01 7.981614023447036743e-02
3.480255603790283203e-01 -4.420886635780334473e-01 -2.813057228922843933e-02
-1.767743378877639771e-01 4.848002493381500244e-01 -5.691601634025573730e-01
2.212930619716644287e-01 -3.944296240806579590e-01 -3.201471269130706787e-01
5.063666105270385742e-01 4.588763713836669922e-01 6.419344246387481689e-02
-8.805636316537857056e-02 2.663975656032562256e-01 -5.427385568618774414e-01
4.006549715995788574e-01 -1.177254244685173035e-01 -7.872869819402694702e-02
2.577093839645385742e-01 4.199569225311279297e-01 4.611771106719970703e-01
-6.054341197013854980e-01 7.284673452377319336e-01 -2.915314137935638428e-01
-4.566043615341186523e-01 4.188337922096252441e-01 3.951855003833770752e-01
4.319895207881927490e-01 1.752543151378631592e-01 -1.756525784730911255e-01
1.994842588901519775e-01 -7.275224924087524414e-01 2.047408074140548706e-01
4.209938943386077881e-01 1.758730597794055939e-02 -1.126834526658058167e-01
1.915803104639053345e-01 -6.643790602684020996e-01 2.710415124893188477e-01
1.013018637895584106e-01 5.739475488662719727e-01 -5.784441828727722168e-01
-9.158793091773986816e-02 2.454701662063598633e-01 5.271588563919067383e-01
-3.832649886608123779e-01 -2.876748740673065186e-01 -2.964236438274383545e-01
-3.293507397174835205e-01 -7.275224924087524414e-01 6.697280704975128174e-02
1.904688775539398193e-01 5.752639472484588623e-02 4.323287010192871094e-01
2.219840139150619507e-01 8.876513311406597495e-05 -4.078730046749114990e-01
-1.191802769899368286e-01 6.448745131492614746e-01 -6.046672463417053223e-01
-6.277685761451721191e-01 6.235796213150024414e-01 -1.881935745477676392e-01
2.655998468399047852e-01 -1.439978927373886108e-01 3.297635316848754883e-01
3.529228270053863525e-02 -7.275224924087524414e-01 4.249981045722961426e-02
-2.987394928932189941e-01 -2.732452750205993652e-01 -3.750506043434143066e-01
-1.570751368999481201e-01 -6.816784143447875977e-01 3.548940122127532959e-01
6.892690062522888184e-02 1.448635756969451904e-01 4.975071847438812256e-01
2.075391262769699097e-01 -1.404399275779724121e-01 -3.879105448722839355e-01
5.514442920684814453e-01 7.338088154792785645e-01 -1.149691939353942871e-01
-4.344235658645629883e-01 -9.828139841556549072e-02 -2.848521173000335693e-01
-1.231918185949325562e-01 -7.275224924087524414e-01 -4.119852185249328613e-02
3.207638561725616455e-01 4.221448674798011780e-02 -3.249342441558837891e-01
-4.183219075202941895e-01 -1.728427410125732422e-01 2.709902822971343994e-01
2.904177010059356689e-01 -7.275224924087524414e-01 3.865495324134826660e-03
6.311979889869689941e-01 -2.356357425451278687e-01 1.637089848518371582e-01
5.068760514259338379e-01 4.308321177959442139e-01 -3.301408141851425171e-02
8.676803857088088989e-02 -6.794779747724533081e-02 4.520027339458465576e-01
4.078473448753356934e-01 4.955991208553314209e-01 -3.444097042083740234e-01
3.742621243000030518e-01 -4.185951650142669678e-01 1.425569504499435425e-01
-5.114260315895080566e-01 5.502097010612487793e-01 3.617216050624847412e-01
4.996783435344696045e-01 6.847283840179443359e-01 2.407806962728500366e-01
-7.822420448064804077e-02 4.317081570625305176e-01 5.613532066345214844e-01
3.563913106918334961e-01 2.132560163736343384e-01 -3.286593556404113770e-01
-4.098438322544097900e-01 -3.463240563869476318e-01 2.311588376760482788e-01
3.928597569465637207e-01 -1.535514295101165771e-01 6.705062091350555420e-02
-5.813404321670532227e-01 6.831228137016296387e-01 3.095890283584594727e-01
2.500489354133605957e-01 -6.933227181434631348e-01 -2.015485912561416626e-01
-5.541865825653076172e-01 2.259982824325561523e-01 1.669075787067413330e-01
2.603724896907806396e-01 -2.893945276737213135e-01 2.961639165878295898e-01
4.713510572910308838e-01 -4.147137105464935303e-01 -5.753449629992246628e-03
1.787374168634414673e-01 6.990555524826049805e-01 5.582238435745239258e-01
-6.748843938112258911e-02 -7.275224924087524414e-01 -1.419622600078582764e-01
-2.496465146541595459e-01 4.716015756130218506e-01 5.331723690032958984e-01
3.704881295561790466e-02 -2.550869584083557129e-01 4.319324493408203125e-01
1.568190008401870728e-01 -8.867484331130981445e-02 4.186834394931793213e-01
-2.360147684812545776e-01 6.311987042427062988e-01 5.687926411628723145e-01
5.171600580215454102e-01 5.669761896133422852e-01 1.322325170040130615e-01
-3.908220827579498291e-01 7.009729146957397461e-01 5.086303949356079102e-01
1.651658713817596436e-01 3.107429742813110352e-01 4.905835092067718506e-01
-2.441720813512802124e-01 2.218796312808990479e-01 -4.997058212757110596e-01
2.263541966676712036e-01 4.758900403976440430e-01 -5.080716013908386230e-01
-5.083802342414855957e-01 -1.094045937061309814e-01 1.194687038660049438e-01
-1.736350506544113159e-01 3.662717640399932861e-01 5.373961329460144043e-01
-5.290380716323852539e-01 2.176254615187644958e-02 -1.430026888847351074e-01
1.008930504322052002e-01 6.959154009819030762e-01 -6.010472774505615234e-01
3.394953906536102295e-01 6.035758256912231445e-01 -4.510297477245330811e-01
-5.493823885917663574e-01 2.910313569009304047e-02 2.964831190183758736e-03
-1.570769399404525757e-01 4.097025394439697266e-01 -5.586515665054321289e-01
-3.428665995597839355e-01 4.909305870532989502e-01 4.980210959911346436e-01
-1.503545045852661133e-01 -2.167038470506668091e-01 -4.502597749233245850e-01
-4.642360210418701172e-01 -4.110937416553497314e-01 3.913706541061401367e-02
7.747774571180343628e-02 -7.275224924087524414e-01 -2.773426175117492676e-01
4.557129740715026855e-01 1.626962572336196899e-01 3.789770230650901794e-02
1.931661367416381836e-01 -6.213642954826354980e-01 -2.912528812885284424e-01
-5.041546821594238281e-01 -1.226769536733627319e-01 -1.350232809782028198e-01
-3.987781703472137451e-01 2.944732904434204102e-01 4.127184748649597168e-01
-4.298826456069946289e-01 -4.834888279438018799e-01 1.329827457666397095e-01
6.965018808841705322e-02 3.096944689750671387e-01 5.261669158935546875e-01
-1.421695351600646973e-01 -1.060011386871337891e-01 -4.706489741802215576e-01
5.038661360740661621e-01 5.555546879768371582e-01 -1.813067197799682617e-01
-6.359339356422424316e-01 6.481035947799682617e-01 1.684251129627227783e-01
-4.810960590839385986e-01 -2.771383523941040039e-01 -1.101084053516387939e-01
4.628891646862030029e-01 4.285715222358703613e-01 -2.204068005084991455e-01
-2.476276308298110962e-01 -4.947036504745483398e-01 -3.630783557891845703e-01
3.955453038215637207e-01 6.313219666481018066e-02 2.005952149629592896e-01
-5.546240806579589844e-01 5.221168398857116699e-01 2.971845865249633789e-01
-1.474011987447738647e-01 -2.715318202972412109e-01 4.295820295810699463e-01
-5.213282108306884766e-01 3.470362126827239990e-01 2.892276644706726074e-01
-4.158753454685211182e-01 -6.644042134284973145e-01 -6.807325035333633423e-02
7.737688422203063965e-01 -5.343462899327278137e-02 -5.753004457801580429e-03
4.315456748008728027e-01 3.685044944286346436e-01 2.569290697574615479e-01
6.296947598457336426e-01 7.646133750677108765e-02 6.969098001718521118e-02
-4.270272552967071533e-01 6.592726707458496094e-01 -4.831360280513763428e-01
-5.231413841247558594e-01 7.317719459533691406e-01 3.997048437595367432e-01
-2.385197132825851440e-01 -7.275224924087524414e-01 -1.099871098995208740e-01
-4.283219873905181885e-01 -2.649396955966949463e-01 -2.429937124252319336e-01
-5.040639042854309082e-01 -1.435701083391904831e-02 1.746695488691329956e-01
-5.918535590171813965e-01 4.290612041950225830e-01 1.716434657573699951e-01
1.107556745409965515e-01 -3.057917952537536621e-01 -4.091218709945678711e-01
6.713447570800781250e-01 -6.693520396947860718e-02 4.779491573572158813e-02
-9.209521859884262085e-02 -4.767439663410186768e-01 -4.127553701400756836e-01
-6.235546469688415527e-01 4.353254139423370361e-01 -1.494994945824146271e-02
2.751794457435607910e-01 -2.421757578849792480e-01 -3.018406033515930176e-01
2.713123857975006104e-01 -3.953236043453216553e-01 2.498939633369445801e-01
-1.297788619995117188e-01 -1.775013357400894165e-01 4.484078884124755859e-01
5.814921855926513672e-01 2.540704011917114258e-01 1.590207219123840332e-01
6.148303151130676270e-01 2.293020039796829224e-01 -5.752380471676588058e-03
-4.888598322868347168e-01 -2.923100888729095459e-01 1.661062426865100861e-02
6.451478004455566406e-01 -3.320211768150329590e-01 -5.698086693882942200e-03
-2.946487367153167725e-01 2.312580049037933350e-01 -4.805664122104644775e-01
3.177674412727355957e-01 -2.624140381813049316e-01 2.278749048709869385e-01
6.593060493469238281e-01 -1.543924063444137573e-01 1.639353930950164795e-01
-6.121655106544494629e-01 4.695126116275787354e-01 1.376952826976776123e-01
-1.317553371191024780e-01 7.325419187545776367e-01 6.066986322402954102e-01
-1.026222016662359238e-02 -7.275224924087524414e-01 -2.710388898849487305e-01
-4.582566618919372559e-01 -4.258521795272827148e-01 -7.661753147840499878e-02
4.857940971851348877e-01 2.879637777805328369e-01 5.582966655492782593e-02
5.711488723754882812e-01 -2.934439778327941895e-01 1.636739522218704224e-01
1.545305550098419189e-01 -5.094639062881469727e-01 3.350825309753417969e-01
-1.921225525438785553e-02 2.736428976058959961e-01 5.315766930580139160e-01
3.391629457473754883e-01 -4.332916140556335449e-01 6.191014125943183899e-02
4.909586012363433838e-01 -3.064548969268798828e-01 6.092414259910583496e-02
-1.267042458057403564e-01 6.235456094145774841e-02 -5.020553469657897949e-01
1.934320777654647827e-01 1.400080919265747070e-01 -4.583712220191955566e-01
-3.617418706417083740e-01 -5.274883508682250977e-01 2.416791617870330811e-01
-2.279895097017288208e-01 1.757274717092514038e-01 4.865735769271850586e-01
-4.618356749415397644e-02 -6.251333951950073242e-01 -3.903418481349945068e-01
3.517569899559020996e-01 7.276138067245483398e-01 4.574007689952850342e-01
2.917160093784332275e-01 -6.006677746772766113e-01 1.180230304598808289e-01
-3.077413737773895264e-01 -2.152096778154373169e-01 3.699714243412017822e-01
-5.470157861709594727e-01 5.192355811595916748e-02 -6.421796232461929321e-02
-2.909793257713317871e-01 -5.606521368026733398e-01 3.057983517646789551e-01
-2.290605306625366211e-01 -3.494903147220611572e-01 3.871414065361022949e-01
-5.493940711021423340e-01 5.123458504676818848e-01 -3.131443858146667480e-01
-4.776476919651031494e-01 -1.700403541326522827e-01 1.650953441858291626e-01
3.879208266735076904e-01 -2.139760702848434448e-01 3.006654232740402222e-02
-5.516384840011596680e-01 3.445141613483428955e-01 -2.405057996511459351e-01
6.643977165222167969e-01 -6.896026898175477982e-03 5.412120744585990906e-02
-3.306328952312469482e-01 1.203089952468872070e-01 -4.376342892646789551e-01
-5.108456015586853027e-01 1.410386562347412109e-01 2.320007383823394775e-01
-1.651803404092788696e-01 -7.275224924087524414e-01 -3.529479801654815674e-01
4.867222309112548828e-01 4.784911572933197021e-01 1.753182709217071533e-01
6.038931012153625488e-01 -3.703584671020507812e-01 9.109558165073394775e-02
-1.972299767658114433e-03 -4.886029958724975586e-01 -4.081667959690093994e-01
-1.603528112173080444e-01 5.637174248695373535e-01 5.735312104225158691e-01
3.266156911849975586e-01 -2.405234724283218384e-01 -2.343718707561492920e-01
-1.705640405416488647e-01 -3.833288848400115967e-01 -4.168892502784729004e-01
-5.495989322662353516e-01 4.309300780296325684e-01 2.750325798988342285e-01
-2.272752374410629272e-01 6.254798769950866699e-01 -5.828503370285034180e-01
-2.025867998600006104e-01 -7.358755171298980713e-02 4.502713382244110107e-01
-4.186076223850250244e-01 -4.675659537315368652e-01 -1.804558634757995605e-01
1.558054983615875244e-01 -1.600672155618667603e-01 4.056339263916015625e-01
-3.160972595214843750e-01 6.019855141639709473e-01 5.301354527473449707e-01
4.353291690349578857e-01 1.080902814865112305e-01 -1.296404898166656494e-01
-3.443634510040283203e-01 4.063323438167572021e-01 -4.906239807605743408e-01
-1.792257837951183319e-02 1.816329061985015869e-01 5.153554677963256836e-01
6.105886101722717285e-01 -2.311630994081497192e-01 3.503379598259925842e-02
7.082256078720092773e-01 1.087412312626838684e-01 -5.491908174008131027e-03
-2.209831923246383667e-01 -7.275224924087524414e-01 -2.950649242848157883e-03
-5.597688555717468262e-01 1.428416371345520020e-01 -9.353269636631011963e-02
-1.184088438749313354e-01 -7.165940850973129272e-02 4.683963954448699951e-01
-2.665550410747528076e-01 5.446211695671081543e-01 -5.513253211975097656e-01
-3.243623673915863037e-01 6.835280656814575195e-01 -5.535876750946044922e-01
-5.104476213455200195e-01 1.578147113323211670e-01 -2.527008950710296631e-01
7.653402090072631836e-01 2.331026643514633179e-02 -4.463035147637128830e-03
-1.431129276752471924e-01 -7.275224924087524414e-01 -2.020643204450607300e-01
-2.649179995059967041e-01 -3.367074579000473022e-02 -4.428984820842742920e-01
-5.572296977043151855e-01 1.194974854588508606e-01 6.881011277437210083e-02
3.539896905422210693e-01 -3.658174872398376465e-01 -9.019906073808670044e-02
4.308690726757049561e-01 2.291205078363418579e-01 1.931791603565216064e-01
-1.402686983346939087e-01 -1.582782156765460968e-02 -4.866302311420440674e-01
-1.781786531209945679e-01 1.080388873815536499e-01 -5.032485127449035645e-01
4.638442397117614746e-01 2.671514153480529785e-01 -1.333296447992324829e-01
-6.507813334465026855e-01 6.449535489082336426e-01 -9.907416254281997681e-02
-4.511083364486694336e-01 4.791371226310729980e-01 -4.246170818805694580e-01
-2.719593942165374756e-01 -1.328729093074798584e-01 -4.212657511234283447e-01
-4.143703877925872803e-01 -6.784977912902832031e-01 4.810165613889694214e-02
-1.813296377658843994e-01 -5.774950981140136719e-01 -3.756723403930664062e-01
-5.821211934089660645e-01 2.965586781501770020e-01 -1.377376019954681396e-01
-5.817617289721965790e-03 -6.043366156518459320e-03 4.810218214988708496e-01
2.585665583610534668e-01 5.959720015525817871e-01 4.996455907821655273e-01
-3.574785590171813965e-01 -3.334182798862457275e-01 3.042763173580169678e-01
3.679484724998474121e-01 -2.764608860015869141e-01 -1.084767654538154602e-01
4.951401054859161377e-01 4.180458188056945801e-01 9.280628710985183716e-02
3.226102590560913086e-01 3.399149700999259949e-02 3.084973692893981934e-01
8.965713903307914734e-03 -1.590294837951660156e-01 4.523863792419433594e-01
2.749701142311096191e-01 6.951606869697570801e-01 -5.207743048667907715e-01
-5.962237715721130371e-01 4.881480038166046143e-01 -2.005404978990554810e-01
-1.065356880426406860e-01 -3.060945868492126465e-01 -4.405076205730438232e-01
-8.193663507699966431e-02 7.842505723237991333e-02 4.993364810943603516e-01
-3.421711623668670654e-01 -7.275224924087524414e-01 -9.021352976560592651e-02
-6.002786159515380859e-01 3.730840682983398438e-01 -1.053698211908340454e-01
3.932650089263916016e-01 4.031921327114105225e-01 3.247032761573791504e-01
3.802423775196075439e-01 -1.939838193356990814e-02 -2.089862227439880371e-01
1.176488250494003296e-01 3.445195853710174561e-01 -5.285838842391967773e-01
3.797329664230346680e-01 5.057564377784729004e-01 3.724197745323181152e-01
-3.345466554164886475e-01 -7.185475826263427734e-01 -2.331742048263549805e-01
4.762235283851623535e-01 6.756528615951538086e-01 -3.046267926692962646e-01
6.577444672584533691e-01 -3.295700848102569580e-01 7.647361606359481812e-02
-3.111501932144165039e-01 -5.140551328659057617e-01 -3.113941550254821777e-01
-4.022394865751266479e-02 -5.055357217788696289e-01 3.987003564834594727e-01
3.187036514282226562e-01 -3.881914913654327393e-01 -1.848278641700744629e-01
6.570944190025329590e-02 1.857562065124511719e-01 -5.167329311370849609e-01
4.881058931350708008e-01 -4.139553904533386230e-01 1.279943883419036865e-01
-3.905417621135711670e-01 -5.979867577552795410e-01 1.760568022727966309e-01
1.517129242420196533e-01 -7.275224924087524414e-01 1.304957568645477295e-01
5.762671306729316711e-02 -7.275224924087524414e-01 -1.800200939178466797e-01
5.228618383407592773e-01 6.519662141799926758e-01 1.694431006908416748e-01
-6.280120015144348145e-01 5.358519554138183594e-01 1.089969128370285034e-01
-1.507776826620101929e-01 -7.275224924087524414e-01 2.122494131326675415e-01
-5.787779688835144043e-01 3.004473149776458740e-01 1.426144540309906006e-01
1.005678027868270874e-01 2.573094367980957031e-01 -5.192792415618896484e-01
-7.955461740493774414e-03 1.475493907928466797e-01 -5.198785066604614258e-01
-2.672261893749237061e-01 -7.209276556968688965e-01 -3.000723719596862793e-01
-2.780640497803688049e-02 -5.994153022766113281e-01 3.806579709053039551e-01
3.809602856636047363e-01 5.180233716964721680e-01 -3.860264420509338379e-01
-6.552458405494689941e-01 7.374243140220642090e-01 1.638850867748260498e-01
-4.877582788467407227e-01 -2.155771553516387939e-01 -1.308372616767883301e-01
-4.051887989044189453e-01 -7.389289326965808868e-03 -3.495624959468841553e-01
1.587584428489208221e-02 5.340396761894226074e-01 -5.840525031089782715e-01
-3.817806839942932129e-01 -7.275224924087524414e-01 1.309728324413299561e-01
-3.309284746646881104e-01 -1.294010225683450699e-02 -4.076313078403472900e-01
2.239489704370498657e-01 -6.772453188896179199e-01 2.299351096153259277e-01
5.997534841299057007e-02 -7.275224924087524414e-01 2.526029050350189209e-01
-3.245025575160980225e-01 -6.912490725517272949e-01 2.432092726230621338e-01
2.631955146789550781e-01 7.384485602378845215e-01 5.277635455131530762e-01
-5.023918151855468750e-01 6.054356694221496582e-01 3.896921873092651367e-01
1.548593938350677490e-01 -2.458711154758930206e-02 -4.436388313770294189e-01
3.870214521884918213e-01 5.820527076721191406e-01 3.852986097335815430e-01
3.135760128498077393e-01 -5.889911055564880371e-01 4.243763536214828491e-02
3.492286205291748047e-01 -1.124189943075180054e-01 2.300635874271392822e-01
-2.989560365676879883e-01 -7.275224924087524414e-01 1.368462145328521729e-01
-5.796836614608764648e-01 1.936376988887786865e-01 1.155075151473283768e-03
1.232553422451019287e-01 -4.144199192523956299e-01 3.711286485195159912e-01
3.981212377548217773e-01 -7.837016135454177856e-02 1.038620918989181519e-01
-4.415071904659271240e-01 3.165777027606964111e-01 -3.958495259284973145e-01
-4.478801190853118896e-01 4.664740711450576782e-02 -3.096789419651031494e-01
7.467839121818542480e-01 7.703294605016708374e-02 1.467492580413818359e-01
-1.312940567731857300e-01 3.952451050281524658e-01 5.480161905288696289e-01
-3.341414630413055420e-01 -3.860386908054351807e-01 3.109340667724609375e-01
-4.229032695293426514e-01 6.148140430450439453e-01 4.649794697761535645e-01
4.417416453361511230e-01 3.138041198253631592e-01 2.066536694765090942e-01
2.973979711532592773e-01 4.782997369766235352e-01 4.436927139759063721e-01
2.189291715621948242e-01 2.417423576116561890e-01 -4.636048376560211182e-01
2.052201479673385620e-01 -6.811186671257019043e-01 -2.656614780426025391e-01
3.562475740909576416e-01 1.886583119630813599e-01 3.100230097770690918e-01
-3.107103705406188965e-02 4.348285496234893799e-01 -5.729544162750244141e-01
-2.587602101266384125e-02 -7.275224924087524414e-01 1.404113769531250000e-01
4.987628161907196045e-01 -4.118601679801940918e-01 8.319658041000366211e-02
-3.178708255290985107e-01 6.720240414142608643e-02 4.245909750461578369e-01
-4.118618071079254150e-01 5.324062705039978027e-01 -4.665725231170654297e-01
4.672315120697021484e-01 6.125184297561645508e-01 -2.965880632400512695e-01
8.021091669797897339e-02 -1.061763539910316467e-01 -4.594439864158630371e-01
2.664817683398723602e-02 -4.792695641517639160e-01 3.941926956176757812e-01
2.705450952053070068e-01 3.297909349203109741e-02 -3.775232434272766113e-01
1.313928812742233276e-01 -6.719955205917358398e-01 3.171533346176147461e-01
1.578132249414920807e-02 7.190431952476501465e-01 6.046707630157470703e-01
-6.577526330947875977e-01 6.559941172599792480e-01 4.983725026249885559e-02
2.975094020366668701e-01 -3.607238456606864929e-02 -3.330214917659759521e-01
2.538261711597442627e-01 -4.358504712581634521e-01 -2.730397880077362061e-01
7.753313183784484863e-01 -7.834231108427047729e-02 1.308093219995498657e-01
3.694103062152862549e-01 3.787983953952789307e-01 -3.602454364299774170e-01
6.751449406147003174e-02 4.028804004192352295e-01 5.427043437957763672e-01
2.405255287885665894e-02 -6.775373220443725586e-01 3.599839210510253906e-01
7.957570999860763550e-02 5.334143638610839844e-01 5.638887286186218262e-01
1.332931667566299438e-01 6.698291003704071045e-02 4.577960968017578125e-01
-4.807474613189697266e-01 3.765611946582794189e-01 3.507726788520812988e-01
-5.387309193611145020e-01 1.917796283960342407e-01 -1.997067034244537354e-01
1.399599015712738037e-01 -3.279025256633758545e-01 3.805330693721771240e-01
-5.685705319046974182e-02 -2.933631241321563721e-01 4.378876090049743652e-01
2.217081487178802490e-01 -7.275224924087524414e-01 -4.733029752969741821e-02
-3.611246049404144287e-01 -4.271936416625976562e-01 -2.846050262451171875e-01
3.466922342777252197e-01 1.107089314609766006e-02 -2.819994390010833740e-01
-4.098061025142669678e-01 -1.628381460905075073e-01 -2.982277870178222656e-01
5.417963862419128418e-01 1.915442347526550293e-01 1.635364741086959839e-01
2.981832623481750488e-01 -3.910476341843605042e-02 3.196008205413818359e-01
-1.923081576824188232e-01 -5.844366177916526794e-02 -4.688070416450500488e-01
-6.099283099174499512e-01 3.820949494838714600e-01 3.296791762113571167e-02
4.399949908256530762e-01 9.934276342391967773e-02 6.936285644769668579e-02
1.639645993709564209e-01 -4.152303338050842285e-01 -3.606380820274353027e-01
-4.677661657333374023e-01 4.948910772800445557e-01 4.027507007122039795e-01
-4.131421446800231934e-01 7.401646580547094345e-04 3.294580280780792236e-01
-1.608999669551849365e-01 3.216002285480499268e-01 5.312927961349487305e-01
7.630702108144760132e-02 -3.564948737621307373e-01 -4.140473604202270508e-01
6.473652124404907227e-01 2.119586169719696045e-01 7.512265443801879883e-02
3.141384720802307129e-01 -6.307660341262817383e-01 -2.393071353435516357e-02
-1.071030795574188232e-01 -6.866533160209655762e-01 -3.741521239280700684e-01
-3.976137042045593262e-01 4.528790116310119629e-01 4.486082792282104492e-01
-4.419887959957122803e-01 -3.361523747444152832e-01 1.738231778144836426e-01
3.013387322425842285e-01 1.481351256370544434e-01 3.672777712345123291e-01
-6.080855131149291992e-01 4.278823733329772949e-01 -1.221157088875770569e-01
4.276381731033325195e-01 1.632632017135620117e-01 1.700873076915740967e-01
-1.595396846532821655e-01 -4.564562439918518066e-01 -4.072251915931701660e-01
7.694256305694580078e-01 1.615284476429224014e-03 1.275792717933654785e-01
-5.023217797279357910e-01 -2.250795215368270874e-01 7.665349636226892471e-03
1.966594159603118896e-01 4.046054482460021973e-01 -5.071407556533813477e-01
5.309678912162780762e-01 6.805145740509033203e-01 -1.747532039880752563e-01
2.786341011524200439e-01 -6.528138518333435059e-01 1.289359927177429199e-01
-3.655585944652557373e-01 -1.535784006118774414e-01 -3.496173322200775146e-01
2.728326022624969482e-01 -7.168521285057067871e-01 -1.408768892288208008e-01
3.822604119777679443e-01 -1.926533132791519165e-01 -1.160195097327232361e-01
3.432995676994323730e-01 -2.497427761554718018e-01 1.799598038196563721e-01
-5.980782508850097656e-01 3.030061423778533936e-01 1.321454625576734543e-02
4.558594524860382080e-01 1.878954917192459106e-01 -8.336871862411499023e-02
4.020350575447082520e-01 7.105345726013183594e-01 4.034155905246734619e-01
2.047385573387145996e-01 1.670377999544143677e-01 4.463270008563995361e-01
3.221583068370819092e-01 -5.821321606636047363e-01 -3.055269457399845123e-02
-4.752688854932785034e-02 6.547092199325561523e-01 -6.134148240089416504e-01
-4.959488213062286377e-01 7.202004194259643555e-01 -4.433908462524414062e-01
3.928184211254119873e-01 6.655485630035400391e-01 -4.138407111167907715e-01
4.795218408107757568e-01 4.891479909420013428e-01 -2.087912410497665405e-01
-5.629024934023618698e-03 -7.275224924087524414e-01 2.761915922164916992e-01
5.349419116973876953e-01 6.107609868049621582e-01 -6.954298168420791626e-02
5.168042778968811035e-01 -3.618354499340057373e-01 -5.110580939799547195e-03
7.868399843573570251e-03 -8.019498735666275024e-02 -4.781314730644226074e-01
-3.121116161346435547e-01 4.641261994838714600e-01 -5.172684192657470703e-01
1.994438171386718750e-01 -5.466951727867126465e-01 -3.031245172023773193e-01
-4.563860297203063965e-01 5.949126482009887695e-01 -4.463028311729431152e-01
3.283003270626068115e-01 -3.314686119556427002e-01 1.778348982334136963e-01
3.651793599128723145e-01 -1.397957056760787964e-01 -1.885350048542022705e-01
9.292891621589660645e-02 -7.275224924087524414e-01 1.942771077156066895e-01
-2.899469733238220215e-01 -6.280418038368225098e-01 2.914019823074340820e-01
1.727634370326995850e-01 -4.901079535484313965e-01 -3.370969593524932861e-01
-3.442197144031524658e-01 1.421026289463043213e-01 4.209206700325012207e-01
-2.125953510403633118e-02 9.042784571647644043e-02 4.999088048934936523e-01
-4.481568634510040283e-01 -4.840315282344818115e-01 6.107077375054359436e-02
1.125733107328414917e-01 -6.800107955932617188e-01 -3.372407257556915283e-01
5.498665571212768555e-01 6.637264490127563477e-01 1.807676441967487335e-02
2.287055253982543945e-01 -2.148413062095642090e-01 -3.548069298267364502e-01
7.660886645317077637e-01 -1.501533985137939453e-01 1.266709119081497192e-01
-5.872569680213928223e-01 5.850868821144104004e-01 -2.678618431091308594e-01
6.460003852844238281e-01 -1.780170798301696777e-01 2.223619259893894196e-02
-2.828876078128814697e-01 1.631652563810348511e-01 -4.725914597511291504e-01
-2.746278643608093262e-01 6.242238283157348633e-01 -5.629993081092834473e-01
-1.807186603546142578e-01 -4.231136441230773926e-01 3.936832249164581299e-01
3.260604143142700195e-01 1.098878756165504456e-01 -3.379181921482086182e-01
-1.751966029405593872e-01 -5.980316400527954102e-01 3.630162775516510010e-01
2.935273051261901855e-01 -4.619082212448120117e-01 2.005979120731353760e-01
7.385915517807006836e-01 -1.178377345204353333e-01 -5.265851970762014389e-03
-3.441163599491119385e-01 3.179317116737365723e-01 4.598446786403656006e-01
-2.080486416816711426e-01 -1.759829074144363403e-01 4.287778735160827637e-01
-1.661120653152465820e-01 2.035039067268371582e-01 5.100059509277343750e-01
-4.896181523799896240e-01 2.246900796890258789e-01 2.946688532829284668e-01
2.761588096618652344e-01 -6.412917375564575195e-01 -1.690253913402557373e-01
-5.375916361808776855e-01 -3.250362351536750793e-02 -1.863515935838222504e-02
2.785056233406066895e-01 -1.296096295118331909e-01 -3.308372795581817627e-01
2.592745423316955566e-01 4.161976873874664307e-01 -4.711880385875701904e-01
1.289777606725692749e-01 -7.275224924087524414e-01 6.191669404506683350e-02
5.406500101089477539e-01 6.118840575218200684e-01 1.613856293261051178e-02
-1.535836458206176758e-01 -7.275224924087524414e-01 9.965001791715621948e-02
4.565773308277130127e-01 4.446282684803009033e-01 2.322064936161041260e-01
-1.980884745717048645e-02 -3.430940210819244385e-01 4.242082238197326660e-01
4.159875214099884033e-01 1.015263423323631287e-01 -1.795475035905838013e-01
-7.092224806547164917e-02 6.558296680450439453e-01 6.013472676277160645e-01
3.175841271877288818e-01 -4.066067636013031006e-01 1.655670404434204102e-01
-2.434743382036685944e-02 9.924524463713169098e-03 -4.980688095092773438e-01
1.427694410085678101e-01 -1.481740325689315796e-01 -4.253412783145904541e-01
-2.153398245573043823e-01 -7.275224924087524414e-01 3.082835376262664795e-01
-5.676242709159851074e-01 1.998956054449081421e-01 1.016149893403053284e-01
-4.076425731182098389e-01 3.911130130290985107e-01 -4.384024739265441895e-01
2.701255083084106445e-01 -7.275224924087524414e-01 7.775673270225524902e-02
-6.740874052047729492e-02 -7.275224924087524414e-01 -2.938692867755889893e-01
-7.239820901304483414e-03 2.990717291831970215e-01 -5.461734533309936523e-01
-4.197244346141815186e-01 1.786118596792221069e-01 -3.818961381912231445e-01
4.146694839000701904e-01 -4.361783340573310852e-02 -7.493396103382110596e-02
4.435538351535797119e-01 4.631693363189697266e-01 -2.836157977581024170e-01
-2.809783220291137695e-01 3.665359616279602051e-01 5.004613399505615234e-01
-6.762253642082214355e-01 7.177179455757141113e-01 -6.793155334889888763e-03
7.413777709007263184e-01 -2.234577387571334839e-01 2.449946291744709015e-02
-5.682345107197761536e-02 -7.275224924087524414e-01 5.359191820025444031e-02
1.050449311733245850e-01 -7.275224924087524414e-01 3.120968118309974670e-02
-6.866185367107391357e-02 -1.002490669488906860e-01 4.699660539627075195e-01
-5.205672383308410645e-01 -9.590850770473480225e-02 -5.995080620050430298e-02
-3.357569277286529541e-01 -2.864879667758941650e-01 -3.429415822029113770e-01
1.836943477392196655e-01 4.636743068695068359e-01 5.117615461349487305e-01
7.742024213075637817e-02 -7.275224924087524414e-01 -5.470556393265724182e-02
4.750788211822509766e-01 3.581719398498535156e-01 1.382999420166015625e-01
3.679943084716796875e-01 -3.758777976036071777e-01 -5.686570890247821808e-03
5.117638111114501953e-01 5.311016440391540527e-01 -1.350430399179458618e-01
4.645773768424987793e-01 2.232740819454193115e-01 5.479731410741806030e-02
-3.752185776829719543e-02 -3.192231953144073486e-01 -4.424788951873779297e-01
-4.896729290485382080e-01 6.665449738502502441e-01 4.242558479309082031e-01
6.419851183891296387e-01 6.581371277570724487e-02 1.639066487550735474e-01
-4.643546640872955322e-01 7.619906961917877197e-02 2.840416431427001953e-01
1.434478014707565308e-01 -3.565272092819213867e-01 -3.854630887508392334e-01
5.303677320480346680e-01 2.607110738754272461e-01 1.625867933034896851e-01
1.699502915143966675e-01 5.316793918609619141e-01 5.302846431732177734e-01
-3.709755539894104004e-01 -6.857907772064208984e-01 1.822482347488403320e-01
-3.602935373783111572e-01 -5.003569126129150391e-01 -2.640172541141510010e-01
-4.514578580856323242e-01 2.119649052619934082e-01 3.406692743301391602e-01
-6.440368294715881348e-02 -4.351487457752227783e-01 4.122009277343750000e-01
-6.975062936544418335e-02 5.028821825981140137e-01 5.748645663261413574e-01
5.055400133132934570e-01 1.713334470987319946e-01 9.619984775781631470e-02
5.999164581298828125e-01 1.101663187146186829e-01 1.289270073175430298e-01
4.035795331001281738e-01 -3.154020011425018311e-01 8.249127119779586792e-02
-6.544740796089172363e-01 6.136810779571533203e-01 1.601295359432697296e-02
-3.763457834720611572e-01 8.970889449119567871e-02 -3.954200446605682373e-01
-3.741130530834197998e-01 -6.877764463424682617e-01 -1.853993088006973267e-01
-2.600374519824981689e-01 -2.284928113222122192e-01 -4.081632196903228760e-01
-1.201557517051696777e-01 -6.429368257522583008e-01 3.684215545654296875e-01
5.740824341773986816e-01 2.594289481639862061e-01 4.768916592001914978e-02
2.747841179370880127e-01 -5.518165230751037598e-01 -2.106205523014068604e-01
4.831633865833282471e-01 3.070879578590393066e-01 -4.139043763279914856e-02
-4.903405308723449707e-01 -1.849091611802577972e-02 -2.178748846054077148e-01
-4.721651673316955566e-01 1.242837905883789062e-01 -3.006626963615417480e-01
2.264575362205505371e-01 9.942148625850677490e-02 -4.263852834701538086e-01
-3.010557889938354492e-01 7.304105442017316818e-03 4.240608811378479004e-01
-4.270066320896148682e-01 -5.940100550651550293e-01 -8.140715211629867554e-02
-6.464012861251831055e-01 7.149308323860168457e-01 -1.862501651048660278e-01
7.083711624145507812e-01 -2.739874124526977539e-01 9.724208712577819824e-02
4.625306725502014160e-01 5.064734220504760742e-01 2.468445450067520142e-01
3.660383224487304688e-01 2.681037783622741699e-01 -3.321732878684997559e-01
-1.325670182704925537e-01 3.437639474868774414e-01 -5.503756403923034668e-01
-2.189948409795761108e-01 4.191330075263977051e-01 -5.473890900611877441e-01
8.627387136220932007e-02 5.100368261337280273e-01 -5.705726146697998047e-01
5.313794016838073730e-01 -3.810629248619079590e-01 1.627556979656219482e-01
-6.427291631698608398e-01 5.374233722686767578e-01 -1.100153941661119461e-02
2.286929637193679810e-01 2.694659866392612457e-02 3.960821926593780518e-01
1.073118001222610474e-01 -7.275224924087524414e-01 -1.833974868059158325e-01
3.119578361511230469e-01 -4.554993510246276855e-01 -1.692077815532684326e-01
-4.267559349536895752e-01 -5.991511940956115723e-01 6.440450251102447510e-02
