-4.038345534354448318e-03 4.160343110561370850e-01 -7.644154429435729980e-01
-3.961678445339202881e-01 -1.562141329050064087e-01 -1.522947400808334351e-01
3.980714380741119385e-01 -3.927216827869415283e-01 1.240931153297424316e-01
-3.012349009513854980e-01 4.160343110561370850e-01 2.693706750869750977e-01
-3.687810599803924561e-01 -2.865813970565795898e-01 -4.345773756504058838e-01
1.845247596502304077e-01 -2.127819061279296875e-01 -2.419232279062271118e-01
-7.366747129708528519e-03 -4.392257630825042725e-01 4.036608338356018066e-02
8.818551152944564819e-02 7.072180975228548050e-03 -2.830053865909576416e-01
3.980714380741119385e-01 2.886270284652709961e-01 -1.087696850299835205e-02
-2.176628857851028442e-01 -2.512123584747314453e-01 7.942414879798889160e-01
2.944142222404479980e-01 -3.912979364395141602e-01 -4.875305891036987305e-01
3.980714380741119385e-01 -3.437084555625915527e-01 -6.601949930191040039e-01
3.710290789604187012e-01 3.413201272487640381e-01 3.141789138317108154e-01
1.749299317598342896e-01 -4.118390083312988281e-01 2.929691374301910400e-01
-2.690718173980712891e-01 3.190349936485290527e-01 -2.419232279062271118e-01
3.706836700439453125e-01 2.408146411180496216e-01 -5.347676873207092285e-01
-7.859462499618530273e-02 -3.912979364395141602e-01 5.354829430580139160e-01
-1.198593229055404663e-01 -4.276007711887359619e-01 8.216282725334167480e-01
-3.961678445339202881e-01 2.553725242614746094e-01 2.647339403629302979e-01
-5.771859362721443176e-02 -2.342919111251831055e-01 2.830068469047546387e-01
-3.276998996734619141e-01 3.583530187606811523e-01 -5.940704941749572754e-01
-1.838149875402450562e-01 3.908042609691619873e-01 -6.032013893127441406e-01
3.980714380741119385e-01 -2.563852667808532715e-01 2.836605012416839600e-01
3.963595330715179443e-01 4.160343110561370850e-01 5.229051113128662109e-01
2.787217199802398682e-01 -2.653585672378540039e-01 7.942414879798889160e-01
4.188967123627662659e-02 -1.294488757848739624e-01 -2.830053865909576416e-01
1.453995108604431152e-01 3.365226984024047852e-01 2.830068469047546387e-01
1.570636779069900513e-01 -1.477348208427429199e-01 2.419276833534240723e-01
-3.687810599803924561e-01 -1.183634325861930847e-01 7.451529502868652344e-01
-3.050161898136138916e-01 -4.392257630825042725e-01 -6.811928153038024902e-01
1.680059432983398438e-01 -3.167433738708496094e-01 2.830068469047546387e-01
-3.961678445339202881e-01 -2.870794236660003662e-01 5.719142556190490723e-01
2.019863724708557129e-01 3.842487335205078125e-01 -6.949585080146789551e-01
-3.961678445339202881e-01 8.974275551736354828e-03 9.634166955947875977e-02
-1.723958104848861694e-01 -3.704646825790405273e-01 -2.419232279062271118e-01
-1.591120809316635132e-01 2.179973721504211426e-01 7.668537497520446777e-01
2.404609769582748413e-01 3.908042609691619873e-01 -3.352135419845581055e-01
3.980714380741119385e-01 -3.541526794433593750e-01 -1.137247309088706970e-01
3.410618901252746582e-01 3.413201272487640381e-01 7.340590953826904297e-01
-2.575140297412872314e-01 4.381477534770965576e-01 -7.841553092002868652e-01
-2.664722800254821777e-01 3.908042609691619873e-01 4.083980023860931396e-01
3.436875045299530029e-01 -4.392257630825042725e-01 -7.066327929496765137e-01
-6.531762331724166870e-02 3.908042609691619873e-01 -9.657978080213069916e-03
-5.236694961786270142e-02 -3.912979364395141602e-01 1.615596562623977661e-01
-2.666771113872528076e-01 -3.912979364395141602e-01 -4.958100318908691406e-01
3.980714380741119385e-01 -1.068967655301094055e-01 -2.564891278743743896e-01
3.076909296214580536e-02 3.908042609691619873e-01 4.987062215805053711e-01
-3.595165908336639404e-01 4.160343110561370850e-01 5.213879346847534180e-01
-2.787951231002807617e-01 4.194351658225059509e-02 -7.942380905151367188e-01
-1.145689263939857483e-01 1.678656041622161865e-01 -7.942380905151367188e-01
6.892853230237960815e-02 3.908042609691619873e-01 -3.863734602928161621e-01
3.322693109512329102e-01 4.160343110561370850e-01 -1.842620223760604858e-01
1.421232521533966064e-01 -4.118390083312988281e-01 -6.551615595817565918e-01
3.980714380741119385e-01 -9.205975383520126343e-02 -8.170302510261535645e-01
3.980714380741119385e-01 -2.613834738731384277e-01 5.974214673042297363e-01
2.175894826650619507e-01 -2.324148267507553101e-02 -2.419232279062271118e-01
2.801284193992614746e-01 -4.118390083312988281e-01 6.640077233314514160e-01
-1.549622602760791779e-02 -3.080532550811767578e-01 -7.942380905151367188e-01
-3.657618537545204163e-02 1.422249078750610352e-01 2.830068469047546387e-01
-2.850694768130779266e-02 3.435370922088623047e-01 8.216282725334167480e-01
2.761352658271789551e-01 -3.359822034835815430e-01 -7.668513059616088867e-01
3.706836700439453125e-01 -7.707494776695966721e-03 3.252075240015983582e-02
1.347484625875949860e-02 -2.599155306816101074e-01 7.942414879798889160e-01
3.980714380741119385e-01 -3.341829180717468262e-01 -2.858057022094726562e-01
-2.908588945865631104e-01 -2.148462682962417603e-01 7.942414879798889160e-01
-1.970665901899337769e-01 -3.912979364395141602e-01 -2.917487360537052155e-02
3.751025497913360596e-01 -4.392257630825042725e-01 4.347043931484222412e-01
-3.090052902698516846e-01 4.160343110561370850e-01 1.243140101432800293e-01
-6.843171268701553345e-02 -3.912979364395141602e-01 -4.742418229579925537e-01
-3.687810599803924561e-01 -3.787189349532127380e-02 5.526634454727172852e-01
-3.376180306077003479e-02 -7.031932473182678223e-02 -2.830053865909576416e-01
3.706836700439453125e-01 2.094829231500625610e-01 -3.451607525348663330e-01
1.227850541472434998e-01 3.843340873718261719e-01 -5.819926261901855469e-01
2.003226429224014282e-01 -4.118390083312988281e-01 3.458771407604217529e-01
-7.140997052192687988e-02 -1.116700693964958191e-01 -7.668513059616088867e-01
3.980714380741119385e-01 -3.000639379024505615e-01 3.856479823589324951e-01
-2.794025838375091553e-01 -4.392257630825042725e-01 7.253779768943786621e-01
-1.877649575471878052e-01 -4.118390083312988281e-01 -3.138892948627471924e-01
-3.995926976203918457e-01 4.121024012565612793e-01 -3.535225987434387207e-01
7.889242470264434814e-02 3.843340873718261719e-01 -1.797216534614562988e-01
1.784140318632125854e-01 -2.509081065654754639e-01 -7.668513059616088867e-01
-2.874852716922760010e-01 1.064130589365959167e-01 -2.419232279062271118e-01
3.992592394351959229e-01 3.413201272487640381e-01 -6.296182870864868164e-01
-3.961678445339202881e-01 -1.967912316322326660e-01 2.338078469038009644e-01
-6.357589364051818848e-02 3.908042609691619873e-01 5.666480064392089844e-01
2.618233859539031982e-01 -4.775245487689971924e-02 7.668537497520446777e-01
-3.961678445339202881e-01 2.080591619014739990e-01 -7.486838102340698242e-01
-3.807946741580963135e-01 -4.392257630825042725e-01 -2.380184382200241089e-01
2.063429951667785645e-01 1.339855790138244629e-01 2.830068469047546387e-01
-1.783478707075119019e-01 -2.999414503574371338e-01 -7.942380905151367188e-01
3.980714380741119385e-01 -2.638273835182189941e-01 -4.448951482772827148e-01
-1.081188395619392395e-01 3.419759124517440796e-02 7.942414879798889160e-01
3.644273579120635986e-01 -4.118390083312988281e-01 6.098396778106689453e-01
2.979605495929718018e-01 1.969763338565826416e-01 -2.830053865909576416e-01
-6.046349555253982544e-02 -3.795734047889709473e-02 2.830068469047546387e-01
6.643614172935485840e-02 -4.392257630825042725e-01 6.602334976196289062e-01
1.441856026649475098e-01 -4.118390083312988281e-01 7.263780385255813599e-02
3.706836700439453125e-01 2.287619113922119141e-01 6.487290263175964355e-01
3.980714380741119385e-01 1.567044705152511597e-01 5.301072001457214355e-01
-2.943179011344909668e-01 3.823962509632110596e-01 -4.193910062313079834e-01
1.775776445865631104e-01 3.843340873718261719e-01 4.989231228828430176e-01
3.980714380741119385e-01 2.644473314285278320e-02 -8.181879520416259766e-01
3.706836700439453125e-01 2.102158963680267334e-01 -1.185693293809890747e-01
-1.839093714952468872e-01 3.908042609691619873e-01 3.075601458549499512e-01
-1.640460342168807983e-01 4.108754396438598633e-01 8.113587498664855957e-01
3.980714380741119385e-01 -1.688883900642395020e-01 -3.140629827976226807e-02
-2.832551598548889160e-01 -3.912979364395141602e-01 5.322830080986022949e-01
2.908377647399902344e-01 3.389686048030853271e-01 2.830068469047546387e-01
-1.584594398736953735e-01 -1.891312599182128906e-01 -2.830053865909576416e-01
7.572562247514724731e-02 3.908042609691619873e-01 2.387709170579910278e-01
-1.537654548883438110e-01 3.908042609691619873e-01 -2.430698722600936890e-01
3.083315193653106689e-01 -4.118390083312988281e-01 -3.314774334430694580e-01
2.332619018852710724e-02 1.231377124786376953e-01 -7.668513059616088867e-01
-3.275472819805145264e-01 -2.312184721231460571e-01 2.419276833534240723e-01
1.899456977844238281e-02 -4.118390083312988281e-01 -6.899632811546325684e-01
-3.687810599803924561e-01 -3.274135291576385498e-01 -3.871043212711811066e-03
1.821039617061614990e-01 -3.198509514331817627e-01 -2.419232279062271118e-01
4.353793337941169739e-02 -3.912979364395141602e-01 5.479905605316162109e-01
3.980714380741119385e-01 2.198117971420288086e-02 -2.078464180231094360e-01
5.406169965863227844e-02 -8.212105929851531982e-02 7.942414879798889160e-01
-3.687810599803924561e-01 8.514504879713058472e-02 8.051034212112426758e-01
3.980714380741119385e-01 -6.862125545740127563e-02 2.468897551298141479e-01
3.980714380741119385e-01 -7.477363571524620056e-03 6.386431455612182617e-01
3.980714380741119385e-01 2.676832973957061768e-01 2.291781306266784668e-01
3.706836700439453125e-01 -6.410951167345046997e-02 8.162846565246582031e-01
-3.687810599803924561e-01 2.527800202369689941e-01 -3.106642365455627441e-01
-1.542594581842422485e-01 5.347536131739616394e-02 -2.419232279062271118e-01
-2.680275738239288330e-01 3.843340873718261719e-01 -1.209037676453590393e-01
-3.687810599803924561e-01 6.791204959154129028e-02 -3.659829795360565186e-01
-8.512129075825214386e-03 -3.912979364395141602e-01 -1.018316298723220825e-01
3.980714380741119385e-01 -2.622022852301597595e-02 -5.385017395019531250e-01
8.465603739023208618e-02 2.782861888408660889e-01 -7.942380905151367188e-01
-3.687810599803924561e-01 -4.173331335186958313e-02 6.919467449188232422e-01
8.027130365371704102e-02 -4.026446864008903503e-02 2.830068469047546387e-01
3.706836700439453125e-01 2.931352257728576660e-01 -1.205041483044624329e-01
3.706836700439453125e-01 -2.794786691665649414e-01 1.858468800783157349e-01
-2.543552815914154053e-01 5.584424361586570740e-02 2.419276833534240723e-01
-6.141905859112739563e-02 -3.052539229393005371e-01 -2.419232279062271118e-01
-3.026636540889739990e-01 -4.118390083312988281e-01 -3.115749172866344452e-02
-3.687810599803924561e-01 2.871008217334747314e-01 -4.957417845726013184e-01
-3.664938211441040039e-01 4.160343110561370850e-01 7.422662377357482910e-01
2.255004644393920898e-01 3.908042609691619873e-01 5.280358195304870605e-01
-6.800388544797897339e-02 4.160343110561370850e-01 7.496019601821899414e-01
-3.687810599803924561e-01 -2.211005538702011108e-01 6.909557580947875977e-01
-3.961678445339202881e-01 2.803887128829956055e-01 4.644014835357666016e-01
3.980714380741119385e-01 -1.501335203647613525e-01 2.492392659187316895e-01
-3.687810599803924561e-01 1.940535306930541992e-01 8.082311153411865234e-01
-1.135508120059967041e-01 -1.844242066144943237e-01 7.942414879798889160e-01
-1.215380802750587463e-02 -3.912979364395141602e-01 7.561694979667663574e-01
-1.372004598379135132e-01 3.084140419960021973e-01 -7.668513059616088867e-01
-1.844997555017471313e-01 -2.475776523351669312e-01 2.830068469047546387e-01
1.572695076465606689e-01 3.908042609691619873e-01 -8.206397294998168945e-03
3.588960319757461548e-02 2.990391254425048828e-01 2.830068469047546387e-01
3.052600920200347900e-01 -3.912979364395141602e-01 3.828737735748291016e-01
-3.961678445339202881e-01 1.134485155344009399e-01 -4.957618713378906250e-01
1.264910250902175903e-01 2.940871119499206543e-01 7.668537497520446777e-01
3.706836700439453125e-01 1.803651601076126099e-01 1.161851286888122559e-01
-2.200344800949096680e-01 -3.912979364395141602e-01 -5.919117331504821777e-01
2.940286695957183838e-01 4.160343110561370850e-01 -6.084757298231124878e-02
2.692072689533233643e-01 1.871435791254043579e-01 -7.668513059616088867e-01
-4.880534484982490540e-02 3.908042609691619873e-01 3.303673863410949707e-01
1.655801385641098022e-01 -4.118390083312988281e-01 5.237344503402709961e-01
-3.209124505519866943e-01 3.823962509632110596e-01 -2.303634732961654663e-01
3.198189735412597656e-01 2.096937745809555054e-01 7.942414879798889160e-01
-3.961678445339202881e-01 2.272608280181884766e-01 3.946393728256225586e-01
-2.922244369983673096e-01 -3.445729613304138184e-01 7.942414879798889160e-01
-3.961678445339202881e-01 -1.459044218063354492e-01 -5.138259530067443848e-01
-3.961678445339202881e-01 3.037722706794738770e-01 2.034570872783660889e-01
2.021952271461486816e-01 -4.118390083312988281e-01 -5.475574135780334473e-01
-3.961678445339202881e-01 -1.661432832479476929e-01 4.806602299213409424e-01
5.781799182295799255e-02 -3.912979364395141602e-01 -3.186796605587005615e-01
-3.687810599803924561e-01 8.683186769485473633e-02 2.264882326126098633e-01
1.272461190819740295e-02 3.843340873718261719e-01 6.408149749040603638e-02
3.980714380741119385e-01 -4.203835427761077881e-01 7.200745344161987305e-01
1.377756744623184204e-01 5.628392100334167480e-02 -7.668513059616088867e-01
2.850975394248962402e-01 4.121305048465728760e-01 -4.321485757827758789e-01
2.958741188049316406e-01 -4.261026978492736816e-01 -8.216077834367752075e-02
-2.181829810142517090e-01 1.256819963455200195e-01 2.830068469047546387e-01
3.980714380741119385e-01 -7.577920705080032349e-02 4.279450476169586182e-01
-3.687810599803924561e-01 -3.401340246200561523e-01 7.024843692779541016e-01
1.228161752223968506e-01 -1.492770761251449585e-01 -2.419232279062271118e-01
9.195204824209213257e-02 -3.912979364395141602e-01 -4.931422472000122070e-01
-3.961678445339202881e-01 -1.007305234670639038e-01 -3.632338345050811768e-01
-3.687810599803924561e-01 1.000874787569046021e-01 -7.095334529876708984e-01
-3.687810599803924561e-01 -1.308746486902236938e-01 2.613231539726257324e-02
-3.276998996734619141e-01 3.492752909660339355e-01 6.590597033500671387e-01
-3.961678445339202881e-01 -8.021564781665802002e-02 3.193638920783996582e-01
-1.131361350417137146e-01 -3.912979364395141602e-01 7.098020315170288086e-01
-3.961678445339202881e-01 -4.136222302913665771e-01 1.052368506789207458e-01
-2.065971344709396362e-01 3.908042609691619873e-01 -2.517870999872684479e-02
2.147278934717178345e-01 -4.118390083312988281e-01 7.463949918746948242e-01
-1.059560850262641907e-01 3.926125764846801758e-01 -8.113563060760498047e-01
-3.687810599803924561e-01 -3.368828296661376953e-01 3.378747701644897461e-01
-1.228925809264183044e-01 3.843340873718261719e-01 -4.752318263053894043e-01
3.055713176727294922e-01 3.823962509632110596e-01 -7.797233462333679199e-01
-2.701672017574310303e-01 2.400063872337341309e-01 7.942414879798889160e-01
2.194088399410247803e-01 2.381669282913208008e-01 2.830068469047546387e-01
2.088661938905715942e-01 -3.847814723849296570e-02 -7.668513059616088867e-01
-2.021842896938323975e-01 1.027110964059829712e-01 7.668537497520446777e-01
1.852838248014450073e-01 -3.912979364395141602e-01 -3.936338052153587341e-02
-3.961678445339202881e-01 -7.355822622776031494e-02 -9.699276834726333618e-02
3.608609735965728760e-02 2.334739714860916138e-01 -2.419232279062271118e-01
3.384101688861846924e-01 -2.511862218379974365e-01 -7.942380905151367188e-01
3.277389705181121826e-01 -3.912979364395141602e-01 7.859408855438232422e-02
1.297000050544738770e-01 9.669677168130874634e-02 7.942414879798889160e-01
2.703297734260559082e-01 1.629367354325950146e-03 2.830068469047546387e-01
-2.661439217627048492e-02 -4.118390083312988281e-01 4.344242513179779053e-01
3.706836700439453125e-01 1.795619130134582520e-01 -1.899951994419097900e-01
-3.049529194831848145e-01 2.191942036151885986e-01 2.419276833534240723e-01
3.980714380741119385e-01 -4.297946095466613770e-01 5.197804570198059082e-01
3.980714380741119385e-01 -3.678872585296630859e-01 -7.220219969749450684e-01
-3.136520981788635254e-01 -1.252127438783645630e-01 -2.830053865909576416e-01
-4.098632335662841797e-01 3.739932775497436523e-01 -1.517997235059738159e-01
-3.174293637275695801e-01 -3.290893435478210449e-01 2.419276833534240723e-01
-3.687810599803924561e-01 3.295014426112174988e-02 -1.172098293900489807e-01
-1.531549841165542603e-01 3.390650153160095215e-01 2.419276833534240723e-01
-2.731764018535614014e-01 3.908042609691619873e-01 -6.799478530883789062e-01
-3.924447894096374512e-01 -8.027609437704086304e-02 -8.216258287429809570e-01
3.980714380741119385e-01 -1.159120276570320129e-01 -1.769042611122131348e-01
2.276451438665390015e-01 2.456110566854476929e-01 -2.830053865909576416e-01
-3.961678445339202881e-01 1.694982051849365234e-01 7.017142772674560547e-01
3.980714380741119385e-01 8.091493695974349976e-02 7.141786813735961914e-01
6.028968840837478638e-02 -3.225719630718231201e-01 7.668537497520446777e-01
-3.961678445339202881e-01 -4.194307029247283936e-01 -4.806477427482604980e-01
-3.861382603645324707e-01 -4.392257630825042725e-01 -1.488849371671676636e-01
-3.276998996734619141e-01 3.566611707210540771e-01 -3.372788727283477783e-01
4.014953076839447021e-01 4.117650389671325684e-01 5.887022241950035095e-02
-3.961678445339202881e-01 1.233746632933616638e-01 8.182164281606674194e-02
3.223863542079925537e-01 4.160343110561370850e-01 2.002531439065933228e-01
-3.949539065361022949e-01 -4.392257630825042725e-01 -7.230662107467651367e-01
3.706836700439453125e-01 -9.851024299860000610e-02 -3.399707674980163574e-01
4.117648303508758545e-01 3.652318418025970459e-01 2.507564127445220947e-01
-3.961678445339202881e-01 2.809168100357055664e-01 -3.929269313812255859e-02
3.545373678207397461e-01 -3.419483304023742676e-01 2.830068469047546387e-01
3.706836700439453125e-01 -2.122577875852584839e-01 -2.507288455963134766e-01
3.296015262603759766e-01 3.544913828372955322e-01 -3.194196224212646484e-01
3.980714380741119385e-01 1.325568109750747681e-01 3.036001622676849365e-01
3.706836700439453125e-01 3.389856815338134766e-01 4.395339190959930420e-01
-3.687810599803924561e-01 -3.443129062652587891e-01 -6.206479668617248535e-01
-3.010461032390594482e-01 -3.912878930568695068e-01 -7.668513059616088867e-01
3.980714380741119385e-01 8.570732176303863525e-02 -6.312749385833740234e-01
9.690898656845092773e-02 3.843340873718261719e-01 3.449021875858306885e-01
2.363091856241226196e-01 -4.392257630825042725e-01 -7.303104996681213379e-01
-1.839937269687652588e-01 -1.542092207819223404e-02 2.830068469047546387e-01
-3.961678445339202881e-01 3.337535262107849121e-01 5.651278495788574219e-01
2.051421403884887695e-01 -9.902542829513549805e-02 -2.419232279062271118e-01
-3.785756826400756836e-01 4.160343110561370850e-01 -2.854482457041740417e-02
3.980714380741119385e-01 -2.087987959384918213e-01 7.121585607528686523e-01
1.945051252841949463e-01 -2.381836473941802979e-01 2.830068469047546387e-01
3.876061141490936279e-01 -4.392257630825042725e-01 -5.813329815864562988e-01
-3.296548128128051758e-01 4.160343110561370850e-01 3.118384778499603271e-01
-3.687810599803924561e-01 1.532213687896728516e-01 -2.991115152835845947e-01
3.980714380741119385e-01 -1.314429342746734619e-01 -5.564432740211486816e-01
-3.027901649475097656e-01 -2.183978259563446045e-02 7.668537497520446777e-01
-3.961678445339202881e-01 -1.749179698526859283e-02 1.848819702863693237e-01
3.980714380741119385e-01 -9.923426806926727295e-02 7.010505795478820801e-01
2.141073942184448242e-01 1.314583569765090942e-01 -2.830053865909576416e-01
3.706836700439453125e-01 -7.432141900062561035e-02 1.045179441571235657e-01
-1.274911910295486450e-01 -8.235650509595870972e-02 7.668537497520446777e-01
3.706836700439453125e-01 2.767459452152252197e-01 -7.580236196517944336e-01
2.382128983736038208e-01 3.788629472255706787e-01 7.394659519195556641e-01
-3.961678445339202881e-01 -1.624975353479385376e-01 -7.312774658203125000e-01
-3.671009792014956474e-03 -2.071109712123870850e-01 -2.419232279062271118e-01
2.863144576549530029e-01 4.160343110561370850e-01 7.632651925086975098e-01
-3.961678445339202881e-01 1.234308853745460510e-01 -5.890823006629943848e-01
2.704271972179412842e-01 -3.912979364395141602e-01 2.631244361400604248e-01
3.980714380741119385e-01 -3.205638527870178223e-01 7.991634011268615723e-01
-3.000179529190063477e-01 2.545562088489532471e-01 -2.419232279062271118e-01
3.159121572971343994e-01 -2.101342082023620605e-01 2.419276833534240723e-01
1.338708847761154175e-01 -4.392257630825042725e-01 -8.113984465599060059e-01
-1.868783831596374512e-01 -4.392257630825042725e-01 7.741552591323852539e-02
3.706836700439453125e-01 2.682124376296997070e-01 8.103787302970886230e-01
1.743526384234428406e-02 -2.957223653793334961e-01 2.419276833534240723e-01
2.422763258218765259e-01 -3.912979364395141602e-01 -6.571657061576843262e-01
2.578071653842926025e-01 2.740781605243682861e-01 7.942414879798889160e-01
-3.687810599803924561e-01 2.294747829437255859e-01 6.137394905090332031e-02
-3.961678445339202881e-01 2.305813692510128021e-02 -6.913720369338989258e-01
-6.792929023504257202e-02 3.908042609691619873e-01 -1.799234747886657715e-01
-3.961678445339202881e-01 3.272883594036102295e-01 -6.499766111373901367e-01
3.980714380741119385e-01 -3.859803974628448486e-01 -3.464861214160919189e-01
1.793438196182250977e-02 3.843340873718261719e-01 -6.161286830902099609e-01
-3.961678445339202881e-01 -1.034678965806961060e-01 2.358420789241790771e-01
-2.214371412992477417e-01 3.843340873718261719e-01 2.083990871906280518e-01
-3.961678445339202881e-01 -7.106243818998336792e-02 -5.654768347740173340e-01
-3.961678445339202881e-01 2.655827999114990234e-01 -4.217435121536254883e-01
-3.961678445339202881e-01 -1.742340177297592163e-01 -2.598858773708343506e-01
3.138749301433563232e-01 3.823962509632110596e-01 5.852200984954833984e-01
-1.451576501131057739e-01 -3.557260632514953613e-01 2.830068469047546387e-01
-1.546881794929504395e-01 3.843340873718261719e-01 5.251421332359313965e-01
-2.673548273742198944e-02 -1.071254909038543701e-02 7.942414879798889160e-01
3.454596400260925293e-01 -4.118390083312988281e-01 2.049943208694458008e-01
-1.823139190673828125e-01 3.843340873718261719e-01 6.366510987281799316e-01
3.980714380741119385e-01 -2.043548226356506348e-01 -6.237234473228454590e-01
3.706836700439453125e-01 3.307383060455322266e-01 6.480442285537719727e-01
2.850975394248962402e-01 4.101364612579345703e-01 -6.813193559646606445e-01
-3.961678445339202881e-01 -2.673596441745758057e-01 7.998401671648025513e-02
3.980714380741119385e-01 -4.441947117447853088e-02 5.269575119018554688e-01
3.706836700439453125e-01 -2.011368125677108765e-01 5.191037058830261230e-01
3.571228384971618652e-01 3.413201272487640381e-01 -5.000140666961669922e-01
-3.961678445339202881e-01 2.009133808314800262e-02 -4.412252902984619141e-01
-1.532413363456726074e-01 -2.953066825866699219e-01 -2.830053865909576416e-01
-3.464517593383789062e-01 5.119202286005020142e-02 -2.419232279062271118e-01
-3.961678445339202881e-01 2.033039480447769165e-01 -5.205973386764526367e-01
-1.644868254661560059e-01 -1.665248274803161621e-01 -7.668513059616088867e-01
-3.149704337120056152e-01 3.928033411502838135e-01 8.113587498664855957e-01
-1.335376501083374023e-01 3.089873790740966797e-01 -2.419232279062271118e-01
-1.703264415264129639e-01 3.843340873718261719e-01 -3.928114771842956543e-01
-3.687810599803924561e-01 2.925409376621246338e-02 3.465277552604675293e-01
-1.140136793255805969e-01 -4.118390083312988281e-01 -5.653333067893981934e-01
-3.687810599803924561e-01 -3.065200448036193848e-01 4.844656586647033691e-01
-8.880240470170974731e-02 3.908042609691619873e-01 -5.710724592208862305e-01
-1.871725358068943024e-02 3.843340873718261719e-01 4.284380376338958740e-01
8.044560998678207397e-02 -3.912979364395141602e-01 3.570884466171264648e-02
-6.002451851963996887e-02 5.912771821022033691e-02 2.419276833534240723e-01
3.980714380741119385e-01 -1.075484007596969604e-01 3.265760838985443115e-01
-1.155900582671165466e-01 8.597741276025772095e-02 -2.830053865909576416e-01
-3.528586626052856445e-01 3.413201272487640381e-01 -7.145346999168395996e-01
3.980714380741119385e-01 2.479244023561477661e-01 3.153887987136840820e-01
-2.123189624398946762e-03 2.179481536149978638e-01 2.419276833534240723e-01
-6.591003388166427612e-02 -4.294592738151550293e-01 -6.573002338409423828e-01
2.217613458633422852e-01 3.843340873718261719e-01 -5.872911214828491211e-01
1.971990168094635010e-01 3.843340873718261719e-01 -2.510471343994140625e-01
-3.961678445339202881e-01 -1.700520962476730347e-01 7.854760289192199707e-01
-7.528654485940933228e-02 2.263332717120647430e-03 -2.830053865909576416e-01
-2.290760576725006104e-01 -3.912979364395141602e-01 4.130909740924835205e-01
3.980714380741119385e-01 2.822261154651641846e-01 8.878580480813980103e-02
1.492390334606170654e-01 4.075851142406463623e-01 8.113587498664855957e-01
-3.329993486404418945e-01 3.413201272487640381e-01 7.220976948738098145e-01
3.706836700439453125e-01 9.270964562892913818e-02 1.987892091274261475e-01
-3.735674321651458740e-01 4.160343110561370850e-01 4.541771411895751953e-01
3.706836700439453125e-01 9.181000292301177979e-02 -3.222119435667991638e-02
-3.192005455493927002e-01 4.160343110561370850e-01 -5.153099298477172852e-01
-3.687810599803924561e-01 1.583320498466491699e-01 4.609274268150329590e-01
-2.370683699846267700e-01 -3.145615756511688232e-01 -2.830053865909576416e-01
-2.868466973304748535e-01 -2.719402015209197998e-01 -7.942380905151367188e-01
-3.961678445339202881e-01 -3.424262702465057373e-01 -5.124704837799072266e-01
-3.687810599803924561e-01 -3.545673489570617676e-01 -3.232481479644775391e-01
-1.208834648132324219e-01 1.755446642637252808e-01 2.419276833534240723e-01
-3.517933189868927002e-02 -3.499808311462402344e-01 7.942414879798889160e-01
3.706836700439453125e-01 1.391805857419967651e-01 6.538025140762329102e-01
3.706836700439453125e-01 1.451196074485778809e-01 -4.177744388580322266e-01
2.507285177707672119e-01 -2.084393501281738281e-01 -7.668513059616088867e-01
-2.341084033250808716e-01 -1.007185727357864380e-01 2.830068469047546387e-01
-2.953982949256896973e-01 -4.118390083312988281e-01 6.288084387779235840e-01
3.706836700439453125e-01 1.449127793312072754e-01 -6.758311986923217773e-01
1.619765609502792358e-01 -4.392257630825042725e-01 7.061110138893127441e-01
3.764851391315460205e-01 3.413201272487640381e-01 -2.738945186138153076e-01
-3.687810599803924561e-01 2.088232636451721191e-01 3.138957917690277100e-01
1.147354915738105774e-01 3.908042609691619873e-01 5.777679681777954102e-01
1.077351793646812439e-01 1.075305789709091187e-01 2.830068469047546387e-01
-3.995926976203918457e-01 4.119196832180023193e-01 6.078286096453666687e-02
-6.737626343965530396e-02 3.843340873718261719e-01 9.301642328500747681e-02
3.296015262603759766e-01 3.646886348724365234e-01 3.996465802192687988e-01
-3.687810599803924561e-01 1.213936582207679749e-01 -1.006769612431526184e-01
-5.215054377913475037e-03 4.142069220542907715e-01 -6.949585080146789551e-01
-7.938832789659500122e-02 -1.634513884782791138e-01 2.419276833534240723e-01
8.049972355365753174e-02 -1.444756537675857544e-01 -7.942380905151367188e-01
3.047871589660644531e-01 2.085241489112377167e-02 -2.419232279062271118e-01
-4.885374009609222412e-02 1.903415024280548096e-01 -7.668513059616088867e-01
-3.140718042850494385e-01 -3.912979364395141602e-01 1.419553607702255249e-01
7.910960912704467773e-02 3.843340873718261719e-01 -4.852362871170043945e-01
3.706836700439453125e-01 1.584967076778411865e-01 8.173639774322509766e-01
-3.878672420978546143e-02 3.843340873718261719e-01 -1.041610613465309143e-01
-1.772142946720123291e-01 -4.392257630825042725e-01 7.432964444160461426e-01
-6.800799816846847534e-02 2.561165392398834229e-01 7.942414879798889160e-01
-3.961678445339202881e-01 -2.552547156810760498e-01 -2.431512027978897095e-01
3.980714380741119385e-01 1.538308411836624146e-01 -2.929284870624542236e-01
1.908232271671295166e-01 -3.912979364395141602e-01 -1.389999538660049438e-01
6.283006817102432251e-02 3.573238253593444824e-01 8.216282725334167480e-01
1.406613439321517944e-01 3.843340873718261719e-01 -3.945043087005615234e-01
3.689034879207611084e-01 3.824023008346557617e-01 -2.155344747006893158e-02
-3.734921216964721680e-01 3.413201272487640381e-01 1.123586520552635193e-01
3.098998665809631348e-01 -3.669815659523010254e-01 7.942414879798889160e-01
1.567182838916778564e-01 5.356030538678169250e-02 -2.419232279062271118e-01
-1.406022161245346069e-01 -2.711288928985595703e-01 2.419276833534240723e-01
-3.961678445339202881e-01 1.074241548776626587e-01 2.993670105934143066e-01
2.796283960342407227e-01 -1.514809876680374146e-01 7.668537497520446777e-01
-3.961678445339202881e-01 3.368239402770996094e-01 -5.405580997467041016e-01
1.284519582986831665e-01 3.843340873718261719e-01 -8.886760473251342773e-02
-2.011942714452743530e-01 -4.118390083312988281e-01 5.601025223731994629e-01
3.183982074260711670e-01 4.160343110561370850e-01 6.828228831291198730e-01
-3.687810599803924561e-01 -6.025983765721321106e-02 -7.127926945686340332e-01
1.687358915805816650e-01 2.418116927146911621e-01 -7.668513059616088867e-01
-1.515043079853057861e-01 3.843340873718261719e-01 -1.853544414043426514e-01
-2.104286402463912964e-01 -1.341077238321304321e-01 -2.830053865909576416e-01
3.179594278335571289e-01 -3.912979364395141602e-01 -1.330428570508956909e-02
3.980714380741119385e-01 -2.676709294319152832e-01 1.138446554541587830e-01
3.928362727165222168e-01 -4.392257630825042725e-01 1.993765980005264282e-01
-3.087111115455627441e-01 -3.948652744293212891e-02 -7.668513059616088867e-01
-3.961678445339202881e-01 -3.731525540351867676e-01 2.520325779914855957e-01
-1.280524581670761108e-01 3.908042609691619873e-01 1.915599703788757324e-01
3.980714380741119385e-01 -4.390892386436462402e-01 -2.829571664333343506e-01
1.361852698028087616e-02 3.413201272487640381e-01 -8.096162676811218262e-01
-9.469856321811676025e-02 -4.392257630825042725e-01 -7.263976931571960449e-01
3.778848052024841309e-01 3.413201272487640381e-01 -7.241917848587036133e-01
-3.961678445339202881e-01 -4.301169216632843018e-01 5.638607144355773926e-01
1.580737680196762085e-01 -3.912979364395141602e-01 -2.856169342994689941e-01
3.706836700439453125e-01 -2.626586258411407471e-01 -5.692139267921447754e-02
-3.999952971935272217e-02 -4.392257630825042725e-01 -3.198162466287612915e-02
3.980714380741119385e-01 2.972409687936306000e-02 -4.645767509937286377e-01
8.433403074741363525e-02 -2.320970296859741211e-01 -7.668513059616088867e-01
-2.831959426403045654e-01 4.055920839309692383e-01 2.025002390146255493e-01
7.060199975967407227e-02 3.823962509632110596e-01 -7.658070921897888184e-01
7.368294894695281982e-02 -3.912979364395141602e-01 2.482623010873794556e-01
3.980714380741119385e-01 3.031166195869445801e-01 -3.444207608699798584e-01
-2.831959426403045654e-01 4.042385816574096680e-01 4.856986403465270996e-01
3.706836700439453125e-01 -3.025911748409271240e-01 -6.068753004074096680e-01
-3.687810599803924561e-01 -8.856482058763504028e-02 -1.747585833072662354e-01
1.191372871398925781e-01 2.252436727285385132e-01 -2.830053865909576416e-01
-1.188863534480333328e-02 -3.912979364395141602e-01 -1.754072159528732300e-01
-9.045626968145370483e-03 3.843340873718261719e-01 -2.713682949542999268e-01
1.802675276994705200e-01 3.843340873718261719e-01 3.234724998474121094e-01
-5.576589703559875488e-02 -4.392257630825042725e-01 -8.024904727935791016e-01
-1.563388556241989136e-01 2.134158313274383545e-01 -2.830053865909576416e-01
-1.088216826319694519e-01 3.843340873718261719e-01 -6.772187948226928711e-01
1.323216259479522705e-01 -4.118390083312988281e-01 -7.102152705192565918e-01
-3.687810599803924561e-01 2.950369119644165039e-01 -2.124450057744979858e-01
2.054152488708496094e-01 3.396724760532379150e-01 2.419276833534240723e-01
4.096462726593017578e-01 3.824023008346557617e-01 6.982070803642272949e-01
1.492601186037063599e-01 3.843340873718261719e-01 1.742539852857589722e-01
-3.961678445339202881e-01 -3.417515456676483154e-01 -2.188077419996261597e-01
-3.961678445339202881e-01 -3.689224123954772949e-01 6.107072234153747559e-01
-2.813233435153961182e-01 -4.118390083312988281e-01 2.396886348724365234e-01
8.667439222335815430e-02 -4.392257630825042725e-01 7.338000535964965820e-01
-1.355909556150436401e-01 -2.261399328708648682e-01 -7.668513059616088867e-01
3.706836700439453125e-01 -2.432953119277954102e-01 4.416765868663787842e-01
-1.247360557317733765e-01 -4.392257630825042725e-01 -5.993448197841644287e-02
3.296015262603759766e-01 3.487873375415802002e-01 1.374501436948776245e-01
-3.687810599803924561e-01 -3.643539547920227051e-01 -1.023818626999855042e-01
3.807644918560981750e-02 -3.912979364395141602e-01 1.160967722535133362e-01
3.706836700439453125e-01 -1.335886269807815552e-01 4.878523349761962891e-01
3.706836700439453125e-01 -1.444616019725799561e-01 -4.777249097824096680e-01
2.172380685806274414e-01 3.951268643140792847e-02 7.942414879798889160e-01
-3.290885388851165771e-01 -1.655709594488143921e-01 -7.942380905151367188e-01
3.980714380741119385e-01 1.592116057872772217e-01 -5.723326206207275391e-01
-2.407552897930145264e-01 -4.118390083312988281e-01 -3.585328161716461182e-01
-1.920502930879592896e-01 -3.912979364395141602e-01 -7.604644298553466797e-01
1.743365824222564697e-02 1.389918327331542969e-01 7.668537497520446777e-01
-3.687810599803924561e-01 1.520506441593170166e-01 6.222057342529296875e-01
2.888788282871246338e-01 2.369862608611583710e-02 7.668537497520446777e-01
3.170146048069000244e-01 -3.339248895645141602e-01 -2.419232279062271118e-01
-2.638657391071319580e-01 3.261338174343109131e-02 7.942414879798889160e-01
-2.587008476257324219e-01 3.488335013389587402e-01 -7.394624948501586914e-01
3.980714380741119385e-01 1.757033020257949829e-01 -7.545435428619384766e-01
1.693825125694274902e-01 3.843340873718261719e-01 -1.965838670730590820e-01
-5.471183359622955322e-02 3.908042609691619873e-01 6.396523118019104004e-01
1.589633673429489136e-01 -4.118390083312988281e-01 4.451847672462463379e-01
-3.961678445339202881e-01 -2.705033719539642334e-01 -6.270508468151092529e-02
2.429661154747009277e-01 6.924544274806976318e-02 -2.419232279062271118e-01
-3.687810599803924561e-01 -2.511631250381469727e-01 -7.575346231460571289e-01
3.980714380741119385e-01 2.007817327976226807e-01 -3.670241683721542358e-02
1.587391947396099567e-03 -2.141540870070457458e-02 -7.668513059616088867e-01
-3.995926976203918457e-01 3.971419036388397217e-01 -7.802373915910720825e-02
-3.961678445339202881e-01 1.962102353572845459e-01 -2.613125601783394814e-03
2.593072354793548584e-01 1.863112151622772217e-01 7.668537497520446777e-01
-2.481351345777511597e-01 -3.912979364395141602e-01 -2.262307703495025635e-01
-4.098632335662841797e-01 3.601984977722167969e-01 3.827100992202758789e-01
-2.247776538133621216e-01 3.823962509632110596e-01 7.379628419876098633e-01
2.850975394248962402e-01 4.115130007266998291e-01 4.523326754570007324e-01
-2.790792882442474365e-01 -4.392257630825042725e-01 7.886990904808044434e-01
-3.307703435420989990e-01 -4.118390083312988281e-01 3.987278640270233154e-01
3.867516517639160156e-01 4.160343110561370850e-01 -2.482206970453262329e-01
-1.074541509151458740e-01 -4.118390083312988281e-01 -2.958995401859283447e-01
-1.646956652402877808e-01 -4.118390083312988281e-01 3.572471141815185547e-01
3.134833276271820068e-01 -1.121885627508163452e-01 -2.419232279062271118e-01
3.420609235763549805e-01 -1.518645286560058594e-01 -7.942380905151367188e-01
9.380557457916438580e-04 -4.118390083312988281e-01 -5.055605173110961914e-01
-2.302076220512390137e-01 3.908042609691619873e-01 3.014002442359924316e-01
-3.961678445339202881e-01 6.351305544376373291e-02 7.136204242706298828e-01
-3.276998996734619141e-01 3.698294460773468018e-01 -4.830665290355682373e-01
3.980714380741119385e-01 -2.530176639556884766e-01 -6.714052557945251465e-01
3.458994328975677490e-01 -4.118390083312988281e-01 -1.696800589561462402e-01
-1.057663261890411377e-01 3.413201272487640381e-01 8.128146529197692871e-01
-2.991584837436676025e-01 4.160343110561370850e-01 3.593215048313140869e-01
-2.874250113964080811e-01 1.845400482416152954e-01 -2.830053865909576416e-01
-1.683383882045745850e-01 2.133385241031646729e-01 -7.942380905151367188e-01
2.850975394248962402e-01 4.097167551517486572e-01 3.343826234340667725e-01
-3.503665924072265625e-01 2.691040337085723877e-01 7.668537497520446777e-01
-3.681474924087524414e-01 3.076399266719818115e-01 2.830068469047546387e-01
1.302903890609741211e-01 -8.502871543169021606e-02 -7.668513059616088867e-01
1.579552888870239258e-01 4.160343110561370850e-01 -7.581028938293457031e-01
3.980714380741119385e-01 3.011235296726226807e-01 1.599400937557220459e-01
3.504397869110107422e-01 2.270580083131790161e-01 -7.942380905151367188e-01
-3.961678445339202881e-01 -1.988214403390884399e-01 1.322029232978820801e-01
-3.687810599803924561e-01 -1.454757004976272583e-01 -4.281624555587768555e-01
3.980714380741119385e-01 6.979697197675704956e-02 9.310779720544815063e-02
2.792900204658508301e-01 3.843340873718261719e-01 -5.059139728546142578e-01
1.340616494417190552e-01 3.843340873718261719e-01 -3.172880113124847412e-01
-3.687810599803924561e-01 2.842031121253967285e-01 -1.092767491936683655e-01
1.738174557685852051e-01 1.390741765499114990e-01 7.942414879798889160e-01
-2.239422798156738281e-01 -4.392257630825042725e-01 -3.689077449962496758e-03
-2.342620193958282471e-01 3.908042609691619873e-01 5.817149952054023743e-02
3.980714380741119385e-01 -3.389502167701721191e-01 6.110585927963256836e-01
3.078314661979675293e-01 -4.118390083312988281e-01 -2.537550628185272217e-01
-8.541692793369293213e-02 -3.912979364395141602e-01 6.205811500549316406e-01
-1.792234182357788086e-01 -3.454796075820922852e-01 7.668537497520446777e-01
-2.538181245326995850e-01 1.775778830051422119e-01 2.419276833534240723e-01
7.792504038661718369e-03 -4.118390083312988281e-01 3.728843629360198975e-01
-3.961678445339202881e-01 -4.584192857146263123e-02 -6.461791992187500000e-01
-3.166391849517822266e-01 -4.118390083312988281e-01 -5.607256293296813965e-01
-2.036893665790557861e-01 3.908042609691619873e-01 4.691035151481628418e-01
-1.234739497303962708e-01 -4.118390083312988281e-01 1.223229542374610901e-01
-1.834675818681716919e-01 1.283477842807769775e-01 -2.830053865909576416e-01
3.822293579578399658e-01 -4.392257630825042725e-01 -8.083351254463195801e-01
-7.725359499454498291e-02 -1.942615956068038940e-02 -7.942380905151367188e-01
3.706836700439453125e-01 -3.510039746761322021e-01 -4.143576025962829590e-01
-2.365633249282836914e-01 3.908042609691619873e-01 -2.436743080615997314e-01
-3.961678445339202881e-01 -2.187169194221496582e-01 5.502848625183105469e-01
-3.961678445339202881e-01 -1.417335569858551025e-01 -3.824937716126441956e-02
3.127292692661285400e-01 -3.912979364395141602e-01 -4.160213470458984375e-01
3.706836700439453125e-01 2.702638693153858185e-02 5.066232085227966309e-01
-3.283254504203796387e-01 -9.638494998216629028e-02 2.830068469047546387e-01
3.980714380741119385e-01 -3.240790665149688721e-01 -3.690674528479576111e-02
3.980714380741119385e-01 -2.951003424823284149e-02 -3.374284803867340088e-01
-3.172536492347717285e-01 4.160343110561370850e-01 -1.516029387712478638e-01
-3.941024467349052429e-02 3.843340873718261719e-01 -4.518482387065887451e-01
1.504991203546524048e-01 3.908042609691619873e-01 4.083377718925476074e-01
2.747808210551738739e-02 3.908042609691619873e-01 3.584138154983520508e-01
2.816826999187469482e-01 -4.118390083312988281e-01 5.712836980819702148e-01
-3.606441617012023926e-01 4.160343110561370850e-01 -2.887395620346069336e-01
1.016455516219139099e-01 3.843340873718261719e-01 5.364529415965080261e-02
-3.687810599803924561e-01 1.857609748840332031e-01 -8.049805164337158203e-01
3.465380370616912842e-01 4.160343110561370850e-01 4.974621906876564026e-02
3.706836700439453125e-01 -1.431322246789932251e-01 -6.708580851554870605e-01
3.173780813813209534e-02 -4.118390083312988281e-01 -4.752579331398010254e-02
2.957516014575958252e-01 3.823962509632110596e-01 -2.391369640827178955e-01
3.897698819637298584e-01 4.160343110561370850e-01 3.134760856628417969e-01
-4.034723639488220215e-01 3.413201272487640381e-01 -4.384349882602691650e-01
3.706836700439453125e-01 -3.004073202610015869e-01 -1.594346165657043457e-01
3.296015262603759766e-01 3.609234094619750977e-01 -1.072294637560844421e-01
-2.219843715429306030e-01 -4.118390083312988281e-01 -7.061658501625061035e-01
-3.428903520107269287e-01 3.413201272487640381e-01 5.026562213897705078e-01
-1.806050091981887817e-01 1.105357334017753601e-01 -7.668513059616088867e-01
2.312778383493423462e-01 3.908042609691619873e-01 -3.607527911663055420e-02
-3.961678445339202881e-01 -3.689957261085510254e-01 4.587937891483306885e-02
-2.732908427715301514e-01 3.908042609691619873e-01 -5.751067996025085449e-01
3.457046747207641602e-01 3.413201272487640381e-01 -5.577505826950073242e-01
-2.698007524013519287e-01 -4.118390083312988281e-01 4.526921510696411133e-01
3.056164979934692383e-01 -4.118390083312988281e-01 -7.721065282821655273e-01
3.980714380741119385e-01 -1.665368676185607910e-01 6.365738511085510254e-01
-3.690300583839416504e-01 3.824023008346557617e-01 2.292082458734512329e-01
3.980714380741119385e-01 -1.000398322939872742e-01 -7.334973812103271484e-01
3.004536405205726624e-02 1.292936056852340698e-01 -2.419232279062271118e-01
3.706836700439453125e-01 -2.988881766796112061e-01 -5.217007994651794434e-01
3.532682359218597412e-01 1.511951833963394165e-01 2.419276833534240723e-01
6.483849138021469116e-02 3.843340873718261719e-01 1.598848700523376465e-01
-3.961678445339202881e-01 2.032176963984966278e-02 -2.960441112518310547e-01
2.360541671514511108e-01 -1.317491680383682251e-01 -7.942380905151367188e-01
-3.961678445339202881e-01 2.250759899616241455e-01 1.746576279401779175e-01
6.872520595788955688e-02 -4.118390083312988281e-01 -2.537470459938049316e-01
-5.032127723097801208e-02 1.214046999812126160e-01 -7.942380905151367188e-01
-1.706949323415756226e-01 -2.351591177284717560e-02 -2.830053865909576416e-01
1.110475733876228333e-01 -2.045506238937377930e-01 -2.830053865909576416e-01
-1.034549698233604431e-01 -3.144200146198272705e-01 -7.668513059616088867e-01
-3.961678445339202881e-01 7.241165731102228165e-03 2.662290036678314209e-01
-1.645892411470413208e-01 -4.392257630825042725e-01 -7.874867916107177734e-01
-2.156146019697189331e-01 2.811357080936431885e-01 7.668537497520446777e-01
3.706836700439453125e-01 -3.672336041927337646e-01 3.984377086162567139e-01
1.330224573612213135e-01 3.843340873718261719e-01 -6.499053239822387695e-01
3.329560905694961548e-02 -4.118390083312988281e-01 4.776149392127990723e-01
-1.941066086292266846e-01 3.378370404243469238e-01 -2.830053865909576416e-01
5.174003541469573975e-03 -7.873295247554779053e-02 2.830068469047546387e-01
7.201042026281356812e-03 3.908042609691619873e-01 5.575411915779113770e-01
-3.961678445339202881e-01 1.841062903404235840e-01 1.089548841118812561e-01
-3.008262217044830322e-01 4.160343110561370850e-01 6.186442971229553223e-01
2.917444109916687012e-01 2.047256976366043091e-01 2.419276833534240723e-01
1.985826045274734497e-01 -4.118390083312988281e-01 -4.761806428432464600e-01
-2.455948591232299805e-01 -4.392257630825042725e-01 -7.794793695211410522e-02
-3.961678445339202881e-01 -4.365228414535522461e-01 7.220414876937866211e-01
-1.002449914813041687e-01 3.843340873718261719e-01 2.902581691741943359e-01
3.706836700439453125e-01 -1.907718926668167114e-01 3.483701944351196289e-01
-3.901595473289489746e-01 4.160343110561370850e-01 -1.995408087968826294e-01
3.980714380741119385e-01 -4.334392398595809937e-02 -2.421210147440433502e-02
1.510865427553653717e-02 3.843340873718261719e-01 -1.487755030393600464e-01
-3.216845989227294922e-01 9.998808056116104126e-02 -7.668513059616088867e-01
3.908683359622955322e-01 3.823962509632110596e-01 -4.376468062400817871e-01
-8.695764839649200439e-02 -1.164573282003402710e-01 2.830068469047546387e-01
-4.706611111760139465e-02 3.843340873718261719e-01 4.892951548099517822e-01
3.706836700439453125e-01 -3.341848403215408325e-02 -2.711755335330963135e-01
-6.999564170837402344e-02 3.823962509632110596e-01 -7.385116815567016602e-01
-4.098632335662841797e-01 3.547504246234893799e-01 -8.058480620384216309e-01
-3.527432084083557129e-01 3.413201272487640381e-01 3.522197902202606201e-01
3.745864629745483398e-01 -4.392257630825042725e-01 -6.537438631057739258e-01
-3.687810599803924561e-01 2.054466009140014648e-01 -2.323846518993377686e-01
3.980714380741119385e-01 -3.857655525207519531e-01 1.777129992842674255e-02
-2.226992547512054443e-01 3.908042609691619873e-01 6.926887631416320801e-01
3.706836700439453125e-01 1.531982868909835815e-01 -1.189338043332099915e-01
-8.412860333919525146e-02 -4.118390083312988281e-01 4.710323214530944824e-01
3.706836700439453125e-01 -3.037408292293548584e-01 -7.539952993392944336e-01
-4.377309232950210571e-02 -1.513253599405288696e-01 -2.830053865909576416e-01
1.026381924748420715e-02 3.908042609691619873e-01 -3.721489012241363525e-01
3.980714380741119385e-01 2.163908630609512329e-01 5.798885226249694824e-01
-3.961678445339202881e-01 -2.116663902997970581e-01 -6.778513789176940918e-01
1.976468116044998169e-01 -4.392257630825042725e-01 1.886191032826900482e-02
3.456675112247467041e-01 3.797134160995483398e-01 8.216282725334167480e-01
3.980714380741119385e-01 8.227845281362533569e-02 -7.635409235954284668e-01
3.980714380741119385e-01 1.041428819298744202e-01 -2.016151994466781616e-01
1.167908087372779846e-01 -9.021689742803573608e-02 7.668537497520446777e-01
1.282361000776290894e-01 -3.912979364395141602e-01 -5.811492204666137695e-01
-2.171056419610977173e-01 1.706408262252807617e-01 7.942414879798889160e-01
1.962331309914588928e-02 -2.103139162063598633e-01 2.419276833534240723e-01
2.301553264260292053e-02 -3.912979364395141602e-01 -4.338665306568145752e-01
7.606007158756256104e-02 2.526384592056274414e-01 2.419276833534240723e-01
-4.098632335662841797e-01 3.563137650489807129e-01 7.286853790283203125e-01
-2.280960828065872192e-01 -3.705940768122673035e-02 -7.942380905151367188e-01
-3.961678445339202881e-01 -2.785318493843078613e-01 6.440500617027282715e-01
3.980714380741119385e-01 -2.424107342958450317e-01 8.024125695228576660e-01
-1.392788589000701904e-01 3.908042609691619873e-01 1.824752613902091980e-02
4.117648303508758545e-01 3.416916429996490479e-01 -8.831858634948730469e-02
8.636385202407836914e-02 1.646586358547210693e-01 2.419276833534240723e-01
-1.693083196878433228e-01 -3.912979364395141602e-01 2.300747483968734741e-01
3.706836700439453125e-01 -3.239644691348075867e-02 3.313614130020141602e-01
1.046838387846946716e-01 -3.912979364395141602e-01 3.018390238285064697e-01
-3.961678445339202881e-01 -3.299879729747772217e-01 1.273543089628219604e-01
-3.076548576354980469e-01 3.789733946323394775e-01 -7.877568602561950684e-01
-3.267611265182495117e-01 4.812833666801452637e-02 2.830068469047546387e-01
3.825697675347328186e-02 1.960566341876983643e-01 -7.942380905151367188e-01
1.783336997032165527e-01 3.843340873718261719e-01 6.395438313484191895e-01
4.014953076839447021e-01 3.889316916465759277e-01 3.725048303604125977e-01
3.980714380741119385e-01 -9.031619876623153687e-02 3.813415393233299255e-02
-3.961678445339202881e-01 -3.133506774902343750e-01 -5.774111151695251465e-01
3.154201805591583252e-01 -3.912979364395141602e-01 -5.507121682167053223e-01
-3.298003971576690674e-01 -3.912979364395141602e-01 7.648395895957946777e-01
-8.298137784004211426e-02 -3.912979364395141602e-01 -9.337251633405685425e-02
-2.226590961217880249e-01 -3.912979364395141602e-01 7.081050872802734375e-01
2.383614927530288696e-01 -3.912979364395141602e-01 -2.866731882095336914e-01
-3.687810599803924561e-01 -1.051309183239936829e-01 4.533447623252868652e-01
