-3.534134030342102051e-01 9.208997339010238647e-02 4.164984822273254395e-01
2.656194567680358887e-01 -2.780103385448455811e-01 -8.382993936538696289e-01
4.479908943176269531e-01 -2.212216258049011230e-01 9.635418653488159180e-02
-5.252341181039810181e-02 9.208997339010238647e-02 -1.715327054262161255e-01
5.830118060111999512e-02 9.208997339010238647e-02 6.113244220614433289e-02
2.850919365882873535e-01 9.208997339010238647e-02 -9.804417937994003296e-02
-2.461651861667633057e-01 3.006702102720737457e-02 1.321540921926498413e-01
-2.270424040034413338e-03 -1.686882525682449341e-01 -1.187571734189987183e-01
-1.665859222412109375e-01 5.173331126570701599e-02 -1.460474915802478790e-02
3.186227679252624512e-01 9.208997339010238647e-02 6.053017377853393555e-01
1.814931929111480713e-01 -2.074663490056991577e-01 1.348855942487716675e-01
-1.426214235834777355e-03 2.742228507995605469e-01 -3.325551003217697144e-02
-1.426214235834777355e-03 3.915509209036827087e-02 -1.458718180656433105e-01
-1.365384012460708618e-01 1.071582064032554626e-01 -8.475077748298645020e-01
-4.093104898929595947e-01 9.208997339010238647e-02 -3.615741431713104248e-02
-1.426214235834777355e-03 1.642255336046218872e-01 -1.324411034584045410e-01
-3.306941986083984375e-01 9.208997339010238647e-02 -7.608337998390197754e-01
-2.270424040034413338e-03 -1.757716983556747437e-01 -3.170092403888702393e-01
-1.141916736960411072e-01 9.208997339010238647e-02 3.515181839466094971e-01
1.235391646623611450e-01 5.173331126570701599e-02 -1.223044190555810928e-02
-2.998810634016990662e-02 9.426128119230270386e-02 -6.127009987831115723e-01
-1.426214235834777355e-03 2.816294133663177490e-01 -3.848432600498199463e-01
-7.680124044418334961e-02 1.108575686812400818e-01 3.968474455177783966e-03
-2.270424040034413338e-03 -1.440177112817764282e-01 -8.129064440727233887e-01
2.898197472095489502e-01 -7.560984790325164795e-02 6.966443359851837158e-02
2.632038481533527374e-02 9.273324906826019287e-02 -3.111698627471923828e-01
2.938114404678344727e-01 9.208997339010238647e-02 -1.931657493114471436e-01
1.072684377431869507e-01 -4.960336163640022278e-02 -1.084908656775951385e-02
-1.027543544769287109e-01 -2.238866537809371948e-01 -4.263158887624740601e-02
-1.426214235834777355e-03 -1.732698380947113037e-01 -4.073337018489837646e-01
-1.426214235834777355e-03 7.790745049715042114e-02 6.812304854393005371e-01
2.898197472095489502e-01 -2.268273681402206421e-01 7.731226086616516113e-02
-1.426214235834777355e-03 -5.872525647282600403e-02 6.122448444366455078e-01
-3.998792767524719238e-01 -2.792626619338989258e-01 8.398180603981018066e-01
-3.584129810333251953e-01 -2.152238488197326660e-01 1.254035383462905884e-01
-2.520290017127990723e-01 -2.793790102005004883e-01 8.135901689529418945e-01
4.195075929164886475e-01 1.108575686812400818e-01 3.799858689308166504e-01
-2.269038856029510498e-01 9.208997339010238647e-02 7.409061193466186523e-01
4.353442490100860596e-01 1.108575686812400818e-01 -4.912233352661132812e-01
3.023989498615264893e-01 1.695254119113087654e-03 1.348855942487716675e-01
-1.426214235834777355e-03 2.751408517360687256e-01 -6.088911890983581543e-01
-1.630693823099136353e-01 1.108575686812400818e-01 -5.574061274528503418e-01
-2.270424040034413338e-03 -2.784478478133678436e-02 -5.407688021659851074e-01
4.000478088855743408e-01 9.208997339010238647e-02 2.414465546607971191e-01
1.900240182876586914e-01 9.208997339010238647e-02 6.298266053199768066e-01
-2.270424040034413338e-03 1.163401380181312561e-01 -7.370249927043914795e-02
5.175583437085151672e-02 1.108575686812400818e-01 -2.266310751438140869e-01
2.254368066787719727e-01 1.108575686812400818e-01 4.740810096263885498e-01
1.448446959257125854e-01 -8.778882771730422974e-02 1.348855942487716675e-01
-2.270424040034413338e-03 -1.853566020727157593e-01 1.730748564004898071e-01
-2.423348277807235718e-01 -1.526459008455276489e-01 1.321540921926498413e-01
-2.853066623210906982e-01 -1.868607848882675171e-01 -1.309979241341352463e-02
-1.426214235834777355e-03 1.377688497304916382e-01 8.040930330753326416e-02
-4.337904155254364014e-01 9.803690761327743530e-02 7.758985161781311035e-01
1.072684377431869507e-01 -2.308688908815383911e-01 6.313629448413848877e-02
-1.027543544769287109e-01 4.671022668480873108e-02 -1.099830307066440582e-02
-2.853066623210906982e-01 -3.769228234887123108e-02 5.108473077416419983e-02
-3.580659627914428711e-01 -5.135547369718551636e-02 -9.307897835969924927e-02
4.332042038440704346e-01 1.108575686812400818e-01 -9.790281206369400024e-02
1.116169393062591553e-01 1.108575686812400818e-01 2.816731929779052734e-01
-2.270424040034413338e-03 -2.296605557203292847e-01 3.293904364109039307e-01
-2.478867918252944946e-01 5.173331126570701599e-02 -1.454809587448835373e-02
-2.853066623210906982e-01 -1.137623414397239685e-01 8.986447006464004517e-02
3.375595211982727051e-01 -2.807105481624603271e-01 -8.944159746170043945e-02
-8.611504733562469482e-02 9.208997339010238647e-02 -7.174357175827026367e-01
3.328874111175537109e-01 1.108575686812400818e-01 -7.049347758293151855e-01
-2.270424040034413338e-03 1.552156805992126465e-01 -3.906709253787994385e-01
-3.684151768684387207e-01 1.108575686812400818e-01 6.551449000835418701e-02
2.782279849052429199e-01 1.075658872723579407e-01 -8.484267592430114746e-01
-1.426214235834777355e-03 2.551418729126453400e-02 3.129085600376129150e-01
-1.426214235834777355e-03 1.454657614231109619e-01 5.291998982429504395e-01
-4.434767961502075195e-01 -2.462578117847442627e-01 -8.976656198501586914e-02
-2.810578644275665283e-01 9.208997339010238647e-02 2.116854637861251831e-01
-2.455717474222183228e-01 -2.692233622074127197e-01 6.826397776603698730e-02
3.440128564834594727e-01 4.497591033577919006e-02 3.755722939968109131e-02
2.923850715160369873e-01 9.208997339010238647e-02 2.705868482589721680e-01
-3.141926229000091553e-02 9.208997339010238647e-02 -5.120478868484497070e-01
3.164338469505310059e-01 -1.862366311252117157e-02 -8.359574526548385620e-02
3.298244774341583252e-01 -1.125631704926490784e-01 1.348855942487716675e-01
8.884720504283905029e-02 9.208997339010238647e-02 -6.811636686325073242e-01
4.024635553359985352e-01 -2.295080423355102539e-01 -8.359574526548385620e-02
-3.635485172271728516e-01 -2.739531397819519043e-01 -5.749498028308153152e-03
1.291380524635314941e-01 -2.692233622074127197e-01 -5.949604138731956482e-02
2.898197472095489502e-01 -1.838715821504592896e-01 -5.985317006707191467e-02
-2.606869339942932129e-01 1.108575686812400818e-01 -6.633667945861816406e-01
-2.270424040034413338e-03 1.434009969234466553e-01 1.634481102228164673e-01
-3.069220781326293945e-01 -2.252348065376281738e-01 1.321540921926498413e-01
-2.270424040034413338e-03 -1.458291709423065186e-01 6.177449822425842285e-01
-4.434767961502075195e-01 -1.288828440010547638e-02 -1.652880758047103882e-02
-2.270424040034413338e-03 1.893858909606933594e-01 3.420370817184448242e-01
-2.134848982095718384e-01 1.108575686812400818e-01 -3.280692398548126221e-01
-1.426214235834777355e-03 1.669169515371322632e-01 6.188565492630004883e-01
-4.245527386665344238e-01 2.604353940114378929e-03 8.059324026107788086e-01
3.639154732227325439e-01 9.208997339010238647e-02 4.735188782215118408e-01
-2.180308997631072998e-01 1.108575686812400818e-01 -8.412382006645202637e-01
1.072684377431869507e-01 1.784661412239074707e-02 1.133640110492706299e-01
-2.270424040034413338e-03 2.621461749076843262e-01 -7.121946215629577637e-01
-2.270424040034413338e-03 2.024108916521072388e-01 7.959986925125122070e-01
-3.970332816243171692e-02 9.208997339010238647e-02 3.546065390110015869e-01
-3.112882077693939209e-01 -2.692233622074127197e-01 -6.139773130416870117e-02
-9.046942740678787231e-02 1.108575686812400818e-01 1.178836077451705933e-01
-2.805172204971313477e-01 1.108575686812400818e-01 7.363376617431640625e-01
-2.192392498254776001e-01 -2.318402193486690521e-02 -9.307897835969924927e-02
2.632038481533527374e-02 1.015026196837425232e-01 -6.318014860153198242e-02
3.472830355167388916e-01 1.108575686812400818e-01 6.978805661201477051e-01
-3.852871358394622803e-01 9.208997339010238647e-02 5.925240516662597656e-01
4.298157393932342529e-01 -2.739531397819519043e-01 -2.450384385883808136e-02
8.369491435587406158e-03 9.984649717807769775e-02 8.382030129432678223e-01
3.402225673198699951e-01 -2.739531397819519043e-01 1.102346107363700867e-01
3.609522879123687744e-01 1.046691611409187317e-01 8.321984410285949707e-01
1.582597643136978149e-01 8.958038687705993652e-02 8.143410086631774902e-01
2.898197472095489502e-01 1.662164740264415741e-02 -4.624853655695915222e-02
-2.014346122741699219e-01 1.108575686812400818e-01 -1.293038874864578247e-01
-3.144420385360717773e-01 4.497591033577919006e-02 -2.413811162114143372e-02
1.490172445774078369e-01 -2.861158847808837891e-01 8.279613852500915527e-01
1.955153942108154297e-01 1.108575686812400818e-01 -1.401030085980892181e-02
-1.426214235834777355e-03 9.657339006662368774e-02 -4.318487942218780518e-01
1.072684377431869507e-01 -1.922568865120410919e-02 6.150130927562713623e-02
-3.987109959125518799e-01 1.108575686812400818e-01 2.624988853931427002e-01
-1.426214235834777355e-03 -2.137065678834915161e-01 -6.415406614542007446e-02
-1.426214235834777355e-03 -1.860943138599395752e-01 -6.266058683395385742e-01
-1.426214235834777355e-03 -1.139833778142929077e-01 5.632752776145935059e-01
-1.157607734203338623e-01 1.108575686812400818e-01 2.318344712257385254e-01
-2.052415013313293457e-01 9.208997339010238647e-02 3.217937424778938293e-02
-4.434767961502075195e-01 -1.877269595861434937e-01 5.698112398386001587e-02
-4.042258560657501221e-01 -1.530851572751998901e-01 1.321540921926498413e-01
1.650846153497695923e-01 9.208997339010238647e-02 3.131666183471679688e-01
-1.426214235834777355e-03 -1.351242959499359131e-01 3.003664910793304443e-01
-3.973472118377685547e-01 -9.845457226037979126e-02 -9.307897835969924927e-02
-1.760973036289215088e-01 9.208997339010238647e-02 3.707296252250671387e-01
1.729574948549270630e-01 5.173331126570701599e-02 4.270104318857192993e-02
-1.426214235834777355e-03 9.285642951726913452e-02 2.263587415218353271e-01
-1.426214235834777355e-03 -9.521681815385818481e-02 4.064513444900512695e-01
-1.426214235834777355e-03 -8.726291358470916748e-02 8.652263134717941284e-02
-1.906200349330902100e-01 9.208997339010238647e-02 -4.899172484874725342e-01
4.441918134689331055e-01 -2.846836447715759277e-01 -8.494991660118103027e-01
-7.436792552471160889e-02 9.208997339010238647e-02 7.154437303543090820e-01
-2.270424040034413338e-03 2.385646998882293701e-01 4.037833809852600098e-01
-1.027543544769287109e-01 -2.257900983095169067e-01 1.320846825838088989e-01
-2.270424040034413338e-03 6.068059802055358887e-02 -7.570875287055969238e-01
-3.811635076999664307e-01 1.108575686812400818e-01 -3.886286616325378418e-01
3.711237013339996338e-02 9.208997339010238647e-02 5.204842686653137207e-01
1.508512794971466064e-01 -2.837842404842376709e-01 1.135898530483245850e-01
-9.120157361030578613e-02 9.208997339010238647e-02 5.868840813636779785e-01
4.055176675319671631e-01 9.208997339010238647e-02 7.795822620391845703e-01
2.010135948657989502e-01 1.108575686812400818e-01 -8.491619229316711426e-01
-2.270424040034413338e-03 2.468843460083007812e-01 -5.411441922187805176e-01
-1.426214235834777355e-03 2.340773642063140869e-01 -4.524787664413452148e-01
1.018220484256744385e-01 1.108575686812400818e-01 -3.932215869426727295e-01
-1.426214235834777355e-03 -7.761976122856140137e-02 -5.754961967468261719e-01
4.041607081890106201e-01 -1.334214508533477783e-01 -8.359574526548385620e-02
-2.270424040034413338e-03 -8.845733106136322021e-02 -6.857536435127258301e-01
-3.447113558650016785e-02 9.208997339010238647e-02 4.862760007381439209e-01
-3.751999437808990479e-01 1.108575686812400818e-01 -7.020023465156555176e-02
-2.854239642620086670e-01 1.108575686812400818e-01 -7.638772130012512207e-01
-4.351111948490142822e-01 -1.412426084280014038e-01 1.238104887306690216e-02
-4.026537835597991943e-01 4.497591033577919006e-02 6.085997447371482849e-02
-1.584099978208541870e-01 1.069548726081848145e-01 8.373622894287109375e-01
-1.426214235834777355e-03 -1.278016120195388794e-01 -4.648829996585845947e-01
2.400572896003723145e-01 3.325898945331573486e-02 1.348855942487716675e-01
-4.421012401580810547e-01 -2.242449857294559479e-02 1.309301108121871948e-01
-1.426214235834777355e-03 -4.925718158483505249e-02 7.721444368362426758e-01
2.607107460498809814e-01 -1.724486351013183594e-01 1.348855942487716675e-01
3.319821059703826904e-01 9.208997339010238647e-02 -4.975056350231170654e-01
-2.270424040034413338e-03 -8.534934371709823608e-02 -1.581235080957412720e-01
-3.380235135555267334e-01 9.208997339010238647e-02 7.680843472480773926e-01
2.041732966899871826e-01 1.108575686812400818e-01 1.229897812008857727e-01
-2.129717497155070305e-03 2.196768373250961304e-01 -8.135428428649902344e-01
-4.432441294193267822e-01 1.078845933079719543e-01 -8.491443395614624023e-01
-2.270424040034413338e-03 4.504825547337532043e-02 1.559672653675079346e-01
-2.270424040034413338e-03 -1.978337317705154419e-01 6.667019128799438477e-01
-2.998810634016990662e-02 1.104137301445007324e-01 -3.030134737491607666e-01
-1.103114485740661621e-01 1.108575686812400818e-01 -1.199479326605796814e-01
-2.270424040034413338e-03 1.443219333887100220e-01 -6.389846205711364746e-01
1.536297053098678589e-01 9.208997339010238647e-02 -1.655544787645339966e-01
-1.219061687588691711e-01 1.108575686812400818e-01 3.912344872951507568e-01
4.479908943176269531e-01 -1.140771359205245972e-01 1.331679075956344604e-01
3.681945800781250000e-01 -9.712935984134674072e-02 1.348855942487716675e-01
-1.426214235834777355e-03 6.903544068336486816e-02 5.564034581184387207e-01
2.348777949810028076e-01 -2.806607186794281006e-01 1.348855942487716675e-01
-4.084648489952087402e-01 9.208997339010238647e-02 1.342589408159255981e-01
-2.270424040034413338e-03 -1.998574286699295044e-01 -7.675794959068298340e-01
-2.853066623210906982e-01 2.438404224812984467e-02 9.249156713485717773e-02
-2.270424040034413338e-03 1.305881589651107788e-01 4.102905094623565674e-01
6.133223325014114380e-02 9.208997339010238647e-02 -6.292709112167358398e-01
-1.027543544769287109e-01 -2.679495215415954590e-01 -1.320655923336744308e-02
2.846236526966094971e-01 5.173331126570701599e-02 8.191807568073272705e-02
2.054383605718612671e-01 1.108575686812400818e-01 -4.922293424606323242e-01
-2.611904144287109375e-01 9.208997339010238647e-02 -2.953908741474151611e-01
3.918141722679138184e-01 1.108575686812400818e-01 5.343998670578002930e-01
-3.682059347629547119e-01 -1.865186095237731934e-01 -9.307897835969924927e-02
-9.630177915096282959e-02 9.208997339010238647e-02 -3.187338113784790039e-01
-2.270424040034413338e-03 -1.145849283784627914e-02 6.450556963682174683e-02
3.588630855083465576e-01 1.108575686812400818e-01 2.374827116727828979e-02
-2.270424040034413338e-03 2.819109857082366943e-01 -1.003180518746376038e-01
-4.043881297111511230e-01 -2.739531397819519043e-01 1.210169196128845215e-01
-2.270424040034413338e-03 -3.347575291991233826e-02 4.126612544059753418e-01
-4.196645915508270264e-01 9.208997339010238647e-02 4.180421531200408936e-01
2.532817423343658447e-01 1.108575686812400818e-01 -3.699607551097869873e-01
-2.181491851806640625e-01 1.108575686812400818e-01 -5.742683410644531250e-01
-2.998810634016990662e-02 9.480387717485427856e-02 -4.270344506949186325e-03
4.479908943176269531e-01 -6.021927297115325928e-02 9.380988776683807373e-03
-1.426214235834777355e-03 2.461218088865280151e-01 1.751229912042617798e-01
-4.434767961502075195e-01 -2.740499377250671387e-01 -3.168680146336555481e-02
-1.308182775974273682e-01 4.494365677237510681e-02 1.321540921926498413e-01
-1.426214235834777355e-03 2.265906482934951782e-01 -2.300606071949005127e-01
-2.270424040034413338e-03 -1.135373860597610474e-01 1.874851435422897339e-01
-4.081910848617553711e-01 1.108575686812400818e-01 -6.858279109001159668e-01
2.331033796072006226e-01 5.173331126570701599e-02 -3.546144068241119385e-02
-1.426214235834777355e-03 -1.934754401445388794e-01 5.140661597251892090e-01
4.359396398067474365e-01 -1.626508980989456177e-01 1.460506487637758255e-02
-1.008636131882667542e-01 1.108575686812400818e-01 7.868128418922424316e-01
1.049485132098197937e-01 9.208997339010238647e-02 8.005460724234580994e-03
1.758845299482345581e-01 1.108575686812400818e-01 -5.964478850364685059e-01
1.034830436110496521e-01 1.108575686812400818e-01 -2.074567824602127075e-01
-1.679712235927581787e-01 -2.271842062473297119e-01 1.321540921926498413e-01
3.524478673934936523e-01 -2.178585678339004517e-01 1.281203925609588623e-01
-2.583230137825012207e-01 1.108575686812400818e-01 1.340565681457519531e-01
-2.853066623210906982e-01 -1.225982680916786194e-01 -3.548764064908027649e-02
1.129406541585922241e-01 1.108575686812400818e-01 3.953102231025695801e-01
3.988091349601745605e-01 4.497591033577919006e-02 5.032970383763313293e-02
-2.803480923175811768e-01 1.108575686812400818e-01 -4.335127174854278564e-01
-3.260308802127838135e-01 9.208997339010238647e-02 -2.986943125724792480e-01
3.290061950683593750e-01 -1.308512538671493530e-01 -9.034737199544906616e-02
1.600703448057174683e-01 9.081122279167175293e-02 -8.135428428649902344e-01
3.786689341068267822e-01 1.108575686812400818e-01 -3.622697293758392334e-01
-2.189772427082061768e-01 1.108575686812400818e-01 -2.539998888969421387e-01
-2.270424040034413338e-03 1.578024923801422119e-01 -6.804352998733520508e-01
-1.932811588048934937e-01 1.108575686812400818e-01 -7.085979580879211426e-01
-1.426214235834777355e-03 1.649259775876998901e-02 7.122077345848083496e-01
-1.426214235834777355e-03 -2.105444855988025665e-02 -4.353281855583190918e-01
2.712320387363433838e-01 -2.692233622074127197e-01 3.627682477235794067e-02
-4.165997207164764404e-01 -1.307331472635269165e-01 -8.135428428649902344e-01
-2.270424040034413338e-03 2.229880839586257935e-01 2.822470664978027344e-01
4.295380711555480957e-01 -1.812180876731872559e-01 -8.359574526548385620e-02
-2.270424040034413338e-03 -2.722486853599548340e-02 -4.888907372951507568e-01
-3.288601338863372803e-01 -6.857743859291076660e-02 1.254035383462905884e-01
-2.270424040034413338e-03 -6.799682974815368652e-02 2.862827181816101074e-01
-2.998810634016990662e-02 1.071513742208480835e-01 -4.049600064754486084e-01
-2.270424040034413338e-03 -1.938234716653823853e-01 -4.932646453380584717e-01
-2.853066623210906982e-01 -3.052164055407047272e-02 -4.893761500716209412e-02
8.545110374689102173e-02 -2.783349156379699707e-01 -8.494991660118103027e-01
-2.270424040034413338e-03 5.163750052452087402e-02 -6.419468522071838379e-01
-1.817284673452377319e-01 -1.256698071956634521e-01 -9.307897835969924927e-02
4.281744360923767090e-02 9.208997339010238647e-02 -7.376307249069213867e-01
3.891022205352783203e-01 -2.692233622074127197e-01 6.364672631025314331e-02
4.267048835754394531e-01 9.618917852640151978e-02 1.440953928977251053e-02
-2.270424040034413338e-03 2.784951031208038330e-01 6.206465959548950195e-01
-3.316366374492645264e-01 1.108575686812400818e-01 2.132829129695892334e-01
2.023764103651046753e-01 -5.903194099664688110e-02 1.348855942487716675e-01
-4.368552863597869873e-01 -1.305525749921798706e-01 8.284326195716857910e-01
-2.270424040034413338e-03 -1.782690584659576416e-01 4.493762254714965820e-01
-4.201201796531677246e-01 -2.484003081917762756e-02 -8.135428428649902344e-01
-2.270424040034413338e-03 5.889348685741424561e-02 4.090728238224983215e-02
-4.416447281837463379e-01 5.173331126570701599e-02 -7.403274625539779663e-02
-1.517356932163238525e-01 9.208997339010238647e-02 6.186757087707519531e-01
-1.027543544769287109e-01 -1.255643218755722046e-01 1.641593500971794128e-02
-1.426214235834777355e-03 7.674212753772735596e-02 3.862515091896057129e-01
-1.027543544769287109e-01 5.073123425245285034e-02 6.791545450687408447e-02
9.627594053745269775e-02 9.208997339010238647e-02 1.303660124540328979e-01
-3.252302110195159912e-01 9.208997339010238647e-02 4.716574549674987793e-01
-2.778922915458679199e-01 9.208997339010238647e-02 2.944136857986450195e-01
4.486411437392234802e-02 9.208997339010238647e-02 -5.167796611785888672e-01
-2.270424040034413338e-03 2.146234810352325439e-01 5.043983459472656250e-01
3.379515409469604492e-01 9.208997339010238647e-02 -7.934017181396484375e-01
-1.426214235834777355e-03 -5.435172095894813538e-02 -2.532920837402343750e-01
-1.426214235834777355e-03 2.248807847499847412e-01 -1.355352997779846191e-01
-1.426214235834777355e-03 3.985312581062316895e-02 -3.147743940353393555e-01
-3.749076128005981445e-01 -3.545164689421653748e-02 1.254035383462905884e-01
-1.426214235834777355e-03 2.016835212707519531e-01 6.703406572341918945e-01
1.072684377431869507e-01 -1.033348143100738525e-01 -3.858653828501701355e-02
-5.412125214934349060e-02 9.208997339010238647e-02 -7.893229722976684570e-01
-1.426214235834777355e-03 -6.627824902534484863e-02 2.280138731002807617e-01
-2.270424040034413338e-03 -1.752506047487258911e-01 -2.500991225242614746e-01
4.388197362422943115e-01 1.108575686812400818e-01 -7.714508771896362305e-01
-1.426214235834777355e-03 -1.903176903724670410e-01 8.014831542968750000e-01
1.392976194620132446e-01 9.208997339010238647e-02 6.192525029182434082e-01
-2.270424040034413338e-03 -2.540094554424285889e-01 -3.992818892002105713e-01
-1.426214235834777355e-03 -2.584146559238433838e-01 -2.387556880712509155e-01
-1.405672281980514526e-01 5.173331126570701599e-02 -8.974349498748779297e-02
-1.426214235834777355e-03 -9.543105214834213257e-02 7.378549575805664062e-01
-2.270424040034413338e-03 -1.848405227065086365e-02 -7.510105967521667480e-01
3.211831748485565186e-01 1.108575686812400818e-01 8.249287605285644531e-01
5.676678568124771118e-02 1.108575686812400818e-01 -7.962925434112548828e-01
-4.314264953136444092e-01 -6.605290621519088745e-02 1.731281168758869171e-02
1.455368548631668091e-01 1.108575686812400818e-01 -2.571859657764434814e-01
-1.511940807104110718e-01 1.108575686812400818e-01 -7.266656160354614258e-01
2.068158388137817383e-01 1.108575686812400818e-01 7.854294776916503906e-01
-1.426214235834777355e-03 -2.618833184242248535e-01 -7.514201998710632324e-01
2.330760061740875244e-01 -2.248466908931732178e-01 -9.034737199544906616e-02
1.667681187391281128e-01 1.108575686812400818e-01 3.917604386806488037e-01
-1.647352725267410278e-01 9.208997339010238647e-02 7.190589904785156250e-01
-1.426214235834777355e-03 -2.465775161981582642e-01 5.649284124374389648e-01
2.746214866638183594e-01 1.108575686812400818e-01 3.277167379856109619e-01
-2.270424040034413338e-03 -1.934666335582733154e-01 -1.752824150025844574e-02
-3.148047327995300293e-01 9.208997339010238647e-02 6.252591013908386230e-01
2.838082909584045410e-01 1.108575686812400818e-01 -5.269968509674072266e-01
-2.270424040034413338e-03 -1.017669886350631714e-01 -4.681165516376495361e-02
-1.426214235834777355e-03 4.604389425367116928e-03 -1.116908490657806396e-01
4.359396398067474365e-01 -2.977228723466396332e-02 7.100193947553634644e-02
-1.746826767921447754e-01 9.208997339010238647e-02 -2.333122193813323975e-01
4.423705041408538818e-01 1.046564579010009766e-01 -3.023408651351928711e-01
2.839187681674957275e-01 1.108575686812400818e-01 -2.882698178291320801e-01
-2.270424040034413338e-03 -2.248994857072830200e-01 5.879159644246101379e-02
-1.610173285007476807e-01 -1.326868031173944473e-02 -9.307897835969924927e-02
-3.180094361305236816e-01 -2.739531397819519043e-01 4.059698432683944702e-02
-1.426214235834777355e-03 8.621048927307128906e-02 -6.446647047996520996e-01
-3.396376073360443115e-01 1.004037484526634216e-01 -8.491805195808410645e-01
-3.614192306995391846e-01 5.173331126570701599e-02 -6.434147804975509644e-02
4.061521589756011963e-01 -2.125334143638610840e-01 1.281203925609588623e-01
1.621507406234741211e-01 9.208997339010238647e-02 4.861874878406524658e-02
-2.270424040034413338e-03 4.428961873054504395e-02 2.205848395824432373e-01
-1.426214235834777355e-03 1.037795171141624451e-01 -1.975680291652679443e-01
1.998658478260040283e-01 5.154462903738021851e-02 1.348855942487716675e-01
-4.335372149944305420e-01 -2.242449857294559479e-02 -8.524315804243087769e-02
2.195993661880493164e-01 9.208997339010238647e-02 -1.921842098236083984e-01
-8.055163919925689697e-02 1.108575686812400818e-01 3.721823990345001221e-01
4.300014674663543701e-01 -3.052604012191295624e-02 1.348855942487716675e-01
4.479908943176269531e-01 4.714918881654739380e-02 -4.237662255764007568e-02
-3.238058090209960938e-01 -2.246057428419589996e-02 -8.631395548582077026e-02
-3.370087444782257080e-01 5.173331126570701599e-02 9.419459849596023560e-02
-3.031494021415710449e-01 9.208997339010238647e-02 -7.193078994750976562e-01
-2.853066623210906982e-01 -2.608636319637298584e-01 8.591034263372421265e-02
3.889987245202064514e-02 1.108575686812400818e-01 3.836373090744018555e-01
-1.426214235834777355e-03 -4.995853453874588013e-02 -3.686121478676795959e-02
-4.374047219753265381e-01 1.108575686812400818e-01 -4.318683445453643799e-01
-1.606712490320205688e-01 9.208997339010238647e-02 1.472282111644744873e-01
-7.057646661996841431e-02 9.208997339010238647e-02 1.746664345264434814e-01
-1.027543544769287109e-01 -4.805391281843185425e-02 1.030187085270881653e-01
4.053221344947814941e-01 9.208997339010238647e-02 1.248785629868507385e-01
4.137855172157287598e-01 -1.720393896102905273e-01 -8.158950209617614746e-01
1.613901555538177490e-01 -2.692233622074127197e-01 -2.921476215124130249e-02
3.741904199123382568e-01 -1.207831874489784241e-02 -8.359574526548385620e-02
3.840977251529693604e-01 9.208997339010238647e-02 2.879183292388916016e-01
-1.426214235834777355e-03 -1.964640617370605469e-01 7.194754481315612793e-01
-1.426214235834777355e-03 -2.722486853599548340e-02 5.896762013435363770e-01
-2.433134466409683228e-01 9.083174914121627808e-02 8.037766814231872559e-01
-2.270424040034413338e-03 -1.528957784175872803e-01 -6.909575462341308594e-01
-2.397304177284240723e-01 1.108575686812400818e-01 -6.097959727048873901e-02
-2.270424040034413338e-03 5.678765848278999329e-02 -8.271558582782745361e-02
-1.426214235834777355e-03 2.033464759588241577e-01 9.867312759160995483e-02
-1.426214235834777355e-03 2.411759644746780396e-01 7.401729226112365723e-01
-4.314264953136444092e-01 -5.361527204513549805e-02 6.582371145486831665e-02
-1.426214235834777355e-03 2.658894956111907959e-01 5.615673065185546875e-01
-3.299580514430999756e-01 9.208997339010238647e-02 -6.337093710899353027e-01
-2.270424040034413338e-03 1.528752297163009644e-01 -1.660902202129364014e-01
-4.091091156005859375e-01 9.208997339010238647e-02 -5.787175297737121582e-01
-2.270424040034413338e-03 1.445037722587585449e-01 -1.533453934825956821e-03
4.479908943176269531e-01 -1.545384973287582397e-01 8.051537722349166870e-02
1.414816528558731079e-01 9.208997339010238647e-02 6.817896962165832520e-01
-2.144850194454193115e-01 9.208997339010238647e-02 5.204940438270568848e-01
-3.391321599483489990e-01 9.208997339010238647e-02 -2.389521747827529907e-01
4.029132425785064697e-01 1.108575686812400818e-01 -1.907607764005661011e-01
3.104155361652374268e-01 1.108575686812400818e-01 1.395870447158813477e-01
-1.426214235834777355e-03 1.521478742361068726e-01 -7.428669333457946777e-01
-1.426214235834777355e-03 1.516003906726837158e-01 2.329812347888946533e-01
-3.891116380691528320e-01 1.108575686812400818e-01 -5.296922326087951660e-01
-4.176125526428222656e-01 1.108575686812400818e-01 8.298844099044799805e-01
1.607126444578170776e-01 -1.279759407043457031e-01 1.348855942487716675e-01
-2.250139787793159485e-02 -2.861158847808837891e-01 8.112204074859619141e-01
-2.953322529792785645e-01 -2.786565423011779785e-01 -8.494991660118103027e-01
-2.270424040034413338e-03 1.114656627178192139e-01 7.895404696464538574e-01
2.904229760169982910e-01 -2.861158847808837891e-01 8.263218998908996582e-01
2.528730630874633789e-01 9.208997339010238647e-02 3.621900081634521484e-01
3.896937072277069092e-01 9.208997339010238647e-02 1.948036998510360718e-01
-1.426214235834777355e-03 -1.582164466381072998e-01 -5.414199233055114746e-01
-1.426214235834777355e-03 1.886634081602096558e-01 1.601309925317764282e-01
1.298800855875015259e-01 9.208997339010238647e-02 -9.461101889610290527e-02
3.919080197811126709e-01 1.406024675816297531e-02 1.348855942487716675e-01
1.072684377431869507e-01 -5.556632950901985168e-02 1.074004545807838440e-01
-2.270424040034413338e-03 2.159628123044967651e-01 -3.840533196926116943e-01
2.567093074321746826e-01 9.208997339010238647e-02 -2.202354073524475098e-01
-2.270424040034413338e-03 1.076343283057212830e-01 -5.505324006080627441e-01
3.808216750621795654e-01 -2.692233622074127197e-01 -1.526492554694414139e-02
-2.853066623210906982e-01 -5.109043791890144348e-02 -5.381813738495111465e-03
-8.387812972068786621e-02 9.208997339010238647e-02 2.801207005977630615e-01
-1.426214235834777355e-03 -3.694823477417230606e-03 4.851712882518768311e-01
3.066174387931823730e-01 -5.850929766893386841e-02 1.281203925609588623e-01
-2.270424040034413338e-03 -1.152339726686477661e-01 3.353886539116501808e-03
-3.540136516094207764e-01 -2.739531397819519043e-01 -5.006589740514755249e-02
-1.426214235834777355e-03 1.904915869235992432e-01 -2.889140546321868896e-01
-1.153570115566253662e-01 -7.775027304887771606e-02 -9.307897835969924927e-02
1.978362798690795898e-01 9.208997339010238647e-02 6.877288222312927246e-01
-4.434767961502075195e-01 -1.541184186935424805e-01 -4.349493980407714844e-02
4.338572621345520020e-01 5.015051364898681641e-02 8.212055265903472900e-02
1.298116445541381836e-01 -1.549935936927795410e-01 -9.034737199544906616e-02
2.632038481533527374e-02 1.082649007439613342e-01 6.464267373085021973e-01
2.403750121593475342e-01 -2.692233622074127197e-01 2.626889944076538086e-02
4.359523355960845947e-01 1.108575686812400818e-01 7.678008675575256348e-01
2.705027163028717041e-01 1.108575686812400818e-01 7.925378084182739258e-01
-2.853066623210906982e-01 -1.310302615165710449e-01 -7.835993915796279907e-02
-1.468123346567153931e-01 9.208997339010238647e-02 1.249132584780454636e-02
2.567660212516784668e-01 -2.776368856430053711e-01 -8.452557027339935303e-02
2.166987210512161255e-01 9.208997339010238647e-02 -3.904871344566345215e-01
4.243703186511993408e-01 6.061215698719024658e-02 8.101879954338073730e-01
-2.270424040034413338e-03 5.102609866298735142e-04 5.393702387809753418e-01
-1.493453830480575562e-01 9.208997339010238647e-02 6.734231114387512207e-01
-3.664198219776153564e-01 1.108575686812400818e-01 1.098464950919151306e-01
4.284138083457946777e-01 -4.526531696319580078e-02 8.151260614395141602e-01
-1.426214235834777355e-03 -7.043934613466262817e-02 4.582101106643676758e-01
3.973417282104492188e-01 9.208997339010238647e-02 4.317768812179565430e-01
2.632038481533527374e-02 1.076255291700363159e-01 -4.554820954799652100e-01
2.985842227935791016e-01 9.208997339010238647e-02 4.986674487590789795e-01
-2.270424040034413338e-03 -2.600527741014957428e-02 -3.180260062217712402e-01
2.759393453598022461e-01 9.208997339010238647e-02 -6.565234065055847168e-01
1.651256829500198364e-01 1.108575686812400818e-01 -3.810422122478485107e-01
-2.614543735980987549e-01 9.208997339010238647e-02 6.251887083053588867e-01
-2.345030158758163452e-01 -2.692233622074127197e-01 -3.607001528143882751e-02
-2.853066623210906982e-01 -2.498447299003601074e-01 3.379559516906738281e-02
-2.270424040034413338e-03 5.927867442369461060e-02 -7.101914882659912109e-01
2.898197472095489502e-01 -5.433275550603866577e-02 1.656169630587100983e-02
-1.426214235834777355e-03 1.110941618680953979e-01 -7.720042467117309570e-01
2.711831629276275635e-01 9.208997339010238647e-02 4.095602035522460938e-01
-1.288415044546127319e-01 9.208997339010238647e-02 -2.970074117183685303e-02
-1.426214235834777355e-03 -2.256424725055694580e-01 4.587282836437225342e-01
-2.241841107606887817e-01 -1.698309741914272308e-02 1.321540921926498413e-01
3.875399529933929443e-01 9.208997339010238647e-02 7.392168045043945312e-01
-2.270424040034413338e-03 5.754728615283966064e-02 7.678105831146240234e-01
2.898197472095489502e-01 -7.397964596748352051e-02 -6.001409143209457397e-02
-4.314264953136444092e-01 2.223716303706169128e-02 3.189918119460344315e-03
4.479908943176269531e-01 -2.601049840450286865e-01 -8.490773290395736694e-02
1.072684377431869507e-01 3.419993678107857704e-03 -2.804179675877094269e-02
-2.270424040034413338e-03 8.330887556076049805e-02 9.920985251665115356e-02
3.132643401622772217e-01 -1.832680851221084595e-01 1.348855942487716675e-01
3.866141438484191895e-01 9.208997339010238647e-02 3.384980559349060059e-01
-2.564997375011444092e-01 -2.332983165979385376e-01 -9.307897835969924927e-02
2.610685825347900391e-01 -6.015432067215442657e-03 -9.034737199544906616e-02
-3.312758803367614746e-01 1.108575686812400818e-01 5.664838552474975586e-01
-1.426214235834777355e-03 1.287189126014709473e-01 -4.959560930728912354e-01
4.479908943176269531e-01 3.984237462282180786e-02 2.792607992887496948e-03
3.731814920902252197e-01 1.108575686812400818e-01 -7.360894232988357544e-02
-1.027543544769287109e-01 -1.901280283927917480e-01 7.618220522999763489e-03
-2.270424040034413338e-03 1.535165607929229736e-01 7.748485803604125977e-01
-1.100699752569198608e-01 -2.511000335216522217e-01 -9.307897835969924927e-02
4.249637424945831299e-01 5.294557660818099976e-02 -8.206620216369628906e-01
-1.426214235834777355e-03 1.100905984640121460e-02 -5.776695013046264648e-01
3.357899785041809082e-01 4.497591033577919006e-02 -2.236605435609817505e-02
-1.426214235834777355e-03 -2.040495127439498901e-01 3.837565779685974121e-01
-3.862882256507873535e-01 9.208997339010238647e-02 -7.690410614013671875e-01
4.138803184032440186e-01 -1.307207345962524414e-01 8.037766814231872559e-01
-1.027543544769287109e-01 -8.692867308855056763e-02 6.147471442818641663e-02
-2.453029155731201172e-01 8.709720522165298462e-02 -8.135428428649902344e-01
-1.426214235834777355e-03 -1.906833350658416748e-01 3.021252751350402832e-01
-4.445785582065582275e-01 2.127810940146446228e-02 -8.400914669036865234e-01
-2.270424040034413338e-03 1.236987709999084473e-01 4.804903566837310791e-01
-3.322369158267974854e-01 9.633191674947738647e-02 8.300330042839050293e-01
-1.152572929859161377e-01 1.108575686812400818e-01 -4.176213145256042480e-01
-2.202315479516983032e-01 1.108575686812400818e-01 -3.154446603730320930e-03
4.181232452392578125e-01 9.208997339010238647e-02 4.993840754032135010e-01
-1.426214235834777355e-03 -7.256139069795608521e-02 -6.217783093452453613e-01
-1.426214235834777355e-03 6.073729693889617920e-02 -4.011853635311126709e-01
-4.522999227046966553e-01 1.103961318731307983e-01 -8.640293031930923462e-03
3.293425142765045166e-01 9.208997339010238647e-02 -1.579489931464195251e-02
-1.426214235834777355e-03 7.601182162761688232e-02 2.784450650215148926e-01
-3.996378183364868164e-01 9.208997339010238647e-02 3.461558520793914795e-01
2.331190258264541626e-01 1.108575686812400818e-01 -6.291951239109039307e-02
4.467541873455047607e-01 -1.745008677244186401e-01 -8.472095727920532227e-01
3.279767632484436035e-01 -2.241085767745971680e-01 -9.034737199544906616e-02
-2.087023258209228516e-01 5.173331126570701599e-02 1.110392063856124878e-01
-2.270424040034413338e-03 1.631955429911613464e-02 3.901434540748596191e-01
-1.034504249691963196e-01 9.208997339010238647e-02 5.001925230026245117e-01
2.898197472095489502e-01 -1.904956102371215820e-01 3.628053888678550720e-02
-1.101296097040176392e-01 -2.861158847808837891e-01 -8.152878880500793457e-01
2.671660482883453369e-01 5.173331126570701599e-02 -7.754498720169067383e-02
3.296680450439453125e-01 9.208997339010238647e-02 3.841329813003540039e-01
-1.326855421066284180e-01 5.173331126570701599e-02 3.791826963424682617e-02
-1.426214235834777355e-03 1.113092452287673950e-01 -2.557390928268432617e-01
-1.426214235834777355e-03 -2.542626559734344482e-01 -5.032991170883178711e-01
3.529025986790657043e-02 9.208997339010238647e-02 -1.708698719739913940e-01
2.937205135822296143e-01 9.663596004247665405e-02 8.307408094406127930e-01
-3.335557281970977783e-01 1.108575686812400818e-01 3.217414617538452148e-01
8.996982127428054810e-02 9.208997339010238647e-02 4.531929194927215576e-01
4.359396398067474365e-01 -2.803918421268463135e-01 9.157650172710418701e-02
-2.231302112340927124e-01 -1.989531219005584717e-01 1.321540921926498413e-01
-1.426214235834777355e-03 -1.206952109932899475e-01 -1.024210378527641296e-01
-2.270424040034413338e-03 -2.081995606422424316e-01 2.309819757938385010e-01
-2.270424040034413338e-03 -2.492385953664779663e-01 6.817036271095275879e-01
-1.027543544769287109e-01 -1.178141124546527863e-02 -3.840215876698493958e-02
-9.928825497627258301e-02 9.197753667831420898e-02 -8.296396136283874512e-01
4.267381429672241211e-01 -2.332318425178527832e-01 8.210182189941406250e-01
-4.264511913061141968e-02 1.108575686812400818e-01 8.357765674591064453e-01
-2.270424040034413338e-03 1.307103484869003296e-01 7.167322039604187012e-01
-1.426214235834777355e-03 7.579674571752548218e-02 4.575932323932647705e-01
3.415003120899200439e-01 9.208997339010238647e-02 -2.139296829700469971e-01
-1.426214235834777355e-03 2.041539996862411499e-01 -5.137440562248229980e-01
1.268640905618667603e-01 9.208997339010238647e-02 -4.669066965579986572e-01
-1.867280900478363037e-01 9.208997339010238647e-02 -4.136003255844116211e-01
-3.068849444389343262e-01 9.208997339010238647e-02 5.252121090888977051e-01
1.933205872774124146e-01 9.208997339010238647e-02 -7.459933161735534668e-01
-2.270424040034413338e-03 2.825865149497985840e-01 -3.349820673465728760e-01
4.063447415828704834e-01 -7.511888444423675537e-02 1.281203925609588623e-01
-2.270424040034413338e-03 -1.025708913803100586e-01 3.302918076515197754e-01
-8.715271204710006714e-02 9.208997339010238647e-02 -4.924996569752693176e-02
-1.426214235834777355e-03 -6.472166627645492554e-02 -7.586781382560729980e-01
-3.362354040145874023e-01 1.108575686812400818e-01 -1.209079623222351074e-01
2.898197472095489502e-01 -1.814462691545486450e-01 9.692708402872085571e-02
2.632038481533527374e-02 1.022798269987106323e-01 -5.978791713714599609e-01
3.154405653476715088e-01 1.108575686812400818e-01 -4.442617893218994141e-01
3.632643818855285645e-01 9.208997339010238647e-02 -5.996515750885009766e-01
2.946659028530120850e-01 -2.806656062602996826e-01 1.290647834539413452e-01
-1.426214235834777355e-03 1.545968502759933472e-01 -3.202604129910469055e-02
-2.998810634016990662e-02 1.006344705820083618e-01 -5.712626129388809204e-02
1.838141083717346191e-01 -2.186045050621032715e-01 -9.034737199544906616e-02
-3.790068328380584717e-01 1.108575686812400818e-01 -2.906317710876464844e-01
1.072684377431869507e-01 -2.151915878057479858e-01 2.283095940947532654e-02
-3.892885744571685791e-01 1.108575686812400818e-01 2.087007611989974976e-01
-2.270424040034413338e-03 2.062844811007380486e-03 6.442623138427734375e-01
-2.672400176525115967e-01 5.173331126570701599e-02 3.363018110394477844e-02
1.249332651495933533e-01 -1.695229709148406982e-01 1.348855942487716675e-01
3.319312930107116699e-01 9.208997339010238647e-02 2.949474751949310303e-01
2.598690092563629150e-01 9.208997339010238647e-02 -3.210742771625518799e-01
4.475216269493103027e-01 -4.444361478090286255e-02 -9.034737199544906616e-02
-2.853066623210906982e-01 8.933737874031066895e-03 -7.358215749263763428e-02
-1.426214235834777355e-03 -1.386207044124603271e-01 -3.791847229003906250e-01
3.292202949523925781e-01 9.208997339010238647e-02 -5.482887029647827148e-01
7.772213965654373169e-02 9.208997339010238647e-02 -3.405330479145050049e-01
-2.853066623210906982e-01 -1.553118079900741577e-01 2.859165705740451813e-02
-4.223051965236663818e-01 9.208997339010238647e-02 5.456514954566955566e-01
-2.270424040034413338e-03 -8.006635308265686035e-02 -2.918762862682342529e-01
-2.270424040034413338e-03 -1.366309225559234619e-01 6.885412335395812988e-01
-1.426214235834777355e-03 -2.567556202411651611e-01 -1.687181144952774048e-01
-1.870448291301727295e-01 -2.692233622074127197e-01 1.182247996330261230e-01
4.479908943176269531e-01 -1.881981790065765381e-01 1.333565860986709595e-01
2.442288398742675781e-01 -2.847203426063060760e-02 1.348855942487716675e-01
-1.911235153675079346e-01 -1.945146620273590088e-01 -9.307897835969924927e-02
4.359396398067474365e-01 -2.440092563629150391e-01 6.845597643405199051e-03
2.139036655426025391e-01 9.208997339010238647e-02 -1.141994521021842957e-01
-1.377125382423400879e-01 -2.466719038784503937e-02 1.321540921926498413e-01
2.161541730165481567e-01 5.173331126570701599e-02 1.304222177714109421e-02
4.436834454536437988e-01 4.061809740960597992e-03 -8.434681892395019531e-01
-2.614846825599670410e-01 -1.053295806050300598e-01 1.321540921926498413e-01
1.523558497428894043e-01 1.108575686812400818e-01 5.173920392990112305e-01
-1.426214235834777355e-03 -2.129625827074050903e-01 1.324483752250671387e-01
-4.434767961502075195e-01 -2.494184821844100952e-01 8.237131685018539429e-02
-4.314264953136444092e-01 -1.756039410829544067e-01 1.018983423709869385e-01
-1.426214235834777355e-03 -1.747250258922576904e-01 -4.541505277156829834e-01
-1.426214235834777355e-03 1.469947695732116699e-01 6.660517454147338867e-01
-3.923660516738891602e-02 9.208997339010238647e-02 -5.554430484771728516e-01
-2.270424040034413338e-03 8.788321167230606079e-02 -4.808017909526824951e-01
-1.027543544769287109e-01 1.367799285799264908e-02 2.772567048668861389e-02
-1.386743970215320587e-02 -2.861158847808837891e-01 -8.282024264335632324e-01
4.336861968040466309e-01 5.173331126570701599e-02 -8.741614222526550293e-02
1.163486838340759277e-01 9.208997339010238647e-02 7.601224780082702637e-01
-2.270424040034413338e-03 -1.788251250982284546e-01 8.758111298084259033e-02
-1.218866184353828430e-01 -2.787503898143768311e-01 8.204834461212158203e-01
1.371653974056243896e-01 1.108575686812400818e-01 2.367138266563415527e-01
-1.307537555694580078e-01 -1.454168111085891724e-01 -9.307897835969924927e-02
-2.808701694011688232e-01 -1.862458437681198120e-01 1.321540921926498413e-01
-1.426214235834777355e-03 9.260322898626327515e-02 5.985736250877380371e-01
-1.426214235834777355e-03 -1.788056455552577972e-02 -2.205971479415893555e-01
-1.426214235834777355e-03 1.903508007526397705e-01 4.053387939929962158e-01
-2.270424040034413338e-03 -4.602610692381858826e-02 -7.102853059768676758e-01
1.843400597572326660e-01 9.208997339010238647e-02 -5.639210939407348633e-01
8.652229607105255127e-02 1.108575686812400818e-01 5.755416154861450195e-01
-2.154372334480285645e-01 9.208997339010238647e-02 4.580439329147338867e-01
-2.270424040034413338e-03 -2.604980170726776123e-01 -4.920440912246704102e-02
-2.270424040034413338e-03 6.984883546829223633e-02 -2.840004861354827881e-01
-1.106555759906768799e-01 1.108575686812400818e-01 -1.675400435924530029e-01
-4.260602593421936035e-01 1.108575686812400818e-01 9.115533530712127686e-02
-2.650833427906036377e-01 9.208997339010238647e-02 5.026948079466819763e-02
1.130931675434112549e-01 -2.749767303466796875e-01 -2.686287276446819305e-02
-1.426214235834777355e-03 -4.232508689165115356e-02 -3.748528063297271729e-01
-4.391898512840270996e-01 1.108575686812400818e-01 7.271127700805664062e-01
-1.426214235834777355e-03 -2.149970382452011108e-01 -1.446732282638549805e-01
3.112543523311614990e-01 1.108575686812400818e-01 -3.942500352859497070e-01
-2.270424040034413338e-03 -2.558835744857788086e-01 -6.583114862442016602e-01
-4.314264953136444092e-01 8.628031238913536072e-03 1.003673747181892395e-01
-1.426214235834777355e-03 1.579178571701049805e-01 3.574211299419403076e-01
-2.853066623210906982e-01 -7.595016062259674072e-02 -6.641063094139099121e-02
1.892800331115722656e-01 1.108575686812400818e-01 7.552944868803024292e-02
-2.057928889989852905e-01 9.720493853092193604e-02 8.320634961128234863e-01
4.398872852325439453e-01 1.033151522278785706e-01 -6.613421440124511719e-01
1.271182745695114136e-01 -5.967717990279197693e-02 -9.034737199544906616e-02
-4.324755072593688965e-01 -2.579033970832824707e-01 -8.253458142280578613e-01
-3.140060007572174072e-01 -1.686630398035049438e-01 -9.307897835969924927e-02
-4.339878857135772705e-01 -8.022312819957733154e-02 -9.307897835969924927e-02
-2.221653014421463013e-01 9.208997339010238647e-02 -6.484716534614562988e-01
1.659859865903854370e-01 5.173331126570701599e-02 -3.756882622838020325e-02
-2.270424040034413338e-03 2.675994038581848145e-01 5.075805187225341797e-01
2.939580678939819336e-01 -2.739531397819519043e-01 8.081687986850738525e-02
-2.503523528575897217e-01 1.108575686812400818e-01 2.474814802408218384e-01
-1.371240019798278809e-01 1.108575686812400818e-01 -5.155791044235229492e-01
-3.079867362976074219e-01 1.108575686812400818e-01 4.311121106147766113e-01
3.655080795288085938e-01 -9.397292882204055786e-02 -8.359574526548385620e-02
-2.270424040034413338e-03 -6.819724291563034058e-02 -4.462766945362091064e-01
-4.410884380340576172e-01 -3.916732966899871826e-02 8.261263370513916016e-01
-3.304165601730346680e-01 -2.633966803550720215e-01 -9.307897835969924927e-02
4.359396398067474365e-01 -1.926131695508956909e-01 4.464672878384590149e-02
1.337974518537521362e-01 -2.473933808505535126e-02 1.348855942487716675e-01
2.391725331544876099e-01 -2.369370609521865845e-01 1.348855942487716675e-01
2.898197472095489502e-01 -3.492401540279388428e-02 -4.766727983951568604e-02
-1.426214235834777355e-03 9.528193622827529907e-02 -6.840427517890930176e-01
2.388117909431457520e-01 1.108575686812400818e-01 5.441401004791259766e-01
-3.307919502258300781e-01 9.208997339010238647e-02 2.494147419929504395e-02
-4.434767961502075195e-01 -2.415211945772171021e-01 1.483236346393823624e-02
-2.270424040034413338e-03 2.036104351282119751e-01 -1.939380764961242676e-01
-1.159494593739509583e-01 -2.692233622074127197e-01 3.355636820197105408e-02
-2.270424040034413338e-03 -1.698779463768005371e-01 4.067729711532592773e-01
2.858349382877349854e-01 9.208997339010238647e-02 6.916344165802001953e-01
-1.413522511720657349e-01 8.885595202445983887e-02 8.037766814231872559e-01
-1.426214235834777355e-03 -6.075530871748924255e-02 7.056116461753845215e-01
1.072684377431869507e-01 -1.996003091335296631e-01 -4.128725081682205200e-02
1.408696472644805908e-01 9.208997339010238647e-02 5.641404390335083008e-01
4.291186630725860596e-01 9.749431163072586060e-02 -5.422411561012268066e-01
-3.556462824344635010e-01 -2.324125766754150391e-01 -8.631395548582077026e-02
3.689923584461212158e-01 9.208997339010238647e-02 5.993850827217102051e-01
-1.426214235834777355e-03 1.590665727853775024e-01 -8.140478283166885376e-02
-2.270424040034413338e-03 2.756951749324798584e-01 -2.145700305700302124e-01
-1.027543544769287109e-01 -3.568109869956970215e-02 6.022060662508010864e-02
-4.434767961502075195e-01 -2.106788307428359985e-01 -5.716995894908905029e-02
-2.270424040034413338e-03 -1.130873858928680420e-01 5.238023400306701660e-01
2.992685735225677490e-01 -9.591943025588989258e-02 -9.034737199544906616e-02
4.106570482254028320e-01 9.208997339010238647e-02 -7.371878623962402344e-01
2.192258983850479126e-01 -2.861158847808837891e-01 -8.330954909324645996e-01
-4.520320296287536621e-01 1.078973039984703064e-01 1.501855552196502686e-01
-1.426214235834777355e-03 2.330313026905059814e-01 -8.945050649344921112e-03
-2.270424040034413338e-03 3.261375054717063904e-02 -5.378965139389038086e-01
-2.966813743114471436e-01 1.108575686812400818e-01 -1.742505282163619995e-01
3.996078670024871826e-01 9.208997339010238647e-02 -1.476823836565017700e-01
1.679901480674743652e-01 -1.652077212929725647e-02 -9.034737199544906616e-02
-4.356175959110260010e-01 5.173331126570701599e-02 9.306348115205764771e-02
-2.270424040034413338e-03 -1.335793733596801758e-02 7.401709556579589844e-01
-1.426214235834777355e-03 -6.853843480348587036e-02 1.872006654739379883e-01
-1.027543544769287109e-01 -1.095515787601470947e-01 1.028397977352142334e-01
-2.998810634016990662e-02 1.060085147619247437e-01 -3.482612371444702148e-01
3.335961997509002686e-01 4.497591033577919006e-02 7.390619069337844849e-02
1.072684377431869507e-01 -7.100500911474227905e-02 6.213402748107910156e-02
