6.169493794441223145e-01 -3.016937077045440674e-01 -2.517052888870239258e-01
2.755420804023742676e-01 3.180390596389770508e-01 2.888311147689819336e-01
-3.302192687988281250e-01 -3.016937077045440674e-01 -1.114358901977539062e-01
8.485231399536132812e-01 3.180390596389770508e-01 -2.844986915588378906e-01
7.023024559020996094e-01 6.480286270380020142e-02 -3.396154940128326416e-01
8.254027962684631348e-01 4.085009172558784485e-02 3.730855882167816162e-01
5.264480113983154297e-01 -3.214910626411437988e-01 -7.906228303909301758e-02
-4.924260973930358887e-01 -1.168257072567939758e-01 3.730855882167816162e-01
-2.978118062019348145e-01 -1.094588935375213623e-01 -3.660105764865875244e-01
-5.883995294570922852e-01 -3.478871583938598633e-01 2.847523689270019531e-01
2.821178138256072998e-01 2.937219142913818359e-01 -2.673456966876983643e-01
8.121561408042907715e-01 -3.214910626411437988e-01 1.502608209848403931e-01
-2.741255797445774078e-02 -3.214910626411437988e-01 -3.104246854782104492e-01
-6.973290443420410156e-01 2.856185436248779297e-01 -3.468658030033111572e-01
-1.154688000679016113e-01 -3.478871583938598633e-01 -3.000208139419555664e-01
-5.494608776643872261e-04 2.856245338916778564e-01 -1.783087849617004395e-01
-4.569603204727172852e-01 -3.016937077045440674e-01 1.438103914260864258e-01
2.176186144351959229e-01 -1.486508101224899292e-01 -3.396154940128326416e-01
-8.196564912796020508e-01 2.460288703441619873e-01 3.586851656436920166e-01
-2.668327093124389648e-01 -2.072338759899139404e-01 3.730855882167816162e-01
-6.542590260505676270e-01 2.272339314222335815e-01 3.730855882167816162e-01
-8.249772191047668457e-01 1.381870210170745850e-01 -4.016388207674026489e-02
-1.768234819173812866e-01 2.937219142913818359e-01 1.329273730516433716e-01
8.379889130592346191e-01 1.766199171543121338e-01 -2.548006772994995117e-01
-2.359809586778283119e-03 4.789372906088829041e-02 -3.660105764865875244e-01
2.605111300945281982e-01 1.962207704782485962e-01 3.730855882167816162e-01
7.526178359985351562e-01 -8.836365491151809692e-02 3.730855882167816162e-01
2.863378822803497314e-01 2.874870300292968750e-01 -1.634442508220672607e-01
3.094441592693328857e-01 -3.214910626411437988e-01 1.273921430110931396e-01
3.476966023445129395e-01 -3.056030571460723877e-01 -3.660105764865875244e-01
5.835517775267362595e-03 -1.750739961862564087e-01 -3.396154940128326416e-01
-8.099181577563285828e-03 2.856185436248779297e-01 3.536430895328521729e-01
-1.460799723863601685e-01 -8.660324662923812866e-02 3.730855882167816162e-01
8.379889130592346191e-01 2.458684742450714111e-01 1.136613115668296814e-01
6.648198962211608887e-01 2.874870300292968750e-01 2.660476267337799072e-01
6.074838042259216309e-01 -1.609221547842025757e-01 -3.396154940128326416e-01
8.040808439254760742e-01 -2.552747428417205811e-01 -3.396154940128326416e-01
-2.653100788593292236e-01 -3.478871583938598633e-01 -3.806194961071014404e-01
4.963590502738952637e-01 8.909720927476882935e-03 3.466884493827819824e-01
-3.308557868003845215e-01 -2.035881578922271729e-01 3.730855882167816162e-01
-6.869331598281860352e-01 -7.564073801040649414e-02 -3.660105764865875244e-01
8.379889130592346191e-01 -3.260359168052673340e-01 2.711428105831146240e-01
4.388926327228546143e-01 -3.465058505535125732e-01 3.994807004928588867e-01
-6.878353357315063477e-01 3.180390596389770508e-01 3.007576465606689453e-01
-4.884195327758789062e-01 -2.510255575180053711e-01 3.730855882167816162e-01
-1.637803167104721069e-01 2.937219142913818359e-01 -1.010390371084213257e-01
8.045419454574584961e-01 1.613223254680633545e-01 -3.396154940128326416e-01
1.794182807207107544e-01 2.874870300292968750e-01 -1.052651405334472656e-01
5.231711864471435547e-01 -9.741259366273880005e-02 3.466884493827819824e-01
-8.600039482116699219e-01 2.856245338916778564e-01 2.472246587276458740e-01
-7.162773013114929199e-01 -3.214910626411437988e-01 -7.581803202629089355e-02
5.888723134994506836e-01 2.856185436248779297e-01 3.651075065135955811e-01
-2.876625359058380127e-01 1.866334304213523865e-02 3.730855882167816162e-01
1.691757738590240479e-01 2.874870300292968750e-01 5.408396199345588684e-02
-3.625164926052093506e-01 -3.016937077045440674e-01 -2.021888792514801025e-01
-3.472931087017059326e-01 2.937219142913818359e-01 2.261262089014053345e-01
-3.879262506961822510e-01 -1.480613946914672852e-01 -3.396154940128326416e-01
1.151666417717933655e-01 -1.767770648002624512e-01 -3.660105764865875244e-01
6.950080990791320801e-01 2.675523459911346436e-01 -3.924077153205871582e-01
2.513312101364135742e-01 -3.478871583938598633e-01 -2.778728604316711426e-01
-7.471361160278320312e-01 3.180390596389770508e-01 -2.912418246269226074e-01
-3.889566957950592041e-01 2.874870300292968750e-01 -1.256779432296752930e-01
4.231069087982177734e-01 2.046649605035781860e-01 3.466884493827819824e-01
8.379889130592346191e-01 8.063551783561706543e-02 -4.452180117368698120e-02
4.523528218269348145e-01 -2.492373138666152954e-01 3.466884493827819824e-01
8.379889130592346191e-01 -1.787367314100265503e-01 -2.892550528049468994e-01
-5.698481798171997070e-01 7.370103895664215088e-02 -3.396154940128326416e-01
5.317226648330688477e-01 -3.214910626411437988e-01 6.473332643508911133e-02
-8.249772191047668457e-01 -2.188165634870529175e-01 3.346867561340332031e-01
-1.389739960432052612e-01 2.730605006217956543e-01 3.202923238277435303e-01
4.771246388554573059e-02 -1.060167625546455383e-01 3.730855882167816162e-01
1.990842968225479126e-01 2.022000700235366821e-01 -3.660105764865875244e-01
1.723603904247283936e-01 -1.138585526496171951e-02 -3.660105764865875244e-01
5.126901268959045410e-01 2.874870300292968750e-01 1.949095726013183594e-01
-1.822103708982467651e-01 -3.478871583938598633e-01 -3.471525013446807861e-01
-8.121650665998458862e-02 -2.065823227167129517e-01 -3.660105764865875244e-01
-8.249772191047668457e-01 -1.443475186824798584e-01 -8.977430313825607300e-02
-2.966680526733398438e-01 -3.214910626411437988e-01 -2.062291372567415237e-03
-5.504719018936157227e-01 -3.016937077045440674e-01 -2.444308698177337646e-01
-2.545012235641479492e-01 2.874870300292968750e-01 1.579221487045288086e-01
5.829100608825683594e-01 -3.033380955457687378e-02 -3.660105764865875244e-01
-3.696465492248535156e-01 2.937219142913818359e-01 -2.230928689241409302e-01
-6.404489874839782715e-01 -3.214910626411437988e-01 -1.724557876586914062e-01
7.634372264146804810e-02 -2.919363677501678467e-01 -3.660105764865875244e-01
-7.444245815277099609e-01 2.034410387277603149e-01 -3.396154940128326416e-01
8.643850088119506836e-01 -2.353921979665756226e-01 -1.420651841908693314e-02
1.577574759721755981e-01 -3.381569087505340576e-01 -3.924077153205871582e-01
-1.695561110973358154e-01 -3.478871583938598633e-01 2.856465280055999756e-01
7.660749554634094238e-01 -2.025476694107055664e-01 3.730855882167816162e-01
4.631366431713104248e-01 2.874870300292968750e-01 -6.886871159076690674e-02
-5.418773293495178223e-01 2.937219142913818359e-01 1.367876082658767700e-01
-5.123481899499893188e-02 -3.089701235294342041e-01 3.730855882167816162e-01
-4.617557823657989502e-01 2.874870300292968750e-01 -9.755776263773441315e-03
1.661826223134994507e-01 -1.510114520788192749e-01 3.730855882167816162e-01
-4.284445568919181824e-02 2.856185436248779297e-01 4.081634059548377991e-02
-3.188425302505493164e-02 -3.016937077045440674e-01 2.529282309114933014e-02
-3.315183818340301514e-01 -1.531235128641128540e-01 -3.396154940128326416e-01
6.082626581192016602e-01 2.874870300292968750e-01 -1.790194809436798096e-01
6.198132634162902832e-01 -6.269036978483200073e-02 3.730855882167816162e-01
-5.775826573371887207e-01 -1.554801464080810547e-01 -3.660105764865875244e-01
-7.085798978805541992e-01 2.937219142913818359e-01 -1.968641430139541626e-01
-4.282942041754722595e-02 -3.214910626411437988e-01 -1.707066148519515991e-01
-6.367295980453491211e-02 -3.016937077045440674e-01 1.993010789155960083e-01
4.303752779960632324e-01 2.937219142913818359e-01 1.726843975484371185e-02
-8.058349043130874634e-02 3.259635344147682190e-02 3.730855882167816162e-01
-3.308126926422119141e-01 -3.016937077045440674e-01 3.305909931659698486e-01
-3.293817117810249329e-02 -3.016937077045440674e-01 -2.781525440514087677e-02
5.171889066696166992e-01 1.985603570938110352e-01 3.730855882167816162e-01
2.960551381111145020e-01 2.937219142913818359e-01 -5.012619867920875549e-02
-7.517340779304504395e-01 -3.478871583938598633e-01 -2.352298796176910400e-01
-5.895503163337707520e-01 2.874870300292968750e-01 -8.345288038253784180e-02
8.355962038040161133e-01 2.856245338916778564e-01 5.045729503035545349e-02
3.924846947193145752e-01 -2.149984538555145264e-01 -3.396154940128326416e-01
-6.627152562141418457e-01 -2.913680374622344971e-01 -3.396154940128326416e-01
8.643850088119506836e-01 1.222128346562385559e-01 7.181987166404724121e-02
7.270025610923767090e-01 2.874870300292968750e-01 -1.694055646657943726e-02
8.154740929603576660e-01 2.856245338916778564e-01 3.496946394443511963e-01
-3.859505355358123779e-01 6.909422576427459717e-02 3.730855882167816162e-01
3.141133189201354980e-01 3.978731576353311539e-03 3.730855882167816162e-01
7.522669434547424316e-01 2.874870300292968750e-01 -2.377047985792160034e-01
-4.028770029544830322e-01 -3.214910626411437988e-01 -1.613772958517074585e-01
-4.232306778430938721e-01 -5.126906931400299072e-02 -3.396154940128326416e-01
4.489035904407501221e-01 -3.016937077045440674e-01 -2.196606546640396118e-01
4.000598192214965820e-01 -1.646169871091842651e-01 3.730855882167816162e-01
-6.893278956413269043e-01 -3.214910626411437988e-01 -2.877534925937652588e-01
6.418218612670898438e-01 1.104126200079917908e-01 -3.396154940128326416e-01
-6.099129915237426758e-01 -1.192404851317405701e-01 3.466884493827819824e-01
-4.241187870502471924e-01 2.856245338916778564e-01 3.604824542999267578e-01
8.793613314628601074e-02 1.250325739383697510e-01 3.466884493827819824e-01
8.379889130592346191e-01 -1.771299093961715698e-01 3.979389965534210205e-01
1.741396635770797729e-01 -3.016937077045440674e-01 2.789866030216217041e-01
-8.249772191047668457e-01 7.164050638675689697e-02 1.423860043287277222e-01
-4.965890347957611084e-01 1.277129650115966797e-01 3.730855882167816162e-01
-8.249772191047668457e-01 1.534695476293563843e-01 -1.780912727117538452e-01
8.643850088119506836e-01 -1.314566880464553833e-01 2.087095826864242554e-01
8.379889130592346191e-01 -1.311399340629577637e-01 4.578281939029693604e-02
-4.925834834575653076e-01 1.982626467943191528e-01 -3.660105764865875244e-01
-2.326309233903884888e-01 -1.812527626752853394e-01 -3.660105764865875244e-01
-2.092885784804821014e-02 2.856245338916778564e-01 -6.658194959163665771e-02
-7.862064838409423828e-01 1.390480697154998779e-01 -3.660105764865875244e-01
4.669096469879150391e-01 2.856185436248779297e-01 3.538094758987426758e-01
3.973824083805084229e-01 -3.214910626411437988e-01 3.540731370449066162e-01
-7.667099237442016602e-01 2.856185436248779297e-01 1.979668885469436646e-01
8.643850088119506836e-01 -3.837283328175544739e-02 2.383534461259841919e-01
-6.152316927909851074e-01 -3.199092745780944824e-01 -3.660105764865875244e-01
8.379889130592346191e-01 -1.720437407493591309e-01 2.269271314144134521e-01
5.123713612556457520e-01 -7.335537672042846680e-02 -3.396154940128326416e-01
-5.691009014844894409e-02 -2.085289806127548218e-01 3.466884493827819824e-01
3.672799840569496155e-02 -3.023161888122558594e-01 -3.396154940128326416e-01
-5.070269703865051270e-01 3.180390596389770508e-01 -3.084930777549743652e-01
-2.687573134899139404e-01 2.856185436248779297e-01 -2.855251431465148926e-01
-5.971695184707641602e-01 -3.016937077045440674e-01 -2.679491341114044189e-01
2.748384177684783936e-01 -3.887392580509185791e-02 3.466884493827819824e-01
5.253092646598815918e-01 2.937219142913818359e-01 -2.003464847803115845e-01
-1.328864395618438721e-01 2.937219142913818359e-01 5.918205156922340393e-02
-4.542838931083679199e-01 -3.016937077045440674e-01 -2.414397150278091431e-01
2.194088846445083618e-01 -3.016937077045440674e-01 2.031442672014236450e-01
-8.513743281364440918e-01 6.491138134151697159e-03 7.624023407697677612e-02
1.224420368671417236e-01 1.259186714887619019e-01 -3.396154940128326416e-01
5.336632728576660156e-01 2.054318040609359741e-01 -3.660105764865875244e-01
3.380475342273712158e-01 1.108867526054382324e-01 3.730855882167816162e-01
2.084452100098133087e-02 -3.016937077045440674e-01 1.537120789289474487e-01
-7.302717566490173340e-01 -1.675830781459808350e-01 -3.660105764865875244e-01
-4.212278723716735840e-01 -2.890705466270446777e-01 -3.396154940128326416e-01
6.933761239051818848e-01 2.856245338916778564e-01 3.222610354423522949e-01
-5.548052191734313965e-01 -3.214910626411437988e-01 2.210620604455471039e-02
-8.513743281364440918e-01 8.363007754087448120e-02 -3.631397187709808350e-01
-6.846095323562622070e-01 -9.263487160205841064e-02 3.466884493827819824e-01
9.909231215715408325e-02 -3.214910626411437988e-01 3.564197421073913574e-01
6.304616928100585938e-01 2.937219142913818359e-01 2.241314351558685303e-01
-6.498043537139892578e-01 2.856185436248779297e-01 3.489368557929992676e-01
8.643850088119506836e-01 1.695916801691055298e-02 2.713392972946166992e-01
3.962723165750503540e-02 3.180390596389770508e-01 2.019022852182388306e-01
6.847655773162841797e-01 1.920818835496902466e-01 3.466884493827819824e-01
-8.513743281364440918e-01 -7.071225345134735107e-02 -2.690046727657318115e-01
8.643850088119506836e-01 1.160591244697570801e-01 1.791318506002426147e-01
1.999734193086624146e-01 -3.016937077045440674e-01 -8.738759160041809082e-02
-2.725533843040466309e-01 2.856185436248779297e-01 3.637833595275878906e-01
-8.303310275077819824e-01 2.856185436248779297e-01 -6.162840500473976135e-02
3.694606423377990723e-01 -3.214910626411437988e-01 -8.166576735675334930e-03
3.484995067119598389e-01 2.937219142913818359e-01 1.373940557241439819e-01
6.553437560796737671e-02 1.633902788162231445e-01 -3.660105764865875244e-01
1.905248314142227173e-01 -6.178801879286766052e-02 3.466884493827819824e-01
-4.309070110321044922e-01 1.836236566305160522e-01 -3.660105764865875244e-01
7.552952170372009277e-01 2.937219142913818359e-01 2.653489708900451660e-01
3.723946511745452881e-01 -3.214910626411437988e-01 1.841979622840881348e-01
-8.513743281364440918e-01 4.823675006628036499e-02 3.402691185474395752e-01
8.379889130592346191e-01 -3.557042777538299561e-02 -2.206901162862777710e-01
2.952903211116790771e-01 -3.016937077045440674e-01 3.006293475627899170e-01
-5.211236476898193359e-01 -1.898392885923385620e-01 -3.660105764865875244e-01
7.075340151786804199e-01 -3.214910626411437988e-01 7.773170620203018188e-02
4.081160724163055420e-01 -7.522092759609222412e-02 -3.396154940128326416e-01
-7.244162261486053467e-02 -2.716859877109527588e-01 -3.660105764865875244e-01
5.408394336700439453e-01 2.937219142913818359e-01 1.677997037768363953e-02
7.281121611595153809e-01 -1.165420338511466980e-01 -3.396154940128326416e-01
-7.292582988739013672e-01 2.874870300292968750e-01 1.192947775125503540e-01
-9.630643762648105621e-03 2.281230539083480835e-01 -3.396154940128326416e-01
-3.177554905414581299e-01 3.021350502967834473e-01 3.895830214023590088e-01
7.983942627906799316e-01 2.550805211067199707e-01 -3.566823005676269531e-01
-4.344895780086517334e-01 -3.016937077045440674e-01 -8.043897897005081177e-02
-2.244774401187896729e-01 -3.214910626411437988e-01 3.242898881435394287e-01
-1.522557437419891357e-01 2.874870300292968750e-01 -2.064119726419448853e-01
1.591498255729675293e-01 1.570410877466201782e-01 3.730855882167816162e-01
1.398486644029617310e-01 5.986796692013740540e-02 3.730855882167816162e-01
-4.859526157379150391e-01 2.460288703441619873e-01 -3.906655311584472656e-01
-5.874021649360656738e-01 2.064141333103179932e-01 -3.660105764865875244e-01
-5.145490169525146484e-01 7.467616349458694458e-02 3.730855882167816162e-01
1.934568285942077637e-01 -3.478871583938598633e-01 3.532090485095977783e-01
-7.979375123977661133e-01 -3.214910626411437988e-01 -1.653949171304702759e-01
-2.523625455796718597e-02 2.856185436248779297e-01 1.807537227869033813e-01
6.507893204689025879e-01 -1.921377927064895630e-01 -3.660105764865875244e-01
-1.241625845432281494e-01 3.180390596389770508e-01 -3.454845249652862549e-01
-8.249772191047668457e-01 6.562703847885131836e-02 -6.476881355047225952e-02
-7.853835225105285645e-01 2.780614495277404785e-01 1.385638415813446045e-01
-3.995730876922607422e-01 -7.342653721570968628e-02 3.730855882167816162e-01
2.253811806440353394e-01 2.937219142913818359e-01 -4.752166860271245241e-04
-5.250570774078369141e-01 2.246768176555633545e-01 3.730855882167816162e-01
-2.050950974225997925e-01 2.937219142913818359e-01 1.807006001472473145e-01
-8.513743281364440918e-01 -7.620107382535934448e-02 -1.385216563940048218e-01
-7.767618894577026367e-01 -2.184988111257553101e-01 3.730855882167816162e-01
1.969501972198486328e-01 2.856185436248779297e-01 3.089793026447296143e-01
4.235860407352447510e-01 -3.478871583938598633e-01 3.178916275501251221e-01
-8.249772191047668457e-01 -2.900037467479705811e-01 -2.844125032424926758e-01
1.640434376895427704e-02 2.968212962150573730e-01 -3.312524855136871338e-01
3.310056924819946289e-01 1.387924551963806152e-01 -3.396154940128326416e-01
1.951047778129577637e-01 1.077943593263626099e-01 3.730855882167816162e-01
-6.648412942886352539e-01 8.322902023792266846e-02 -3.660105764865875244e-01
-1.686188727617263794e-01 2.856245338916778564e-01 -3.432792425155639648e-01
3.664734959602355957e-01 2.655505537986755371e-01 -3.132183551788330078e-01
-5.158441066741943359e-01 2.937219142913818359e-01 -1.797361969947814941e-01
6.167730093002319336e-01 2.093932628631591797e-01 -3.660105764865875244e-01
5.642123222351074219e-01 2.856185436248779297e-01 -3.322568833827972412e-01
7.138320803642272949e-01 -3.478871583938598633e-01 -3.850440979003906250e-01
2.759611010551452637e-01 7.675714045763015747e-02 3.730855882167816162e-01
7.467562705278396606e-02 3.180390596389770508e-01 2.858610153198242188e-01
-7.268280535936355591e-02 2.467325478792190552e-01 -2.992369234561920166e-01
6.456260085105895996e-01 -3.214910626411437988e-01 -1.833608597517013550e-01
7.728842496871948242e-01 -1.617571413516998291e-01 3.466884493827819824e-01
-8.513743281364440918e-01 -2.114499509334564209e-01 -1.389516890048980713e-01
8.379889130592346191e-01 -1.252558678388595581e-01 -2.903817594051361084e-01
-1.625994890928268433e-01 -3.478871583938598633e-01 3.445513546466827393e-01
7.977266311645507812e-01 -3.478871583938598633e-01 3.379034399986267090e-01
-1.033869162201881409e-01 2.856185436248779297e-01 -2.637982070446014404e-01
2.434303313493728638e-01 -1.665616333484649658e-01 3.730855882167816162e-01
2.165961563587188721e-01 2.937219142913818359e-01 -1.777374148368835449e-01
-8.249772191047668457e-01 -1.513703018426895142e-01 -9.247962385416030884e-03
2.545047700405120850e-01 2.806265950202941895e-01 -3.924077153205871582e-01
7.977386713027954102e-01 1.904976740479469299e-02 -3.396154940128326416e-01
-8.249772191047668457e-01 4.367133602499961853e-02 -9.696589550003409386e-04
5.996746197342872620e-02 -3.016937077045440674e-01 1.487511582672595978e-02
-5.043706297874450684e-01 -3.214910626411437988e-01 -3.153063356876373291e-01
-4.004201292991638184e-01 2.981545031070709229e-01 -2.703248262405395508e-01
-3.181293606758117676e-01 -3.214910626411437988e-01 3.775893449783325195e-01
8.643850088119506836e-01 -3.019102513790130615e-01 2.275927215814590454e-01
-4.478495121002197266e-01 -2.571105584502220154e-02 3.466884493827819824e-01
-8.091574311256408691e-01 -3.016937077045440674e-01 -2.207122370600700378e-02
-7.419797778129577637e-01 1.240237336605787277e-02 3.730855882167816162e-01
-7.751551270484924316e-01 3.553247451782226562e-02 -3.660105764865875244e-01
1.086149811744689941e-01 3.180390596389770508e-01 -1.174222007393836975e-01
-8.249772191047668457e-01 -7.441099733114242554e-02 -3.745279610157012939e-01
-8.488297462463378906e-02 1.451636850833892822e-01 -3.396154940128326416e-01
2.377943880856037140e-02 -3.478871583938598633e-01 2.883189022541046143e-01
3.258593976497650146e-01 -3.214910626411437988e-01 3.355388045310974121e-01
4.703438580036163330e-01 3.180390596389770508e-01 -3.321796953678131104e-01
1.419126093387603760e-01 2.841861248016357422e-01 -3.132183551788330078e-01
-7.272745966911315918e-01 -3.016937077045440674e-01 -2.880561947822570801e-01
2.539374530315399170e-01 3.180390596389770508e-01 3.421566486358642578e-01
3.868582546710968018e-01 6.447233259677886963e-03 -3.396154940128326416e-01
4.336591660976409912e-01 -3.016937077045440674e-01 2.544859945774078369e-01
-8.513743281364440918e-01 -1.671139448881149292e-01 -2.140903323888778687e-01
7.002626061439514160e-01 -3.016937077045440674e-01 3.442145586013793945e-01
-7.470158338546752930e-01 3.180390596389770508e-01 -1.720528304576873779e-01
-1.405337154865264893e-01 4.302147775888442993e-02 -3.396154940128326416e-01
6.636085361242294312e-02 2.460288703441619873e-01 4.017821326851844788e-02
-5.087029933929443359e-01 -3.342124521732330322e-01 -3.924077153205871582e-01
-6.777722239494323730e-01 -3.016937077045440674e-01 1.890525817871093750e-01
8.545976281166076660e-01 2.856185436248779297e-01 -6.839307397603988647e-02
-8.513743281364440918e-01 -2.353691458702087402e-01 -2.109538465738296509e-01
2.719244360923767090e-01 2.874870300292968750e-01 -8.483468741178512573e-02
-2.211965769529342651e-01 -3.214910626411437988e-01 6.956768780946731567e-02
5.280132964253425598e-02 2.966890037059783936e-01 3.895830214023590088e-01
3.975237607955932617e-01 2.937219142913818359e-01 -6.433276832103729248e-02
-6.582811474800109863e-02 -1.694916337728500366e-01 -3.396154940128326416e-01
8.775835633277893066e-01 2.757268846035003662e-01 -1.930600553750991821e-01
7.025671601295471191e-01 -2.259185612201690674e-01 3.466884493827819824e-01
-2.306491881608963013e-01 2.937219142913818359e-01 3.507230803370475769e-02
4.619497656822204590e-01 2.937219142913818359e-01 -2.093038856983184814e-01
-6.297163367271423340e-01 2.874870300292968750e-01 4.944817628711462021e-04
-3.929973542690277100e-01 -3.016937077045440674e-01 4.511882737278938293e-02
-7.649096250534057617e-01 -3.011414110660552979e-01 3.730855882167816162e-01
9.218429028987884521e-02 -3.214910626411437988e-01 2.195805609226226807e-01
4.364157319068908691e-01 2.874870300292968750e-01 8.827430754899978638e-02
-8.249772191047668457e-01 -3.933272883296012878e-02 -8.429048955440521240e-02
-6.301583647727966309e-01 -3.214910626411437988e-01 6.482193619012832642e-02
-3.723660409450531006e-01 -2.266422808170318604e-01 3.466884493827819824e-01
7.232235074043273926e-01 -3.214910626411437988e-01 -4.763404279947280884e-02
-5.536594390869140625e-01 -3.016937077045440674e-01 2.046899646520614624e-01
5.259418487548828125e-01 -3.016937077045440674e-01 -1.510666608810424805e-01
-8.513743281364440918e-01 8.309988304972648621e-03 -1.840404868125915527e-01
2.188184857368469238e-01 2.460288703441619873e-01 -3.194452524185180664e-01
-6.939719915390014648e-01 2.937219142913818359e-01 -1.006130129098892212e-01
1.588180214166641235e-01 -3.214910626411437988e-01 -2.839333415031433105e-01
-2.746704518795013428e-01 2.937219142913818359e-01 -1.217716038227081299e-01
8.686341643333435059e-01 2.460288703441619873e-01 3.353343009948730469e-01
2.444287091493606567e-01 -3.214910626411437988e-01 3.798688054084777832e-01
6.736820340156555176e-01 -3.478871583938598633e-01 3.581248223781585693e-01
2.804287672042846680e-01 -3.214910626411437988e-01 -1.772281974554061890e-01
7.425326704978942871e-01 -9.731649421155452728e-03 3.730855882167816162e-01
-8.513743281364440918e-01 1.793333888053894043e-01 -3.238527774810791016e-01
8.379889130592346191e-01 6.857297569513320923e-02 -3.295885026454925537e-01
8.453946113586425781e-01 2.460288703441619873e-01 -3.798426687717437744e-01
8.379889130592346191e-01 -2.675410509109497070e-01 2.051901519298553467e-01
-5.337960124015808105e-01 5.837679654359817505e-02 -3.660105764865875244e-01
-6.126635670661926270e-01 -3.221275806427001953e-01 2.411030232906341553e-01
3.050606548786163330e-01 3.180390596389770508e-01 -3.621232807636260986e-01
8.303787112236022949e-01 -3.016937077045440674e-01 -3.000549077987670898e-01
1.147145628929138184e-01 -3.214910626411437988e-01 1.142547354102134705e-01
-6.033753752708435059e-01 2.266100049018859863e-02 -3.396154940128326416e-01
-8.513743281364440918e-01 1.535457372665405273e-01 -8.776199072599411011e-02
-8.513743281364440918e-01 6.346686929464340210e-02 -1.689544171094894409e-01
-5.647610425949096680e-01 2.856185436248779297e-01 -3.432992696762084961e-01
2.344318032264709473e-01 -3.076750040054321289e-01 -3.660105764865875244e-01
-7.010999917984008789e-01 -3.214910626411437988e-01 -3.868654370307922363e-01
3.255105614662170410e-01 2.856245338916778564e-01 3.343078494071960449e-01
-8.513743281364440918e-01 2.409005910158157349e-01 -1.973292678594589233e-01
-8.249772191047668457e-01 5.437753722071647644e-02 -2.284957915544509888e-01
-4.466686844825744629e-01 2.856245338916778564e-01 -3.440971970558166504e-01
-3.082176744937896729e-01 2.460288703441619873e-01 -3.497517108917236328e-01
-1.537132263183593750e-01 -3.214910626411437988e-01 -1.857756376266479492e-01
-5.733124613761901855e-01 1.615508794784545898e-01 -3.660105764865875244e-01
-7.431846261024475098e-01 2.863392531871795654e-01 5.058339610695838928e-02
-2.038200348615646362e-01 -2.039450109004974365e-01 3.730855882167816162e-01
-7.158412337303161621e-01 -2.471142262220382690e-01 -3.660105764865875244e-01
-7.983214855194091797e-01 -1.398501731455326080e-02 3.730855882167816162e-01
8.643850088119506836e-01 1.417029928416013718e-02 3.571875393390655518e-01
9.675922989845275879e-02 3.075780272483825684e-01 -3.853488266468048096e-01
-8.513743281364440918e-01 7.294041663408279419e-02 -3.082364499568939209e-01
5.605575442314147949e-01 -3.016937077045440674e-01 -5.380238965153694153e-02
6.954531073570251465e-01 -1.741768419742584229e-01 -3.660105764865875244e-01
-7.475641369819641113e-01 -3.214910626411437988e-01 -3.702056109905242920e-01
-8.249772191047668457e-01 -2.821138799190521240e-01 -6.148676574230194092e-02
-2.462264299392700195e-01 2.724721133708953857e-01 -3.924077153205871582e-01
4.318067133426666260e-01 6.621734797954559326e-02 3.466884493827819824e-01
-5.302234292030334473e-01 -3.016937077045440674e-01 2.778869569301605225e-01
8.485722541809082031e-01 2.856245338916778564e-01 -1.195733472704887390e-01
-7.167944908142089844e-01 -3.193258643150329590e-01 3.730855882167816162e-01
8.643850088119506836e-01 -1.562209129333496094e-01 8.673593401908874512e-02
5.761985480785369873e-02 -3.214910626411437988e-01 3.911968767642974854e-01
-7.995063066482543945e-01 2.856245338916778564e-01 -3.243179023265838623e-01
-7.890332341194152832e-01 -2.690997719764709473e-01 3.466884493827819824e-01
6.295275092124938965e-01 5.170293897390365601e-02 3.730855882167816162e-01
-5.047966241836547852e-01 2.856185436248779297e-01 3.348942697048187256e-01
-1.889539510011672974e-02 -3.214910626411437988e-01 2.109228670597076416e-01
7.483415603637695312e-01 -3.174708783626556396e-02 -3.660105764865875244e-01
5.540259480476379395e-01 -3.214910626411437988e-01 2.013599872589111328e-01
3.613773286342620850e-01 1.523548811674118042e-01 3.730855882167816162e-01
9.893868118524551392e-03 -5.214856564998626709e-02 -3.396154940128326416e-01
5.249534845352172852e-01 -3.016937077045440674e-01 -1.975497901439666748e-01
-1.200006380677223206e-01 -1.849886924028396606e-01 3.466884493827819824e-01
3.765566051006317139e-01 3.164502382278442383e-01 -2.703248262405395508e-01
4.994354248046875000e-01 2.874870300292968750e-01 -1.322696954011917114e-01
3.128412961959838867e-01 -2.745949029922485352e-01 -3.660105764865875244e-01
1.726376079022884369e-02 -3.016937077045440674e-01 -1.214227676391601562e-01
7.502782344818115234e-01 2.460288703441619873e-01 -3.419320285320281982e-01
1.909197717905044556e-01 2.874870300292968750e-01 -2.623196542263031006e-01
-8.355675339698791504e-01 -3.478871583938598633e-01 3.012237548828125000e-01
3.181830346584320068e-01 3.938227891921997070e-02 -3.396154940128326416e-01
-3.949039280414581299e-01 1.993913650512695312e-01 -3.396154940128326416e-01
7.571145296096801758e-01 -3.016937077045440674e-01 -2.595359981060028076e-01
8.248344659805297852e-01 2.460288703441619873e-01 -5.906547605991363525e-02
-2.091578096151351929e-01 1.284858137369155884e-01 3.730855882167816162e-01
-6.010287404060363770e-01 -3.323289752006530762e-01 3.994807004928588867e-01
3.311159610748291016e-01 3.030532002449035645e-01 3.895830214023590088e-01
8.643850088119506836e-01 -6.479480117559432983e-02 -3.536580502986907959e-01
5.438506603240966797e-01 6.366414576768875122e-02 -3.660105764865875244e-01
8.255146443843841553e-02 2.856245338916778564e-01 -4.428322985768318176e-02
2.327688336372375488e-01 1.752095222473144531e-01 -3.396154940128326416e-01
1.733888536691665649e-01 -3.478871583938598633e-01 2.777716815471649170e-01
-3.298477828502655029e-02 -3.214910626411437988e-01 3.245354890823364258e-01
-2.709515690803527832e-01 -3.214910626411437988e-01 -2.711136937141418457e-01
8.643850088119506836e-01 2.361602634191513062e-01 2.515099048614501953e-01
-4.228878319263458252e-01 2.412895411252975464e-01 3.730855882167816162e-01
-5.536134243011474609e-01 2.952882274985313416e-02 3.730855882167816162e-01
-6.963526606559753418e-01 -2.706845700740814209e-01 3.730855882167816162e-01
-6.639932394027709961e-01 1.895728707313537598e-01 -3.396154940128326416e-01
8.643850088119506836e-01 2.162266075611114502e-01 3.741771578788757324e-01
-8.249772191047668457e-01 1.453952640295028687e-01 1.316011995077133179e-01
5.535117387771606445e-01 4.807285964488983154e-02 3.730855882167816162e-01
7.233628630638122559e-01 2.874870300292968750e-01 2.340321242809295654e-01
1.079293414950370789e-01 5.551786348223686218e-02 -3.660105764865875244e-01
-1.578711718320846558e-01 -3.016937077045440674e-01 -2.779760956764221191e-01
-3.800945281982421875e-01 -3.016937077045440674e-01 -2.508693039417266846e-01
-8.634837716817855835e-02 -1.312232296913862228e-02 -3.396154940128326416e-01
6.436382532119750977e-01 4.644707217812538147e-02 -3.396154940128326416e-01
-1.966869980096817017e-01 2.856185436248779297e-01 3.781877756118774414e-01
-3.432223498821258545e-01 2.850842773914337158e-01 -3.132183551788330078e-01
6.144744753837585449e-01 -3.016937077045440674e-01 -6.863475590944290161e-02
-8.249772191047668457e-01 1.550683826208114624e-01 -1.323188096284866333e-01
7.511974573135375977e-01 2.937219142913818359e-01 -1.660915613174438477e-01
-1.730324327945709229e-01 -2.428450286388397217e-01 -3.660105764865875244e-01
8.552181124687194824e-01 -3.478871583938598633e-01 -2.184457480907440186e-01
1.962254643440246582e-01 -3.016937077045440674e-01 -2.798335254192352295e-01
8.613672852516174316e-02 -4.596350714564323425e-03 3.466884493827819824e-01
-7.853835225105285645e-01 2.740248143672943115e-01 8.797660470008850098e-02
-8.513743281364440918e-01 9.346308559179306030e-02 3.338146805763244629e-01
-6.266940832138061523e-01 5.512853339314460754e-02 3.730855882167816162e-01
2.051934599876403809e-02 2.856245338916778564e-01 -2.593655884265899658e-01
-1.400676220655441284e-01 2.460288703441619873e-01 3.593517243862152100e-01
4.556898176670074463e-01 -3.160995990037918091e-02 3.466884493827819824e-01
-6.764641404151916504e-01 -3.214910626411437988e-01 -5.787653475999832153e-02
-5.580630302429199219e-01 2.874870300292968750e-01 -3.828980028629302979e-02
-4.698084667325019836e-02 2.856245338916778564e-01 3.299474418163299561e-01
-5.745143294334411621e-01 -3.214910626411437988e-01 -1.662750095129013062e-01
6.694626528769731522e-03 2.460288703441619873e-01 3.368609845638275146e-01
-3.046521544456481934e-01 -3.016937077045440674e-01 1.286621838808059692e-01
-7.964229583740234375e-01 -1.211209744215011597e-01 3.730855882167816162e-01
8.379889130592346191e-01 8.101352304220199585e-02 -1.454913169145584106e-01
5.176008939743041992e-01 -1.859269291162490845e-01 -3.660105764865875244e-01
-6.424477696418762207e-01 2.937219142913818359e-01 -1.380334794521331787e-01
5.621759593486785889e-02 -3.016937077045440674e-01 -2.256439626216888428e-01
2.183694094419479370e-01 3.174522146582603455e-02 3.466884493827819824e-01
-3.605417907238006592e-01 2.856245338916778564e-01 3.411572277545928955e-01
-4.327634572982788086e-01 -3.478871583938598633e-01 -2.597164511680603027e-01
-6.706451773643493652e-01 2.460288703441619873e-01 3.308666348457336426e-01
2.870917022228240967e-01 2.856245338916778564e-01 -3.360980451107025146e-01
8.208198547363281250e-01 2.460288703441619873e-01 -2.429974526166915894e-01
-4.923543334007263184e-02 3.180390596389770508e-01 -8.665570057928562164e-03
-1.112436950206756592e-01 -2.687429487705230713e-01 3.466884493827819824e-01
-3.732191026210784912e-01 -2.097949981689453125e-01 -3.396154940128326416e-01
-8.249772191047668457e-01 -5.489573255181312561e-02 1.533983200788497925e-01
1.310616582632064819e-01 3.180390596389770508e-01 3.091747462749481201e-01
3.004406392574310303e-01 1.312684714794158936e-01 3.466884493827819824e-01
-2.020407915115356445e-01 -3.214910626411437988e-01 -2.874317169189453125e-01
8.643850088119506836e-01 1.135751828551292419e-01 -3.116345703601837158e-01
1.021457090973854065e-01 2.856185436248779297e-01 -3.654679050669074059e-03
3.716308176517486572e-01 -2.797576971352100372e-02 3.730855882167816162e-01
3.507288396358489990e-01 -3.016937077045440674e-01 2.371736317873001099e-01
6.311904788017272949e-01 -2.084668278694152832e-01 3.730855882167816162e-01
8.643850088119506836e-01 -2.489035129547119141e-01 4.588415846228599548e-02
-6.827390789985656738e-01 -3.862593695521354675e-02 3.730855882167816162e-01
6.662733554840087891e-01 -2.773785889148712158e-01 -3.660105764865875244e-01
8.514466136693954468e-02 2.856185436248779297e-01 -2.582349181175231934e-01
-5.218870192766189575e-02 -1.289777606725692749e-01 3.730855882167816162e-01
-8.156449198722839355e-01 2.856245338916778564e-01 5.181243270635604858e-02
-8.205385804176330566e-01 2.460288703441619873e-01 -3.046659231185913086e-01
-1.769688427448272705e-01 -4.292912408709526062e-02 -3.396154940128326416e-01
-6.291138529777526855e-01 -3.214910626411437988e-01 5.844754166901111603e-03
4.820343852043151855e-02 2.856245338916778564e-01 3.200657963752746582e-01
5.340832471847534180e-01 -3.478871583938598633e-01 2.895037233829498291e-01
3.390609622001647949e-01 -5.907212197780609131e-02 -3.660105764865875244e-01
-2.138595096766948700e-02 2.856185436248779297e-01 1.050707697868347168e-01
2.458150237798690796e-01 2.856245338916778564e-01 -3.175036311149597168e-01
-8.500170707702636719e-01 2.460288703441619873e-01 1.585556566715240479e-01
8.310914039611816406e-01 -3.426941856741905212e-02 3.730855882167816162e-01
3.715977668762207031e-01 -1.304522901773452759e-01 3.466884493827819824e-01
5.718876719474792480e-01 2.874870300292968750e-01 2.457902431488037109e-01
-1.486626267433166504e-02 -3.478871583938598633e-01 2.939724326133728027e-01
-7.232820391654968262e-01 2.609255015850067139e-01 -3.132183551788330078e-01
-1.564287245273590088e-01 -3.016937077045440674e-01 1.950088143348693848e-01
-6.872147917747497559e-01 1.381128430366516113e-01 3.466884493827819824e-01
-1.158396899700164795e-01 2.460288703441619873e-01 -3.229767084121704102e-01
-8.645718693733215332e-01 2.781476676464080811e-01 -1.042156293988227844e-01
1.851960867643356323e-01 2.874870300292968750e-01 2.504553794860839844e-01
-8.513743281364440918e-01 -3.669140860438346863e-02 -2.701139077544212341e-03
-1.799299269914627075e-01 2.937219142913818359e-01 2.181150615215301514e-01
-7.788654416799545288e-02 1.804169863462448120e-01 -3.660105764865875244e-01
-3.488929271697998047e-01 2.874870300292968750e-01 2.628780603408813477e-01
-7.268280535936355591e-02 2.812520861625671387e-01 -1.628357917070388794e-01
-8.513743281364440918e-01 -3.284350782632827759e-02 -2.028584778308868408e-01
3.953375220298767090e-01 -3.214910626411437988e-01 2.222950607538223267e-01
-7.748493552207946777e-01 2.856185436248779297e-01 -1.258553564548492432e-01
-6.878272891044616699e-01 -3.214910626411437988e-01 -1.083455011248588562e-01
6.877205967903137207e-01 2.856185436248779297e-01 -3.273922502994537354e-01
-6.505220532417297363e-01 2.874870300292968750e-01 -5.002535879611968994e-02
8.379889130592346191e-01 2.195946574211120605e-01 -1.341491937637329102e-01
-8.249772191047668457e-01 1.214961186051368713e-01 1.884190589189529419e-01
7.569922804832458496e-01 -3.016937077045440674e-01 1.566731482744216919e-01
2.867909967899322510e-01 -3.016937077045440674e-01 1.999897211790084839e-01
-8.249772191047668457e-01 -1.035736203193664551e-01 -2.553229331970214844e-01
4.581236243247985840e-01 2.734053432941436768e-01 -3.924077153205871582e-01
1.316280066967010498e-01 2.212716639041900635e-01 3.730855882167816162e-01
5.939865112304687500e-01 -3.478871583938598633e-01 -3.472677767276763916e-01
-6.077538132667541504e-01 -3.214910626411437988e-01 -3.198862969875335693e-01
4.186953604221343994e-01 2.937219142913818359e-01 2.181190699338912964e-01
-8.249772191047668457e-01 -3.231514617800712585e-02 3.414479494094848633e-01
4.038689136505126953e-01 -3.214910626411437988e-01 -1.412862539291381836e-01
8.379889130592346191e-01 3.210097178816795349e-02 6.537971552461385727e-03
4.099564850330352783e-01 1.365581303834915161e-01 -3.396154940128326416e-01
7.086938023567199707e-01 -9.295162558555603027e-02 3.730855882167816162e-01
6.181923747062683105e-01 -3.016937077045440674e-01 6.132642272859811783e-03
-6.019730567932128906e-01 2.856185436248779297e-01 3.352220356464385986e-01
-7.772501111030578613e-01 -3.214910626411437988e-01 1.595811098814010620e-01
7.473060488700866699e-01 2.874870300292968750e-01 5.445424839854240417e-02
-2.381340861320495605e-01 -3.137475252151489258e-01 3.730855882167816162e-01
8.643850088119506836e-01 -3.436650931835174561e-01 -9.697230905294418335e-02
-3.424689918756484985e-02 -3.016937077045440674e-01 -2.352850139141082764e-01
8.032318353652954102e-01 -3.214910626411437988e-01 -6.657091528177261353e-02
5.261443257331848145e-01 -3.214910626411437988e-01 -3.887138664722442627e-01
-5.158491134643554688e-01 -3.402188122272491455e-01 2.411030232906341553e-01
-2.410109639167785645e-01 1.999873295426368713e-02 -3.660105764865875244e-01
4.598277211189270020e-01 -1.722422093152999878e-01 3.730855882167816162e-01
4.663679376244544983e-02 2.047672122716903687e-01 3.466884493827819824e-01
-6.813578009605407715e-01 3.180390596389770508e-01 -3.157454133033752441e-01
-8.974289894104003906e-02 3.180390596389770508e-01 -1.908698081970214844e-01
-5.026665925979614258e-01 1.829480379819869995e-01 3.466884493827819824e-01
1.475836988538503647e-02 2.460288703441619873e-01 -1.372365802526473999e-01
2.684381008148193359e-01 2.460288703441619873e-01 -3.693966865539550781e-01
-7.911242246627807617e-01 -3.214910626411437988e-01 -1.136140972375869751e-01
4.993852972984313965e-01 -2.977873682975769043e-01 3.730855882167816162e-01
-5.093430355191230774e-02 -9.653248637914657593e-02 -3.660105764865875244e-01
3.314593434333801270e-02 -1.767770648002624512e-01 3.730855882167816162e-01
-4.242240488529205322e-01 -3.377238512039184570e-01 3.994807004928588867e-01
-5.804795622825622559e-01 6.798857450485229492e-02 3.730855882167816162e-01
8.643850088119506836e-01 -1.720364391803741455e-02 -2.630103230476379395e-01
5.728399753570556641e-01 2.638715505599975586e-01 3.994807004928588867e-01
8.002206087112426758e-01 2.856185436248779297e-01 1.254775673151016235e-01
-5.514081120491027832e-01 2.874870300292968750e-01 -2.023171931505203247e-01
-8.249772191047668457e-01 2.272960692644119263e-01 6.934735178947448730e-02
-1.431489735841751099e-01 1.946570426225662231e-01 -3.660105764865875244e-01
-4.308378398418426514e-01 -1.515246778726577759e-01 -3.660105764865875244e-01
3.941346406936645508e-01 2.856185436248779297e-01 -3.384146094322204590e-01
6.866340637207031250e-01 2.937219142913818359e-01 -1.688932776451110840e-01
2.776080369949340820e-01 2.856245338916778564e-01 3.251509666442871094e-01
-8.249772191047668457e-01 -1.071910709142684937e-01 -1.637509763240814209e-01
3.572103381156921387e-01 5.421153455972671509e-02 -3.660105764865875244e-01
-1.960635036230087280e-01 -3.016937077045440674e-01 4.012789577245712280e-02
-6.206586956977844238e-01 1.735686063766479492e-01 -3.660105764865875244e-01
-8.256778717041015625e-01 6.435970216989517212e-02 -3.924077153205871582e-01
2.281738519668579102e-01 -3.214910626411437988e-01 -2.523117363452911377e-01
2.124171853065490723e-01 1.899237036705017090e-01 3.466884493827819824e-01
8.301060795783996582e-01 -3.016937077045440674e-01 -1.255155652761459351e-01
8.643850088119506836e-01 5.650829058140516281e-03 1.316192448139190674e-01
7.556450366973876953e-01 2.856245338916778564e-01 3.374804258346557617e-01
8.275108933448791504e-01 2.830544114112854004e-01 3.994807004928588867e-01
-6.799835562705993652e-01 -3.214910626411437988e-01 5.009336862713098526e-03
4.055800139904022217e-01 2.874870300292968750e-01 1.759763062000274658e-01
8.379889130592346191e-01 -5.386219825595617294e-03 -1.056260019540786743e-01
-1.638965755701065063e-01 -2.680532634258270264e-01 3.730855882167816162e-01
6.679704189300537109e-01 3.180390596389770508e-01 3.531278669834136963e-01
-5.612686872482299805e-01 -2.825429439544677734e-01 3.730855882167816162e-01
4.364237487316131592e-01 -3.016937077045440674e-01 1.502738445997238159e-01
-4.303146004676818848e-01 -1.770699024200439453e-02 -3.660105764865875244e-01
-8.249772191047668457e-01 9.296990931034088135e-02 -1.252348870038986206e-01
7.724682688713073730e-01 -1.964942067861557007e-01 -3.660105764865875244e-01
4.286130964756011963e-01 -3.214910626411437988e-01 -3.234849274158477783e-01
-2.007797658443450928e-01 5.802225321531295776e-02 3.730855882167816162e-01
-8.165370225906372070e-01 -1.816978305578231812e-01 -3.660105764865875244e-01
7.000290751457214355e-01 2.501797974109649658e-01 3.994807004928588867e-01
9.920176863670349121e-02 -9.810113906860351562e-02 3.466884493827819824e-01
-8.232541084289550781e-01 -3.237063288688659668e-01 -2.340300232172012329e-01
-4.878301322460174561e-01 2.460288703441619873e-01 3.317497670650482178e-01
-1.096047759056091309e-01 -3.214910626411437988e-01 1.277469843626022339e-01
6.730405092239379883e-01 2.660252340137958527e-02 -3.660105764865875244e-01
-2.726526260375976562e-01 3.179588615894317627e-01 -3.809623420238494873e-01
-7.725042849779129028e-02 1.710245311260223389e-01 3.730855882167816162e-01
-5.480781793594360352e-01 -3.016937077045440674e-01 -1.938900351524353027e-01
8.379889130592346191e-01 3.200403973460197449e-02 -8.046654611825942993e-02
5.041918158531188965e-01 2.834283113479614258e-01 3.202923238277435303e-01
-3.638145923614501953e-01 -3.478871583938598633e-01 -3.487172424793243408e-01
8.643850088119506836e-01 1.996299326419830322e-01 -2.298840880393981934e-01
4.504051804542541504e-01 2.937219142913818359e-01 1.619978845119476318e-01
1.229823306202888489e-01 2.192819118499755859e-01 -3.660105764865875244e-01
4.170544147491455078e-01 8.222181349992752075e-02 -3.660105764865875244e-01
3.627686500549316406e-01 -3.214910626411437988e-01 -2.422346323728561401e-01
-3.913334012031555176e-01 3.180390596389770508e-01 3.449282646179199219e-01
-5.038905143737792969e-01 -3.016937077045440674e-01 -4.856567084789276123e-02
-3.465697914361953735e-02 2.856185436248779297e-01 2.667332887649536133e-01
7.872886657714843750e-01 7.223633676767349243e-02 3.730855882167816162e-01
-6.615043878555297852e-01 2.874870300292968750e-01 2.093942165374755859e-01
3.927593529224395752e-01 -3.445301353931427002e-01 3.994807004928588867e-01
5.361402034759521484e-01 -9.730673581361770630e-02 -3.660105764865875244e-01
-1.188158094882965088e-01 2.460288703441619873e-01 3.985554575920104980e-01
4.538874924182891846e-01 1.591190695762634277e-01 -3.660105764865875244e-01
-7.589623332023620605e-01 -3.478871583938598633e-01 2.464738637208938599e-01
-6.949142217636108398e-01 1.256740987300872803e-01 -3.396154940128326416e-01
-8.393766283988952637e-01 2.856185436248779297e-01 -1.625651419162750244e-01
-5.323966741561889648e-01 -3.214910626411437988e-01 -1.451846398413181305e-02
-6.912865042686462402e-01 -3.016937077045440674e-01 2.361972928047180176e-01
7.890659570693969727e-01 -3.465369343757629395e-01 -3.924077153205871582e-01
-6.476562023162841797e-01 -2.170613855123519897e-01 3.466884493827819824e-01
-4.057227969169616699e-01 -3.478871583938598633e-01 -3.202221095561981201e-01
8.379889130592346191e-01 -2.280466407537460327e-01 -3.494780659675598145e-01
-5.893582850694656372e-02 2.460288703441619873e-01 -1.951169818639755249e-01
-4.161948263645172119e-01 2.856185436248779297e-01 -3.143039643764495850e-01
-7.870144248008728027e-01 2.856185436248779297e-01 -2.537561655044555664e-01
-1.313738226890563965e-01 -2.827073037624359131e-01 -3.396154940128326416e-01
8.643850088119506836e-01 -1.793261468410491943e-01 5.099688097834587097e-02
6.513416767120361328e-01 8.185102790594100952e-02 3.466884493827819824e-01
-8.251997232437133789e-01 2.460288703441619873e-01 -7.633265852928161621e-02
3.491881787776947021e-01 2.460288703441619873e-01 3.302962779998779297e-01
6.891129612922668457e-01 -3.214910626411437988e-01 -3.287545144557952881e-01
-8.091102838516235352e-01 2.856245338916778564e-01 1.950749754905700684e-01
8.379889130592346191e-01 -1.181017532944679260e-01 1.605394035577774048e-01
-2.923096120357513428e-01 -3.478871583938598633e-01 2.580284774303436279e-01
-1.155780628323554993e-01 3.080381453037261963e-01 1.496914625167846680e-01
1.717900335788726807e-01 3.390041887760162354e-01 -3.707238435745239258e-01
3.331678509712219238e-01 -9.205879271030426025e-02 -3.396154940128326416e-01
6.166467070579528809e-01 -3.478871583938598633e-01 2.888140976428985596e-01
-8.249772191047668457e-01 -2.270903587341308594e-01 2.501095533370971680e-01
-5.042724013328552246e-01 4.327338188886642456e-02 -3.396154940128326416e-01
1.381445825099945068e-01 -1.827072352170944214e-01 3.730855882167816162e-01
8.643850088119506836e-01 -2.187643945217132568e-02 -2.361711859703063965e-02
1.974042803049087524e-01 2.874870300292968750e-01 -1.421162337064743042e-01
6.271948814392089844e-01 -3.016937077045440674e-01 1.440479606389999390e-01
6.004148721694946289e-01 1.190051510930061340e-01 -3.396154940128326416e-01
-8.249772191047668457e-01 1.881003528833389282e-01 -2.023412436246871948e-01
-5.579227209091186523e-01 -1.147617697715759277e-01 3.466884493827819824e-01
8.643850088119506836e-01 1.582509875297546387e-01 -1.446442902088165283e-01
2.015191167593002319e-01 -2.606074810028076172e-01 3.466884493827819824e-01
-5.067031979560852051e-01 -4.421790689229965210e-02 3.466884493827819824e-01
8.775835633277893066e-01 2.803619801998138428e-01 1.369971036911010742e-01
8.379889130592346191e-01 -1.702484488487243652e-01 2.763823866844177246e-01
-4.777379930019378662e-01 2.874870300292968750e-01 -9.148970246315002441e-02
2.219890505075454712e-01 -3.214910626411437988e-01 8.060838282108306885e-02
-3.254408240318298340e-01 2.726735770702362061e-01 3.202923238277435303e-01
-2.723810076713562012e-01 2.097912132740020752e-01 -3.396154940128326416e-01
-4.511804878711700439e-01 -3.214910626411437988e-01 -3.129537403583526611e-01
-2.786519825458526611e-01 -6.610734760761260986e-02 3.730855882167816162e-01
8.643850088119506836e-01 -7.277311291545629501e-03 -7.029642909765243530e-02
-8.249772191047668457e-01 2.243400067090988159e-01 -2.690086662769317627e-01
-4.256524443626403809e-01 2.937219142913818359e-01 2.547205686569213867e-01
5.870188474655151367e-01 -1.152830198407173157e-01 3.466884493827819824e-01
3.691469132900238037e-01 -3.016937077045440674e-01 -1.987777203321456909e-01
2.390398234128952026e-01 -2.197167277336120605e-01 -3.396154940128326416e-01
1.125634647905826569e-02 6.610517948865890503e-02 3.466884493827819824e-01
-1.033748835325241089e-01 2.460288703441619873e-01 3.375225663185119629e-01
-8.513743281364440918e-01 -1.810653060674667358e-01 -2.833710014820098877e-01
