2.588766515254974365e-01 -3.376883640885353088e-02 3.968696892261505127e-01
-4.425222054123878479e-02 7.341856509447097778e-02 -4.619852304458618164e-01
-1.418143212795257568e-01 7.341856509447097778e-02 -3.839332759380340576e-01
1.382752656936645508e-01 7.341856509447097778e-02 -4.079512953758239746e-01
3.325190544128417969e-01 -2.037204056978225708e-02 -2.365377545356750488e-01
4.737965762615203857e-01 6.376726925373077393e-02 -3.843057751655578613e-01
4.543053805828094482e-01 -3.099510967731475830e-01 -4.595450162887573242e-01
2.588766515254974365e-01 4.236965626478195190e-02 2.354058027267456055e-01
-3.838874995708465576e-01 1.140784323215484619e-01 -2.955826818943023682e-01
2.934475541114807129e-01 -1.008413881063461304e-01 -1.821791976690292358e-01
3.209556937217712402e-01 -6.979584693908691406e-02 7.799682021141052246e-01
-7.634367942810058594e-01 -2.101815789937973022e-01 -7.644365727901458740e-02
-2.588819563388824463e-01 7.341856509447097778e-02 -3.082240521907806396e-01
2.995374500751495361e-01 8.216242305934429169e-03 -1.068817973136901855e-01
-6.354448944330215454e-02 1.140784323215484619e-01 6.764243245124816895e-01
2.317606955766677856e-01 -1.966648846864700317e-01 7.799682021141052246e-01
4.736633598804473877e-01 -3.099510967731475830e-01 -2.493414431810379028e-01
3.757965266704559326e-01 1.140784323215484619e-01 -4.836577177047729492e-01
4.214157164096832275e-01 -1.335628181695938110e-01 7.799682021141052246e-01
-7.041150927543640137e-01 1.140784323215484619e-01 -2.432797104120254517e-01
-6.484390795230865479e-02 -3.006340190768241882e-02 7.393074035644531250e-01
1.487805414944887161e-02 -7.738169282674789429e-02 -3.527108430862426758e-01
3.908874988555908203e-01 1.140784323215484619e-01 2.587417662143707275e-01
-4.440226256847381592e-01 -2.619096450507640839e-02 -3.120490908622741699e-01
3.680113255977630615e-01 -1.453340798616409302e-01 -2.365377545356750488e-01
1.834472641348838806e-02 1.140784323215484619e-01 1.497566401958465576e-01
-9.670792520046234131e-02 1.121757552027702332e-01 7.799682021141052246e-01
2.995374500751495361e-01 -3.471201285719871521e-02 1.197169907391071320e-02
-7.634367942810058594e-01 4.404080973472446203e-04 -2.821775972843170166e-01
-9.618433192372322083e-03 -2.775051891803741455e-01 7.393074035644531250e-01
3.187265694141387939e-01 1.140784323215484619e-01 3.283216953277587891e-01
-6.618687510490417480e-01 7.341856509447097778e-02 -2.287319302558898926e-01
2.588766515254974365e-01 -5.760474130511283875e-02 5.985674858093261719e-01
1.866565495729446411e-01 1.140784323215484619e-01 3.489959836006164551e-01
3.376182317733764648e-01 -2.386504411697387695e-01 -5.066381096839904785e-01
-8.040975928306579590e-01 -1.155924722552299500e-01 -1.235245838761329651e-01
4.380416274070739746e-01 7.341856509447097778e-02 7.311065196990966797e-01
2.707514762878417969e-01 3.000226058065891266e-02 7.799682021141052246e-01
4.737965762615203857e-01 3.383763507008552551e-02 -4.610827267169952393e-01
4.545577466487884521e-01 7.341856509447097778e-02 1.308424472808837891e-01
7.956720143556594849e-02 2.783969976007938385e-02 -3.120490908622741699e-01
3.221040964126586914e-01 7.341856509447097778e-02 4.387201368808746338e-01
8.907401561737060547e-02 -3.842964768409729004e-02 -3.120490908622741699e-01
-1.100284457206726074e-01 -5.965509638190269470e-02 -3.527108430862426758e-01
2.995374500751495361e-01 -1.295385137200355530e-02 4.515078663825988770e-01
1.326904445886611938e-02 1.140784323215484619e-01 5.718924403190612793e-01
1.376063376665115356e-01 7.341856509447097778e-02 -5.072938799858093262e-01
1.244789808988571167e-01 7.341856509447097778e-02 -1.606521308422088623e-01
2.256229668855667114e-01 1.140784323215484619e-01 4.246236085891723633e-01
1.577486246824264526e-01 7.341856509447097778e-02 4.564325511455535889e-02
1.449843645095825195e-01 7.341856509447097778e-02 4.079949259757995605e-01
2.048126757144927979e-01 7.341856509447097778e-02 6.456353068351745605e-01
3.040464520454406738e-01 7.341856509447097778e-02 5.543218255043029785e-01
-1.674679815769195557e-01 1.140784323215484619e-01 -2.791125178337097168e-01
1.442037820816040039e-01 -2.370902001857757568e-01 7.799682021141052246e-01
-7.258305698633193970e-02 1.140784323215484619e-01 -7.038183510303497314e-03
-8.040975928306579590e-01 3.202503174543380737e-02 -3.647752106189727783e-01
-4.182952046394348145e-01 -9.888458997011184692e-02 -3.527108430862426758e-01
1.833653301000595093e-01 2.764267474412918091e-02 -3.040077388286590576e-01
7.703779637813568115e-02 1.140784323215484619e-01 1.761314123868942261e-01
-3.602795004844665527e-01 7.341856509447097778e-02 -2.757612466812133789e-01
-1.400374472141265869e-01 9.630697965621948242e-02 -6.228054314851760864e-02
3.277429193258285522e-02 6.892926245927810669e-02 7.799682021141052246e-01
-8.040975928306579590e-01 9.336102008819580078e-02 -3.920515775680541992e-01
-3.657736182212829590e-01 1.140784323215484619e-01 -4.309194684028625488e-01
2.792377769947052002e-02 1.140784323215484619e-01 7.559259235858917236e-02
-8.012773394584655762e-01 1.048746556043624878e-01 -5.269690155982971191e-01
2.588766515254974365e-01 1.980680227279663086e-02 5.205558538436889648e-01
1.539301574230194092e-01 1.140784323215484619e-01 6.612067222595214844e-01
-6.124873757362365723e-01 -8.540264330804347992e-03 -3.527108430862426758e-01
-8.040975928306579590e-01 6.384326517581939697e-02 -1.206893473863601685e-01
-8.040975928306579590e-01 2.032469026744365692e-02 -2.575404047966003418e-01
3.946825563907623291e-01 2.882388606667518616e-02 -5.269690155982971191e-01
-5.208802223205566406e-01 7.341856509447097778e-02 -2.618579864501953125e-01
5.394110083580017090e-02 1.140784323215484619e-01 6.125635504722595215e-01
1.859144419431686401e-01 1.140784323215484619e-01 2.475659176707267761e-02
-5.537274107336997986e-02 1.140784323215484619e-01 2.232466787099838257e-01
-7.634367942810058594e-01 -2.965441644191741943e-01 -2.310342639684677124e-01
2.347107231616973877e-02 7.341856509447097778e-02 6.294212341308593750e-01
4.379225075244903564e-01 -9.665899723768234253e-02 -2.568677067756652832e-01
4.737965762615203857e-01 -1.616747826337814331e-01 -4.732362329959869385e-01
4.141559004783630371e-01 3.974363580346107483e-02 7.799682021141052246e-01
2.121512889862060547e-01 7.341856509447097778e-02 -5.107098817825317383e-01
-1.085132434964179993e-01 7.341856509447097778e-02 -2.286765724420547485e-01
-3.370373845100402832e-01 -1.008413881063461304e-01 -3.202752470970153809e-01
3.569423854351043701e-01 1.140784323215484619e-01 -4.294755756855010986e-01
1.746832132339477539e-01 1.140784323215484619e-01 -2.044483870267868042e-01
1.972957998514175415e-01 1.140784323215484619e-01 7.754300832748413086e-01
4.069552123546600342e-01 1.140784323215484619e-01 4.002490937709808350e-01
-8.040975928306579590e-01 -1.143574267625808716e-01 -1.772226691246032715e-01
-1.040634438395500183e-01 7.341856509447097778e-02 5.891076847910881042e-02
-7.711526155471801758e-01 -1.779271960258483887e-01 -5.269690155982971191e-01
-2.054756321012973785e-02 -6.756696850061416626e-02 7.799682021141052246e-01
-3.357827290892601013e-02 7.341856509447097778e-02 -2.564305067062377930e-01
2.036952525377273560e-01 -1.523284912109375000e-01 -2.967038452625274658e-01
2.995374500751495361e-01 7.196341454982757568e-02 6.665769219398498535e-01
-3.619680181145668030e-02 1.823250018060207367e-02 7.393074035644531250e-01
1.833653301000595093e-01 -2.517995797097682953e-02 -3.226958215236663818e-01
-2.879637181758880615e-01 -5.989095568656921387e-02 -3.527108430862426758e-01
-1.454646736383438110e-01 7.341856509447097778e-02 -2.808697521686553955e-01
3.243970274925231934e-01 -7.011596858501434326e-02 -5.066381096839904785e-01
4.542772471904754639e-01 -1.261957585811614990e-01 -2.365377545356750488e-01
-8.040975928306579590e-01 -4.475212655961513519e-03 -4.937819540500640869e-01
2.670155763626098633e-01 -1.008413881063461304e-01 1.761056184768676758e-01
3.473802506923675537e-01 1.140784323215484619e-01 1.227476447820663452e-01
-1.160851120948791504e-01 1.140784323215484619e-01 -2.800122499465942383e-01
-7.584228366613388062e-02 1.140784323215484619e-01 1.091709882020950317e-01
2.391771972179412842e-01 -3.567976504564285278e-02 -5.066381096839904785e-01
4.737965762615203857e-01 -5.243232846260070801e-02 -3.182384371757507324e-01
3.259696438908576965e-02 7.341856509447097778e-02 2.838808894157409668e-01
-7.634367942810058594e-01 -2.644144296646118164e-01 -1.173784211277961731e-01
-7.634367942810058594e-01 -1.971893459558486938e-01 -3.911162018775939941e-01
2.995374500751495361e-01 1.302078273147344589e-02 2.805445110425353050e-03
2.588766515254974365e-01 -4.345025122165679932e-02 1.347927600145339966e-01
-4.746361672878265381e-01 7.341856509447097778e-02 -4.655251204967498779e-01
-3.727622926235198975e-01 1.140784323215484619e-01 -8.664006739854812622e-02
-1.070647537708282471e-01 1.877102814614772797e-02 7.786378264427185059e-01
2.010936290025711060e-01 1.140784323215484619e-01 -4.510391503572463989e-02
-8.040975928306579590e-01 -6.475075334310531616e-02 -5.134532451629638672e-01
-7.042071223258972168e-01 1.140784323215484619e-01 -4.628634154796600342e-01
2.471547573804855347e-01 -3.099510967731475830e-01 -5.211352705955505371e-01
-3.625349402427673340e-01 -2.573218755424022675e-02 -3.120490908622741699e-01
4.737965762615203857e-01 8.209507912397384644e-02 -5.211033225059509277e-01
1.833653301000595093e-01 -2.581726014614105225e-01 -5.116030573844909668e-01
-2.301384694874286652e-03 1.140784323215484619e-01 2.472392050549387932e-03
2.059319466352462769e-01 -1.180652007460594177e-01 -2.365377545356750488e-01
-1.325597763061523438e-01 -3.841294720768928528e-02 -3.120490908622741699e-01
-1.615865156054496765e-02 7.341856509447097778e-02 3.905724585056304932e-01
-2.819526493549346924e-01 9.212728589773178101e-02 -5.269690155982971191e-01
2.995374500751495361e-01 -7.457487285137176514e-02 4.110834896564483643e-01
-7.634367942810058594e-01 -1.241832878440618515e-02 -1.820018738508224487e-01
-8.040975928306579590e-01 -2.874801754951477051e-01 -2.088363617658615112e-01
4.080219566822052002e-01 1.140784323215484619e-01 5.022713169455528259e-02
1.137515753507614136e-01 7.341856509447097778e-02 -2.571595013141632080e-01
2.588766515254974365e-01 4.398337751626968384e-02 1.751084998250007629e-02
1.127917990088462830e-01 1.140784323215484619e-01 1.376325190067291260e-01
1.020737513899803162e-01 7.341856509447097778e-02 2.408520877361297607e-01
-6.638286709785461426e-01 -5.088917538523674011e-02 -3.120490908622741699e-01
1.833653301000595093e-01 -1.336117982864379883e-01 -3.640321195125579834e-01
7.315738499164581299e-02 1.140784323215484619e-01 4.213352203369140625e-01
-1.861991286277770996e-01 7.341856509447097778e-02 -1.379241496324539185e-01
7.573180645704269409e-02 -1.322568356990814209e-01 7.799682021141052246e-01
-9.852616488933563232e-02 1.140784323215484619e-01 -4.137972593307495117e-01
1.508978754281997681e-01 7.341856509447097778e-02 -6.054768338799476624e-02
-2.300325483083724976e-01 7.341856509447097778e-02 -9.620973467826843262e-02
1.979581564664840698e-01 1.140784323215484619e-01 2.605984508991241455e-01
2.588766515254974365e-01 5.483012064360082150e-04 3.150874376296997070e-01
2.995374500751495361e-01 -6.070916354656219482e-02 -1.384692490100860596e-01
4.737965762615203857e-01 9.186083823442459106e-02 -2.064674049615859985e-01
-9.236442297697067261e-02 7.341856509447097778e-02 3.750367462635040283e-01
3.576845228672027588e-01 -1.860715448856353760e-01 -2.568677067756652832e-01
3.589895665645599365e-01 7.341856509447097778e-02 -2.483000159263610840e-01
5.146331340074539185e-02 3.462009876966476440e-02 7.393074035644531250e-01
-3.876243829727172852e-01 6.669259071350097656e-02 -3.527108430862426758e-01
-4.925408959388732910e-01 7.268489152193069458e-02 -3.120490908622741699e-01
-5.106275677680969238e-01 3.469866933301091194e-03 -3.120490908622741699e-01
-7.634367942810058594e-01 -1.452981531620025635e-01 -4.744877517223358154e-01
4.107239544391632080e-01 -1.263545155525207520e-01 -5.269690155982971191e-01
6.288687139749526978e-02 -9.561254829168319702e-02 -3.527108430862426758e-01
-1.619991213083267212e-01 1.140784323215484619e-01 -3.311039805412292480e-01
2.759669721126556396e-01 7.341856509447097778e-02 -3.663673400878906250e-01
-9.574129432439804077e-02 7.341856509447097778e-02 -4.947792589664459229e-01
8.890795707702636719e-02 7.341856509447097778e-02 -3.736815452575683594e-01
3.832908868789672852e-01 -9.391151368618011475e-02 7.799682021141052246e-01
4.422694444656372070e-02 -2.534327507019042969e-01 7.393074035644531250e-01
4.737965762615203857e-01 9.347454458475112915e-02 6.365281939506530762e-01
6.905368715524673462e-02 -1.095384359359741211e-01 7.393074035644531250e-01
3.688293993473052979e-01 -5.036077648401260376e-02 7.393074035644531250e-01
3.162984549999237061e-01 1.140784323215484619e-01 5.614906549453735352e-01
-7.634367942810058594e-01 -2.595104575157165527e-01 -2.663247883319854736e-01
-6.532382369041442871e-01 -6.411184370517730713e-02 -3.527108430862426758e-01
-3.106107376515865326e-02 -8.117025345563888550e-02 7.393074035644531250e-01
-4.385669529438018799e-01 1.140784323215484619e-01 -3.577949404716491699e-01
4.737965762615203857e-01 -2.022462636232376099e-01 -4.388013482093811035e-01
-3.583496212959289551e-01 7.341856509447097778e-02 -1.310133486986160278e-01
-2.058040350675582886e-02 7.341856509447097778e-02 4.228186234831809998e-02
4.737965762615203857e-01 -1.918838024139404297e-01 -3.495415747165679932e-01
4.737965762615203857e-01 8.363561332225799561e-02 3.091786205768585205e-01
-7.193815708160400391e-01 7.341856509447097778e-02 -4.811058044433593750e-01
-4.308493137359619141e-01 9.357023984193801880e-02 -5.269690155982971191e-01
3.239654898643493652e-01 7.341856509447097778e-02 4.228627309203147888e-02
2.460842579603195190e-01 -2.556750774383544922e-01 7.393074035644531250e-01
3.114000856876373291e-01 7.341856509447097778e-02 -3.384265303611755371e-02
-7.388408184051513672e-01 2.606650628149509430e-02 -3.527108430862426758e-01
2.296534776687622070e-01 1.140784323215484619e-01 -1.947342455387115479e-01
-2.308726310729980469e-01 1.140784323215484619e-01 -4.318961203098297119e-01
6.664156913757324219e-02 4.306206107139587402e-02 -3.527108430862426758e-01
-4.340935647487640381e-01 7.341856509447097778e-02 -1.713082343339920044e-01
-5.627484917640686035e-01 -3.510990738868713379e-02 -3.120490908622741699e-01
2.218682765960693359e-01 7.341856509447097778e-02 5.605908632278442383e-01
-6.289857029914855957e-01 1.140784323215484619e-01 -8.498788625001907349e-02
-7.609580755233764648e-01 1.140784323215484619e-01 -1.983932405710220337e-01
2.530428767204284668e-01 1.140784323215484619e-01 -4.015386998653411865e-01
-6.313762068748474121e-01 1.140784323215484619e-01 -1.471448093652725220e-01
2.588766515254974365e-01 -9.328573942184448242e-02 6.387460231781005859e-01
8.034589886665344238e-02 7.341856509447097778e-02 -4.749155640602111816e-01
2.070606052875518799e-01 1.140784323215484619e-01 -1.032049879431724548e-01
3.026691675186157227e-01 7.341856509447097778e-02 2.735784947872161865e-01
-7.634367942810058594e-01 -1.954846233129501343e-01 -2.890499830245971680e-01
2.437696754932403564e-01 1.140784323215484619e-01 7.462829947471618652e-01
2.117750793695449829e-01 7.341856509447097778e-02 -2.356868386268615723e-01
4.601034522056579590e-01 7.341856509447097778e-02 -4.399375021457672119e-01
7.559015601873397827e-02 7.341856509447097778e-02 5.082007050514221191e-01
2.995374500751495361e-01 6.848173588514328003e-02 4.988130033016204834e-01
3.472066521644592285e-01 3.462573513388633728e-02 -5.066381096839904785e-01
2.329287528991699219e-01 7.341856509447097778e-02 -3.992804288864135742e-01
-5.159021019935607910e-01 8.894114196300506592e-02 -6.228054314851760864e-02
3.124236762523651123e-01 7.341856509447097778e-02 1.069535464048385620e-01
-6.055878400802612305e-01 1.140784323215484619e-01 -2.511456012725830078e-01
2.304903566837310791e-01 -7.662156224250793457e-02 -5.269690155982971191e-01
1.512337327003479004e-01 -8.923443406820297241e-02 7.393074035644531250e-01
-2.104105614125728607e-02 2.496129088103771210e-02 7.799682021141052246e-01
-5.548047423362731934e-01 1.140784323215484619e-01 -3.790715336799621582e-01
5.898207053542137146e-02 1.140784323215484619e-01 4.255356267094612122e-02
-5.857181735336780548e-03 1.140784323215484619e-01 2.390985637903213501e-01
-4.173313453793525696e-02 1.140784323215484619e-01 4.160503149032592773e-01
1.875975579023361206e-01 1.140784323215484619e-01 -1.541025191545486450e-01
2.786680757999420166e-01 1.511954329907894135e-02 -5.269690155982971191e-01
-7.634367942810058594e-01 -1.204500198364257812e-01 -3.199900388717651367e-01
1.189175993204116821e-02 7.341856509447097778e-02 -8.217045664787292480e-02
1.282740235328674316e-01 7.341856509447097778e-02 6.605602502822875977e-01
2.619539201259613037e-01 1.140784323215484619e-01 -3.476332426071166992e-01
2.051654309034347534e-01 -1.578598618507385254e-01 7.393074035644531250e-01
4.094236195087432861e-01 7.341856509447097778e-02 -3.417478501796722412e-02
-1.147985532879829407e-01 1.140784323215484619e-01 -1.597307920455932617e-01
-2.779662013053894043e-01 1.140784323215484619e-01 -3.369940221309661865e-01
4.653264582157135010e-01 -2.130843847990036011e-01 7.393074035644531250e-01
-2.325897216796875000e-01 7.341856509447097778e-02 -4.860558509826660156e-01
4.737965762615203857e-01 1.035208329558372498e-01 4.961785078048706055e-01
4.737965762615203857e-01 1.006818339228630066e-01 3.576134890317916870e-02
4.737965762615203857e-01 4.358369484543800354e-02 -3.144677579402923584e-01
-1.854261755943298340e-02 -7.751286029815673828e-02 -3.120490908622741699e-01
3.057436645030975342e-01 1.140784323215484619e-01 2.250086367130279541e-01
2.995374500751495361e-01 -7.116966694593429565e-02 -2.747788839042186737e-02
-1.247620675712823868e-02 7.341856509447097778e-02 -5.023965239524841309e-01
2.907098829746246338e-01 -1.303136348724365234e-01 -5.066381096839904785e-01
2.493454068899154663e-01 7.341856509447097778e-02 -2.564239203929901123e-01
2.995374500751495361e-01 -4.253738000988960266e-02 5.574507117271423340e-01
3.952867686748504639e-01 -5.476470664143562317e-02 -5.269690155982971191e-01
-2.228672951459884644e-01 1.140784323215484619e-01 -1.830611079931259155e-01
2.323545813560485840e-01 -4.977430775761604309e-02 -2.365377545356750488e-01
3.646018803119659424e-01 1.140784323215484619e-01 9.176781401038169861e-03
-2.699051499366760254e-01 1.140784323215484619e-01 -2.537875771522521973e-01
4.534657299518585205e-01 -2.446511834859848022e-01 -4.008772671222686768e-01
-7.634367942810058594e-01 -3.094482123851776123e-01 -4.248896241188049316e-01
1.661408692598342896e-01 1.140784323215484619e-01 2.195670455694198608e-01
-5.756907910108566284e-02 1.140784323215484619e-01 -2.341040670871734619e-01
4.543157219886779785e-01 1.140784323215484619e-01 5.814687609672546387e-01
-6.391773223876953125e-01 7.341856509447097778e-02 -3.723089694976806641e-01
4.737965762615203857e-01 -1.286395937204360962e-01 -3.557074368000030518e-01
2.588766515254974365e-01 -5.911205708980560303e-02 2.980899810791015625e-01
4.534657299518585205e-01 -1.223481539636850357e-02 -4.540649354457855225e-01
-5.443174839019775391e-01 1.140784323215484619e-01 -4.815299212932586670e-01
2.722319960594177246e-01 1.140784323215484619e-01 4.994218945503234863e-01
7.027240842580795288e-02 1.140784323215484619e-01 7.351304888725280762e-01
-2.353371530771255493e-01 -4.170594736933708191e-02 -3.120490908622741699e-01
1.833653301000595093e-01 -2.372449934482574463e-01 -3.492366373538970947e-01
1.350600421428680420e-01 1.140784323215484619e-01 7.566341161727905273e-01
4.435858223587274551e-03 7.341856509447097778e-02 4.659524261951446533e-01
4.540764987468719482e-01 -2.603857815265655518e-01 -2.365377545356750488e-01
4.323607981204986572e-01 7.844707928597927094e-03 -2.568677067756652832e-01
3.276488482952117920e-01 7.341856509447097778e-02 7.386741042137145996e-01
2.168685793876647949e-01 7.341856509447097778e-02 2.436920255422592163e-01
-5.477851033210754395e-01 7.341856509447097778e-02 -3.583766222000122070e-01
-6.650502085685729980e-01 1.634299587749410421e-05 -3.120490908622741699e-01
-2.363291978836059570e-01 2.528591454029083252e-02 -3.527108430862426758e-01
-2.400651425123214722e-01 7.341856509447097778e-02 -2.469781041145324707e-01
-8.040975928306579590e-01 -1.509065479040145874e-01 -2.310080081224441528e-01
-2.843316458165645599e-02 1.140784323215484619e-01 9.637314081192016602e-02
4.737965762615203857e-01 -9.792762249708175659e-02 -2.909516990184783936e-01
-7.634367942810058594e-01 -8.540023863315582275e-02 -2.322286069393157959e-01
2.995374500751495361e-01 -9.756758809089660645e-02 3.684121072292327881e-01
3.415887057781219482e-01 -3.082379102706909180e-01 7.393074035644531250e-01
2.086602300405502319e-01 1.140784323215484619e-01 -4.673555195331573486e-01
3.837881386280059814e-01 7.341856509447097778e-02 -4.301135838031768799e-01
-3.264000117778778076e-01 3.365281596779823303e-02 -3.120490908622741699e-01
-2.685720026493072510e-01 6.236841157078742981e-02 -3.527108430862426758e-01
4.622532054781913757e-02 1.140784323215484619e-01 -1.739164292812347412e-01
1.403881162405014038e-01 -3.099510967731475830e-01 7.774331569671630859e-01
2.966111898422241211e-01 5.380990915000438690e-03 -2.568677067756652832e-01
2.210032641887664795e-01 -2.485184520483016968e-01 -5.066381096839904785e-01
2.995374500751495361e-01 -8.070593327283859253e-02 2.230365127325057983e-01
3.886395692825317383e-01 7.341856509447097778e-02 -3.393601775169372559e-01
-4.315294623374938965e-01 7.341856509447097778e-02 -6.502478569746017456e-02
2.036952525377273560e-01 -2.169863730669021606e-01 -4.646384716033935547e-01
4.042803645133972168e-01 7.341856509447097778e-02 1.632401198148727417e-01
-8.040975928306579590e-01 5.467305425554513931e-03 -4.166812896728515625e-01
-7.634367942810058594e-01 3.902683779597282410e-02 -1.708531975746154785e-01
4.737965762615203857e-01 -1.470614075660705566e-01 -4.336243271827697754e-01
1.076513677835464478e-01 -9.419172070920467377e-03 7.393074035644531250e-01
3.972381949424743652e-01 1.140784323215484619e-01 5.515278577804565430e-01
1.106977090239524841e-01 7.341856509447097778e-02 -1.111187264323234558e-01
2.995374500751495361e-01 5.016894266009330750e-02 -1.503206193447113037e-01
2.533684372901916504e-01 -1.333198249340057373e-01 -2.568677067756652832e-01
1.446409821510314941e-01 -9.847276844084262848e-03 7.799682021141052246e-01
2.586833834648132324e-01 7.341856509447097778e-02 6.590263545513153076e-02
3.805391490459442139e-01 1.140784323215484619e-01 -2.629059851169586182e-01
-1.045106798410415649e-01 1.140784323215484619e-01 6.036618947982788086e-01
7.269391417503356934e-02 7.341856509447097778e-02 4.126888141036033630e-02
-7.634367942810058594e-01 -1.611188948154449463e-01 -1.538388729095458984e-01
1.833653301000595093e-01 -5.350666865706443787e-02 -4.104403555393218994e-01
4.534657299518585205e-01 -5.445331335067749023e-02 -4.286452531814575195e-01
1.076148003339767456e-01 1.140784323215484619e-01 3.100136220455169678e-01
4.380641579627990723e-01 7.341856509447097778e-02 3.164018690586090088e-01
-1.070647537708282471e-01 1.088460758328437805e-01 3.342164456844329834e-01
4.364879429340362549e-01 -3.565723076462745667e-03 7.799682021141052246e-01
-3.383405506610870361e-01 7.341856509447097778e-02 -4.542469680309295654e-01
-8.040975928306579590e-01 -4.137090966105461121e-02 -1.996823400259017944e-01
-1.808540821075439453e-01 1.140784323215484619e-01 -8.621130138635635376e-02
1.376748383045196533e-01 -2.835350036621093750e-01 7.393074035644531250e-01
-5.652112960815429688e-01 7.341856509447097778e-02 -2.240943759679794312e-01
1.833653301000595093e-01 -1.883986592292785645e-01 -4.244993627071380615e-01
2.149884253740310669e-01 -2.431350499391555786e-01 -2.365377545356750488e-01
4.534657299518585205e-01 -2.511050999164581299e-01 -4.755844771862030029e-01
-5.334058776497840881e-02 7.341856509447097778e-02 1.345364153385162354e-01
1.273630410432815552e-01 7.341856509447097778e-02 3.538305461406707764e-01
-4.657307565212249756e-01 1.140784323215484619e-01 -2.359270155429840088e-01
1.645987108349800110e-02 3.754729777574539185e-02 -3.120490908622741699e-01
4.299139678478240967e-01 -8.114624023437500000e-02 -5.066381096839904785e-01
4.737965762615203857e-01 -2.445939481258392334e-01 7.671598792076110840e-01
-4.791095554828643799e-01 7.341856509447097778e-02 -5.227301716804504395e-01
-7.684814929962158203e-01 1.140784323215484619e-01 -3.084707558155059814e-01
-1.070647537708282471e-01 1.119102388620376587e-01 5.400695800781250000e-01
3.218056857585906982e-01 -8.631268516182899475e-03 7.393074035644531250e-01
2.036952525377273560e-01 -2.605847120285034180e-01 -3.123492896556854248e-01
2.588766515254974365e-01 -7.704604417085647583e-03 2.158581316471099854e-01
-3.386586010456085205e-01 7.341856509447097778e-02 -1.955223232507705688e-01
1.833653301000595093e-01 -1.537827998399734497e-01 -5.108374953269958496e-01
-8.040975928306579590e-01 9.434895217418670654e-02 -2.772679924964904785e-01
2.948370575904846191e-01 1.140784323215484619e-01 3.654811382293701172e-01
4.534657299518585205e-01 1.061053294688463211e-02 -3.776276409626007080e-01
2.995374500751495361e-01 6.561251822859048843e-03 2.840507328510284424e-01
2.489551454782485962e-01 -1.029359772801399231e-01 7.393074035644531250e-01
3.903424441814422607e-01 7.341856509447097778e-02 9.209033846855163574e-02
3.848014175891876221e-01 1.140784323215484619e-01 -1.226849034428596497e-01
-8.040975928306579590e-01 -2.044144421815872192e-01 -3.471097648143768311e-01
1.496528685092926025e-01 7.341856509447097778e-02 3.086785674095153809e-01
2.036952525377273560e-01 -4.927358776330947876e-02 -4.477311372756958008e-01
3.350447416305541992e-01 -2.581828832626342773e-01 -2.568677067756652832e-01
-4.853626489639282227e-01 1.140784323215484619e-01 -4.562884867191314697e-01
4.096065461635589600e-01 1.140784323215484619e-01 -4.463895261287689209e-01
-8.040975928306579590e-01 1.100647971034049988e-01 -2.299910038709640503e-01
-4.964594542980194092e-02 1.140784323215484619e-01 -4.908856749534606934e-01
-1.477712392807006836e-01 1.140784323215484619e-01 -2.005755156278610229e-01
1.673436313867568970e-01 -1.720679104328155518e-01 7.799682021141052246e-01
3.263128399848937988e-01 -2.647315263748168945e-01 7.393074035644531250e-01
1.514955013990402222e-01 7.341856509447097778e-02 4.685756564140319824e-01
2.196287661790847778e-01 7.341856509447097778e-02 7.191641926765441895e-01
-1.649168729782104492e-01 -9.045926481485366821e-02 -3.527108430862426758e-01
-7.215872406959533691e-01 1.140784323215484619e-01 -4.195550084114074707e-01
3.400003015995025635e-01 7.341856509447097778e-02 -4.597983360290527344e-01
-7.634367942810058594e-01 -4.686043411493301392e-02 -4.114986658096313477e-01
2.302520573139190674e-01 1.140784323215484619e-01 5.956299304962158203e-01
-8.040975928306579590e-01 7.768177241086959839e-02 -4.818347990512847900e-01
3.773961663246154785e-01 7.341856509447097778e-02 5.986003279685974121e-01
7.656587660312652588e-02 7.341856509447097778e-02 -2.923880815505981445e-01
-7.694028019905090332e-01 1.140784323215484619e-01 -1.151023358106613159e-01
2.890914678573608398e-01 1.140784323215484619e-01 -1.800504177808761597e-01
3.217419385910034180e-01 1.037553772330284119e-01 -5.269690155982971191e-01
-4.410457015037536621e-01 7.341856509447097778e-02 -4.063188433647155762e-01
-3.329824507236480713e-01 7.730180025100708008e-02 -5.269690155982971191e-01
-7.487874478101730347e-02 1.467013917863368988e-02 -3.527108430862426758e-01
4.534657299518585205e-01 -3.409383073449134827e-02 -2.781658768653869629e-01
-8.040975928306579590e-01 -1.534184068441390991e-01 -3.802180290222167969e-01
2.814507782459259033e-01 -2.456119060516357422e-01 7.799682021141052246e-01
2.588766515254974365e-01 -1.651039719581604004e-02 6.566741466522216797e-01
2.446750402450561523e-01 7.341856509447097778e-02 6.789367794990539551e-01
1.033910065889358521e-01 6.003979220986366272e-02 7.799682021141052246e-01
2.036952525377273560e-01 -7.878355681896209717e-02 -2.858581840991973877e-01
-8.784950524568557739e-02 7.341856509447097778e-02 6.242780685424804688e-01
4.253562092781066895e-01 -4.504763707518577576e-02 -2.365377545356750488e-01
-8.040975928306579590e-01 -2.835134267807006836e-01 -1.303800344467163086e-01
4.389986097812652588e-01 7.341856509447097778e-02 -3.331164419651031494e-01
3.126378729939460754e-02 1.140784323215484619e-01 -4.519023001194000244e-02
-9.711509943008422852e-02 1.140784323215484619e-01 1.709132194519042969e-01
2.036952525377273560e-01 4.337260499596595764e-02 -4.576338827610015869e-01
4.507317841053009033e-01 -1.324496567249298096e-01 -5.066381096839904785e-01
2.036952525377273560e-01 -1.074099317193031311e-01 -4.771288037300109863e-01
-5.332016348838806152e-01 1.140784323215484619e-01 -3.035770952701568604e-01
9.049443900585174561e-02 7.341856509447097778e-02 -2.579380571842193604e-02
-7.864293456077575684e-01 -2.419313192367553711e-01 -5.269690155982971191e-01
4.601560235023498535e-01 1.140784323215484619e-01 -3.172148466110229492e-01
2.461987286806106567e-01 7.341856509447097778e-02 1.662324219942092896e-01
-8.040975928306579590e-01 -3.051167540252208710e-02 -3.169887363910675049e-01
1.833653301000595093e-01 2.600739710032939911e-02 -3.933143913745880127e-01
-2.775918841361999512e-01 1.140784323215484619e-01 -4.560211300849914551e-01
-8.040975928306579590e-01 -2.037502080202102661e-01 -1.798984110355377197e-01
-6.806243658065795898e-01 1.131796389818191528e-01 -6.228054314851760864e-02
1.833653301000595093e-01 -3.098253607749938965e-01 -2.693795859813690186e-01
2.422507405281066895e-01 -8.586540073156356812e-02 7.799682021141052246e-01
-6.202050447463989258e-01 1.140784323215484619e-01 -3.071375787258148193e-01
1.611702591180801392e-01 -9.872412681579589844e-02 7.799682021141052246e-01
-6.468640565872192383e-01 1.140784323215484619e-01 -5.166206359863281250e-01
2.568238675594329834e-01 -2.148754149675369263e-01 -2.365377545356750488e-01
4.753035306930541992e-02 7.341856509447097778e-02 -4.172564446926116943e-01
1.633149981498718262e-01 1.140784323215484619e-01 5.074257254600524902e-01
4.737965762615203857e-01 -2.274060696363449097e-01 -3.132480978965759277e-01
-3.968074917793273926e-01 1.140784323215484619e-01 -4.859883189201354980e-01
-8.040975928306579590e-01 -1.654759049415588379e-01 -1.276752054691314697e-01
-6.031426042318344116e-02 1.140784323215484619e-01 7.339577078819274902e-01
1.833653301000595093e-01 -2.700776606798171997e-02 -3.640940189361572266e-01
7.714381814002990723e-02 -2.792343199253082275e-01 7.799682021141052246e-01
3.248980343341827393e-01 1.140784323215484619e-01 -3.111202716827392578e-01
1.732074171304702759e-01 -9.382918477058410645e-02 -3.120490908622741699e-01
-6.997494399547576904e-02 -3.743042470887303352e-03 -3.120490908622741699e-01
-3.247588127851486206e-02 -1.443343311548233032e-01 7.393074035644531250e-01
1.994423866271972656e-01 7.882238365709781647e-03 -2.365377545356750488e-01
-1.534030884504318237e-01 -4.413542151451110840e-02 -3.527108430862426758e-01
-4.276753365993499756e-01 7.341856509447097778e-02 -4.569799602031707764e-01
2.995374500751495361e-01 -7.568617910146713257e-02 -2.126388996839523315e-01
3.464269936084747314e-01 1.140784323215484619e-01 4.575254917144775391e-01
-3.366592824459075928e-01 9.763173013925552368e-02 -6.228054314851760864e-02
-1.070647537708282471e-01 -2.187042236328125000e-01 7.669140100479125977e-01
-5.927754193544387817e-02 7.341856509447097778e-02 7.192298173904418945e-01
3.546775877475738525e-01 7.341856509447097778e-02 1.738022267818450928e-01
6.346031557768583298e-03 1.140784323215484619e-01 -3.298955857753753662e-01
-7.634367942810058594e-01 -1.047364696860313416e-01 -1.106355413794517517e-01
3.311943113803863525e-01 -1.774265617132186890e-01 7.393074035644531250e-01
2.852739393711090088e-01 -1.553384363651275635e-01 7.799682021141052246e-01
2.036952525377273560e-01 -1.579454243183135986e-01 -4.000497162342071533e-01
4.181854724884033203e-01 1.140784323215484619e-01 7.357900142669677734e-01
8.719573169946670532e-02 -6.137640774250030518e-02 -3.527108430862426758e-01
1.375669389963150024e-01 -4.120410233736038208e-02 7.393074035644531250e-01
1.226234994828701019e-02 7.341856509447097778e-02 -1.735055297613143921e-01
-9.281062334775924683e-02 1.116756945848464966e-01 -5.269690155982971191e-01
3.990558534860610962e-02 -2.339875698089599609e-01 7.799682021141052246e-01
4.737965762615203857e-01 7.366249710321426392e-02 -1.284942626953125000e-01
1.735010594129562378e-01 7.341856509447097778e-02 8.450674265623092651e-02
5.475379060953855515e-03 -3.056456744670867920e-01 7.799682021141052246e-01
-1.853906661272048950e-01 4.605116695165634155e-02 -3.527108430862426758e-01
2.995374500751495361e-01 -4.183795303106307983e-02 -2.323730736970901489e-01
4.534657299518585205e-01 -1.793528795242309570e-01 -2.831955850124359131e-01
-8.040975928306579590e-01 -2.633646130561828613e-01 -3.290333747863769531e-01
3.764401376247406006e-01 -1.969801336526870728e-01 -5.066381096839904785e-01
3.992900550365447998e-01 7.341856509447097778e-02 6.674438118934631348e-01
2.995374500751495361e-01 2.630762383341789246e-02 6.421545147895812988e-01
1.219760719686746597e-02 2.495848201215267181e-02 -3.527108430862426758e-01
4.737965762615203857e-01 -2.645007669925689697e-01 -5.228390097618103027e-01
2.296431511640548706e-01 7.341856509447097778e-02 3.572052717208862305e-01
-9.822256118059158325e-02 -1.465629488229751587e-01 7.799682021141052246e-01
2.031361013650894165e-01 7.341856509447097778e-02 4.422918558120727539e-01
-6.826264858245849609e-01 4.505010321736335754e-02 -3.120490908622741699e-01
8.558765798807144165e-02 7.341856509447097778e-02 1.405097991228103638e-01
2.218204140663146973e-01 -3.099510967731475830e-01 7.541019320487976074e-01
-5.278154015541076660e-01 -1.001532599329948425e-01 -3.527108430862426758e-01
-5.706115961074829102e-01 1.101398542523384094e-01 -5.269690155982971191e-01
-7.634367942810058594e-01 1.554079167544841766e-02 -4.408860206604003906e-01
3.455375730991363525e-01 7.341856509447097778e-02 4.781199693679809570e-01
1.354493945837020874e-01 7.341856509447097778e-02 1.917696744203567505e-01
-6.700177490711212158e-02 -3.014894425868988037e-01 7.393074035644531250e-01
-8.006628155708312988e-01 -3.099510967731475830e-01 -4.841446876525878906e-01
-7.190831899642944336e-01 7.341856509447097778e-02 -1.281564980745315552e-01
-6.924570202827453613e-01 6.712791323661804199e-02 -3.527108430862426758e-01
2.995374500751495361e-01 2.366563677787780762e-02 4.726502895355224609e-01
7.378130406141281128e-02 -1.907353401184082031e-01 7.799682021141052246e-01
1.527733355760574341e-01 1.140784323215484619e-01 -3.045772314071655273e-01
1.903840303421020508e-01 -3.323555737733840942e-02 7.393074035644531250e-01
2.907802462577819824e-01 -4.721057042479515076e-02 -5.066381096839904785e-01
-7.416054606437683105e-02 1.140784323215484619e-01 -2.945656478404998779e-01
2.588766515254974365e-01 -9.896413981914520264e-02 5.340594053268432617e-01
4.090971052646636963e-01 -2.607629597187042236e-01 -2.568677067756652832e-01
2.036952525377273560e-01 -1.485953014343976974e-02 -4.837337732315063477e-01
3.539635837078094482e-01 7.341856509447097778e-02 3.325877189636230469e-01
-4.385603964328765869e-01 3.640622599050402641e-03 -3.527108430862426758e-01
4.291756451129913330e-01 7.341856509447097778e-02 5.038812160491943359e-01
2.588766515254974365e-01 6.612591445446014404e-02 -7.902466505765914917e-02
2.164051085710525513e-01 1.092082187533378601e-01 -5.269690155982971191e-01
1.839939355850219727e-01 -6.983891129493713379e-02 -2.365377545356750488e-01
2.213194072246551514e-01 7.341856509447097778e-02 -1.025407388806343079e-01
2.771115601062774658e-01 -2.296493053436279297e-01 -5.269690155982971191e-01
2.588766515254974365e-01 2.227240055799484253e-02 -4.116814583539962769e-02
-6.821487098932266235e-02 7.341856509447097778e-02 -1.910095810890197754e-01
-2.871681153774261475e-01 1.140784323215484619e-01 -1.449813097715377808e-01
-7.634367942810058594e-01 7.111340761184692383e-02 -8.921918272972106934e-02
3.488119244575500488e-01 -5.841525271534919739e-02 -2.365377545356750488e-01
3.497660756111145020e-01 1.140784323215484619e-01 -4.071217775344848633e-02
8.512417972087860107e-02 -9.711434692144393921e-02 -3.120490908622741699e-01
-4.951547086238861084e-01 7.341856509447097778e-02 -1.520506739616394043e-01
1.280957758426666260e-01 1.140784323215484619e-01 -2.333140969276428223e-01
1.382583826780319214e-01 1.140784323215484619e-01 5.731412172317504883e-01
2.875012457370758057e-01 1.140784323215484619e-01 1.163912117481231689e-01
4.534657299518585205e-01 -1.322314143180847168e-01 -2.839808464050292969e-01
5.026918370276689529e-03 1.140784323215484619e-01 -3.983638286590576172e-01
-3.927647769451141357e-01 2.147306129336357117e-02 -3.527108430862426758e-01
-1.663891375064849854e-01 7.341856509447097778e-02 -4.369727671146392822e-01
2.547598183155059814e-01 7.341856509447097778e-02 2.673103511333465576e-01
-3.214285075664520264e-01 7.341856509447097778e-02 -2.967929542064666748e-01
5.732520669698715210e-02 7.341856509447097778e-02 4.588530361652374268e-01
7.087098807096481323e-02 1.140784323215484619e-01 6.565484404563903809e-01
3.128927946090698242e-01 7.341856509447097778e-02 -2.079159915447235107e-01
7.111866772174835205e-02 1.140784323215484619e-01 2.742342948913574219e-01
3.401992321014404297e-01 7.341856509447097778e-02 6.804407238960266113e-01
-3.900672122836112976e-02 1.140784323215484619e-01 5.122358798980712891e-01
3.988782167434692383e-01 -1.189772337675094604e-01 -2.568677067756652832e-01
-7.634367942810058594e-01 -9.235619753599166870e-02 -3.681733608245849609e-01
-1.731357909739017487e-02 -2.082592099905014038e-01 7.799682021141052246e-01
5.382945388555526733e-02 7.341856509447097778e-02 7.204223275184631348e-01
-7.361979484558105469e-01 7.341856509447097778e-02 -2.223615199327468872e-01
3.398773968219757080e-01 2.097580954432487488e-02 -2.568677067756652832e-01
1.833653301000595093e-01 -1.851020902395248413e-01 -4.853934049606323242e-01
1.251254081726074219e-01 7.341856509447097778e-02 -4.612056314945220947e-01
-8.040975928306579590e-01 5.865312740206718445e-02 -4.111627936363220215e-01
-8.028770089149475098e-01 5.259608104825019836e-02 -6.228054314851760864e-02
3.696410059928894043e-01 -9.849619120359420776e-03 7.393074035644531250e-01
1.833531409502029419e-01 1.140784323215484619e-01 4.045723378658294678e-01
4.027754664421081543e-01 7.341856509447097778e-02 4.423078298568725586e-01
5.270736664533615112e-02 7.341856509447097778e-02 1.098757684230804443e-01
-7.439209520816802979e-02 1.140784323215484619e-01 2.970082461833953857e-01
5.596406757831573486e-03 1.140784323215484619e-01 5.095451474189758301e-01
-6.966158002614974976e-02 -1.079159080982208252e-01 7.799682021141052246e-01
-8.040975928306579590e-01 -2.384712398052215576e-01 -4.452636539936065674e-01
-1.042712479829788208e-01 1.140784323215484619e-01 -3.658784553408622742e-02
3.187443315982818604e-01 1.140784323215484619e-01 6.793514490127563477e-01
5.722106620669364929e-02 1.140784323215484619e-01 -4.513160288333892822e-01
3.344376981258392334e-01 -1.093933880329132080e-01 7.393074035644531250e-01
-3.982242047786712646e-01 7.341856509447097778e-02 -2.408929169178009033e-01
-4.867465496063232422e-01 7.341856509447097778e-02 -2.100992053747177124e-01
2.959563136100769043e-01 -3.062048256397247314e-01 -5.269690155982971191e-01
2.995374500751495361e-01 -6.975579261779785156e-02 6.655664443969726562e-01
-7.099863886833190918e-01 7.341856509447097778e-02 -4.341374933719635010e-01
1.029575318098068237e-01 -1.535394340753555298e-01 7.393074035644531250e-01
3.692347109317779541e-01 -2.726368606090545654e-01 7.799682021141052246e-01
-8.040975928306579590e-01 -1.590562462806701660e-01 -5.070734024047851562e-01
4.109209775924682617e-01 7.341856509447097778e-02 -5.251742601394653320e-01
3.263897895812988281e-01 -1.212798655033111572e-01 -5.269690155982971191e-01
1.833653301000595093e-01 5.460383743047714233e-02 -3.367820084095001221e-01
2.588766515254974365e-01 -5.898493528366088867e-02 -1.537901163101196289e-01
-2.714597582817077637e-01 7.341856509447097778e-02 -1.132934764027595520e-01
-8.485671877861022949e-02 -1.008413881063461304e-01 -3.230973780155181885e-01
4.534657299518585205e-01 -2.101403176784515381e-01 -3.798398971557617188e-01
2.995374500751495361e-01 6.356085836887359619e-02 1.491116285324096680e-01
-1.099277734756469727e-01 6.220609694719314575e-02 -3.527108430862426758e-01
2.874543070793151855e-01 1.140784323215484619e-01 -1.138376519083976746e-01
2.972200810909271240e-01 -1.008413881063461304e-01 3.473550605121999979e-04
-7.634367942810058594e-01 2.920196950435638428e-02 -5.167135000228881836e-01
8.830467611551284790e-02 1.140784323215484619e-01 -1.378547251224517822e-01
2.588766515254974365e-01 2.802170999348163605e-02 6.607769727706909180e-01
-8.689337223768234253e-02 7.341856509447097778e-02 2.654452025890350342e-01
2.041306048631668091e-01 7.341856509447097778e-02 -1.617845296859741211e-01
4.737965762615203857e-01 7.512609660625457764e-02 7.557504624128341675e-02
1.168157532811164856e-01 -1.008413881063461304e-01 -3.467054069042205811e-01
4.381786286830902100e-01 -2.432973533868789673e-01 -5.269690155982971191e-01
4.535520076751708984e-01 1.140784323215484619e-01 -1.447424641810357571e-03
-8.887787163257598877e-02 1.140784323215484619e-01 4.723529145121574402e-02
-7.634367942810058594e-01 1.020220923237502575e-03 -2.298080474138259888e-01
2.995374500751495361e-01 -1.323127746582031250e-02 7.160286903381347656e-01
3.771728575229644775e-01 -2.771974503993988037e-01 -2.365377545356750488e-01
2.588766515254974365e-01 3.592983260750770569e-02 -1.703812777996063232e-01
2.588766515254974365e-01 -2.997361496090888977e-02 -1.119668558239936829e-01
2.151385396718978882e-01 1.140784323215484619e-01 1.901548355817794800e-01
-7.634630799293518066e-01 -1.700548976659774780e-01 -6.228054314851760864e-02
2.995374500751495361e-01 -9.356047958135604858e-02 7.125385403633117676e-01
-3.448057174682617188e-01 7.341856509447097778e-02 -4.012656807899475098e-01
4.737965762615203857e-01 -6.802996248006820679e-02 7.593164443969726562e-01
4.534657299518585205e-01 -2.972583472728729248e-02 -3.488744795322418213e-01
-1.070647537708282471e-01 7.462884485721588135e-02 7.625917792320251465e-01
1.833653301000595093e-01 -2.017276547849178314e-02 -4.495681524276733398e-01
1.560017019510269165e-01 1.140784323215484619e-01 -4.088181853294372559e-01
-2.069995701313018799e-01 3.506668657064437866e-02 -3.120490908622741699e-01
9.856768697500228882e-02 7.341856509447097778e-02 -1.958769708871841431e-01
4.395521581172943115e-01 -2.259387224912643433e-01 -2.568677067756652832e-01
-5.011911392211914062e-01 1.140784323215484619e-01 -9.736936539411544800e-02
1.833653301000595093e-01 -1.805639117956161499e-01 -3.174503147602081299e-01
-8.040975928306579590e-01 1.007221639156341553e-01 -4.328061938285827637e-01
2.995374500751495361e-01 -7.442823052406311035e-02 5.235356092453002930e-01
4.737965762615203857e-01 3.346987068653106689e-02 -2.458447366952896118e-01
1.662797182798385620e-01 1.140784323215484619e-01 1.321363300085067749e-01
-7.634367942810058594e-01 -1.600538492202758789e-01 -4.335970878601074219e-01
-7.598669528961181641e-01 7.341856509447097778e-02 -5.183309316635131836e-01
-3.053833544254302979e-01 -1.600151322782039642e-02 -3.527108430862426758e-01
2.995374500751495361e-01 3.218077123165130615e-02 4.121999442577362061e-01
-9.485084563493728638e-02 -2.561047971248626709e-01 7.799682021141052246e-01
3.272079229354858398e-01 -2.080687582492828369e-01 -2.365377545356750488e-01
9.306511282920837402e-02 1.093320548534393311e-01 -5.269690155982971191e-01
-6.610140204429626465e-01 -1.491564046591520309e-02 -3.527108430862426758e-01
2.588766515254974365e-01 -8.609986305236816406e-02 -2.147151529788970947e-01
3.087646961212158203e-01 1.140784323215484619e-01 -4.366331100463867188e-01
2.311189472675323486e-01 -2.387001812458038330e-01 7.799682021141052246e-01
8.269515633583068848e-02 1.140784323215484619e-01 4.792073965072631836e-01
4.574042558670043945e-01 7.341856509447097778e-02 5.912101268768310547e-01
1.948433071374893188e-01 7.341856509447097778e-02 5.993940830230712891e-01
-2.242157012224197388e-01 7.341856509447097778e-02 -1.437541395425796509e-01
-5.832257270812988281e-01 1.140784323215484619e-01 -1.467807888984680176e-01
-8.084890991449356079e-02 7.341856509447097778e-02 -3.944646418094635010e-01
-7.634367942810058594e-01 -6.752905994653701782e-02 -5.011993646621704102e-01
-4.273394644260406494e-01 7.341856509447097778e-02 -2.845982015132904053e-01
2.136533558368682861e-01 7.341856509447097778e-02 -5.586511269211769104e-02
-8.040975928306579590e-01 -2.436323016881942749e-01 -2.086299657821655273e-01
-3.419329524040222168e-01 1.140784323215484619e-01 -1.797398775815963745e-01
-1.063246056437492371e-01 7.341856509447097778e-02 3.301108777523040771e-01
3.681313991546630859e-01 1.140784323215484619e-01 2.933511137962341309e-01
4.737965762615203857e-01 1.138710901141166687e-01 -4.951113164424896240e-01
2.588766515254974365e-01 -6.174644082784652710e-02 4.841319918632507324e-01
3.758350014686584473e-01 6.193401291966438293e-02 7.799682021141052246e-01
-5.752885341644287109e-01 7.341856509447097778e-02 -4.398004710674285889e-01
-5.630946755409240723e-01 7.341856509447097778e-02 -9.086854010820388794e-02
3.796112537384033203e-01 1.140784323215484619e-01 3.658207952976226807e-01
6.642671674489974976e-02 7.341856509447097778e-02 6.253982782363891602e-01
-7.634367942810058594e-01 -2.722118496894836426e-01 -7.513298839330673218e-02
-1.454034149646759033e-01 1.140784323215484619e-01 -5.128602981567382812e-01
2.187224775552749634e-01 1.140784323215484619e-01 -2.924734652042388916e-01
-2.376715987920761108e-01 7.341856509447097778e-02 -4.490343034267425537e-01
2.814526259899139404e-01 5.372473970055580139e-02 -2.365377545356750488e-01
-8.040975928306579590e-01 -2.368105947971343994e-01 -3.813138008117675781e-01
3.565633594989776611e-01 -2.266967892646789551e-01 7.393074035644531250e-01
-3.509818911552429199e-01 1.140784323215484619e-01 -3.306339681148529053e-01
1.875572353601455688e-01 2.151152119040489197e-02 7.393074035644531250e-01
2.036952525377273560e-01 3.885830301442183554e-05 -2.990831136703491211e-01
2.995374500751495361e-01 -7.841562182875350118e-05 5.482779145240783691e-01
-1.004500463604927063e-01 -7.754212617874145508e-02 7.799682021141052246e-01
2.995374500751495361e-01 3.001446463167667389e-02 2.470188587903976440e-01
1.833653301000595093e-01 -1.131283715367317200e-01 -2.823258638381958008e-01
-4.174723625183105469e-01 1.140784323215484619e-01 -4.192848205566406250e-01
2.548095285892486572e-01 1.140784323215484619e-01 -4.448517858982086182e-01
9.527458995580673218e-02 1.140784323215484619e-01 5.746358036994934082e-01
4.270599782466888428e-01 -3.099510967731475830e-01 7.721679806709289551e-01
4.306429624557495117e-01 7.341856509447097778e-02 6.366660594940185547e-01
4.576022028923034668e-01 1.140784323215484619e-01 -2.660630345344543457e-01
-2.607076987624168396e-02 -2.474632300436496735e-02 -3.120490908622741699e-01
4.350806474685668945e-01 -1.308557391166687012e-02 -5.269690155982971191e-01
-1.552613079547882080e-01 7.341856509447097778e-02 -2.433603852987289429e-01
1.589973717927932739e-01 1.140784323215484619e-01 -1.687712781131267548e-02
3.681370317935943604e-01 1.140784323215484619e-01 -3.660323619842529297e-01
4.032408595085144043e-01 -1.543502211570739746e-01 7.393074035644531250e-01
2.588766515254974365e-01 6.750413775444030762e-02 5.344956517219543457e-01
7.746936380863189697e-02 1.140784323215484619e-01 3.772321343421936035e-01
2.547307312488555908e-01 6.948280334472656250e-02 7.393074035644531250e-01
-6.751255393028259277e-01 1.140784323215484619e-01 -2.747339010238647461e-01
