-6.114853024482727051e-01 -1.994077712297439575e-01 3.204874098300933838e-01
-9.501297473907470703e-01 -1.405771970748901367e-01 -1.130969673395156860e-01
-2.439330965280532837e-01 1.038681939244270325e-01 -3.043136000633239746e-01
-1.707305163145065308e-01 1.283406466245651245e-01 3.227192461490631104e-01
-6.470695734024047852e-01 -1.199034899473190308e-01 -5.148896574974060059e-02
-2.639702856540679932e-01 1.037754714488983154e-01 -1.469602733850479126e-01
-4.426465034484863281e-01 1.710593402385711670e-01 -1.025808975100517273e-02
8.668986558914184570e-01 -5.210135877132415771e-02 -1.645366847515106201e-01
-5.555554628372192383e-01 -1.452656388282775879e-01 3.492327872663736343e-03
-2.683743238449096680e-01 -7.427395880222320557e-02 -3.565357327461242676e-01
5.039964318275451660e-01 -1.527348011732101440e-01 8.222641795873641968e-02
1.128611564636230469e-01 5.974171683192253113e-02 3.579922318458557129e-01
5.507549643516540527e-01 -1.581167131662368774e-01 6.332557648420333862e-02
8.501150012016296387e-01 -9.476591646671295166e-02 2.101991623640060425e-01
-7.922618389129638672e-01 -1.371035426855087280e-01 3.381735980510711670e-01
-7.695378065109252930e-01 -1.252582371234893799e-01 -1.922901719808578491e-01
1.016093343496322632e-01 5.487787351012229919e-02 -3.571601510047912598e-01
5.690428018569946289e-01 1.817661970853805542e-01 1.094133853912353516e-01
4.185316264629364014e-01 -2.646559663116931915e-02 1.856756210327148438e-01
-3.931613862514495850e-01 1.986406296491622925e-01 1.757164485752582550e-02
-9.092796444892883301e-01 3.160128369927406311e-02 -9.832286834716796875e-02
-2.812113985419273376e-02 1.204568818211555481e-01 -2.978499233722686768e-01
6.098645925521850586e-01 1.619872897863388062e-01 -2.898961603641510010e-01
5.329666137695312500e-01 1.782798767089843750e-01 7.343319058418273926e-02
-6.884589791297912598e-01 -1.551018562167882919e-02 1.856756210327148438e-01
-2.372206002473831177e-01 -1.212682127952575684e-01 9.172816574573516846e-02
-2.409879267215728760e-01 1.036445889621973038e-02 -3.583758473396301270e-01
-3.284575045108795166e-01 1.453106105327606201e-01 -3.365117907524108887e-01
-6.801968216896057129e-01 1.250321716070175171e-01 4.371573776006698608e-02
-7.502740621566772461e-02 -4.805299919098615646e-03 -3.090355098247528076e-01
-2.095465958118438721e-01 -8.155107498168945312e-02 -3.234349489212036133e-01
-3.217894732952117920e-01 -1.166382506489753723e-01 -7.174650579690933228e-02
-6.930730938911437988e-01 8.835580199956893921e-03 3.616791069507598877e-01
7.850838303565979004e-01 1.622219383716583252e-01 2.307926416397094727e-01
1.320922821760177612e-01 -1.294509321451187134e-01 6.053660437464714050e-02
6.627802252769470215e-01 1.300369799137115479e-01 3.106603920459747314e-01
1.971263289451599121e-01 7.092163711786270142e-02 -3.536605536937713623e-01
-1.042284891009330750e-01 3.042164444923400879e-01 -9.712038934230804443e-02
-7.306336760520935059e-01 3.983603790402412415e-02 3.460308313369750977e-01
-3.839805424213409424e-01 -1.626089215278625488e-01 2.728736698627471924e-01
-5.512081980705261230e-01 4.791656136512756348e-02 -2.970977723598480225e-01
-6.221668422222137451e-02 -1.215746551752090454e-01 1.248204186558723450e-01
7.882797122001647949e-01 6.263296306133270264e-02 2.584344744682312012e-01
-5.249377340078353882e-03 -3.059864975512027740e-03 -2.603356242179870605e-01
2.318647801876068115e-01 -8.974403142929077148e-02 2.134124515578150749e-03
4.400466382503509521e-01 1.226168051362037659e-01 -2.789678871631622314e-01
-4.063318669795989990e-01 1.135003119707107544e-01 -3.225361704826354980e-01
4.381166398525238037e-01 -1.759242713451385498e-01 -3.433803915977478027e-01
-8.995624184608459473e-01 2.186888083815574646e-02 -1.571203172206878662e-01
-1.078010201454162598e-01 -6.940416991710662842e-02 -3.192636668682098389e-01
3.757476806640625000e-01 2.206850610673427582e-02 -1.220781728625297546e-01
-5.309477448463439941e-01 -9.436400607228279114e-03 1.856756210327148438e-01
4.297106266021728516e-01 -9.862484037876129150e-02 -1.843297928571701050e-01
-4.807516932487487793e-02 -1.235057190060615540e-01 -1.148349344730377197e-01
-6.924694776535034180e-01 -1.230343729257583618e-01 -3.181217312812805176e-01
4.945431351661682129e-01 2.600896917283535004e-02 3.575097024440765381e-01
-4.995716512203216553e-01 1.784706674516201019e-02 -2.226085066795349121e-01
4.434024095535278320e-01 1.245572268962860107e-01 8.852131664752960205e-03
3.313402235507965088e-01 1.039283815771341324e-02 2.514466643333435059e-01
4.351468682289123535e-01 2.648459374904632568e-01 -1.965939253568649292e-01
8.307357877492904663e-02 -1.196481361985206604e-01 -3.200337886810302734e-01
9.585522860288619995e-02 -9.116983413696289062e-02 -2.463808357715606689e-01
-9.163862466812133789e-02 -5.951035767793655396e-02 3.186056315898895264e-01
3.389448821544647217e-01 2.271519154310226440e-01 -2.750340700149536133e-01
-9.563398957252502441e-01 -8.840814232826232910e-02 -1.408059746026992798e-01
4.390172660350799561e-01 3.318692371249198914e-02 -2.014170736074447632e-01
-1.161929070949554443e-01 -5.169690400362014771e-02 1.591627486050128937e-02
2.774330973625183105e-01 -1.128720715641975403e-01 8.334119617938995361e-02
-8.559874892234802246e-01 4.031664505600929260e-02 -2.491065412759780884e-01
-5.945162773132324219e-01 -3.221175447106361389e-02 -3.178814351558685303e-01
-6.063149571418762207e-01 2.235800400376319885e-02 -1.878908723592758179e-01
4.600639343261718750e-01 9.809103794395923615e-03 -2.680121958255767822e-01
-6.991030648350715637e-03 3.004358708858489990e-01 -1.457379311323165894e-01
-1.043393649160861969e-02 -9.155330061912536621e-02 -2.291014939546585083e-01
2.088071219623088837e-02 3.062297105789184570e-01 -7.406082749366760254e-02
4.354836940765380859e-01 -2.464008927345275879e-01 -3.241369724273681641e-01
4.672873020172119141e-01 -2.006153576076030731e-02 2.541931569576263428e-01
-5.378342866897583008e-01 -1.724454909563064575e-01 -3.303877711296081543e-01
-1.661353558301925659e-01 -1.525221318006515503e-01 -3.498440682888031006e-01
5.510198473930358887e-01 -8.888448774814605713e-02 2.808189094066619873e-01
-4.053167104721069336e-01 1.839980334043502808e-01 -1.415022909641265869e-01
3.441313207149505615e-01 -2.279875054955482483e-02 3.362448140978813171e-02
4.226092994213104248e-01 2.512440383434295654e-01 2.431097477674484253e-01
8.650395870208740234e-01 -6.721406430006027222e-02 1.663006842136383057e-01
4.050745069980621338e-01 1.295951455831527710e-01 3.029989898204803467e-01
1.500168442726135254e-01 -1.380664855241775513e-01 -3.499197363853454590e-01
6.749261021614074707e-01 -7.556310296058654785e-02 -3.366139531135559082e-01
-1.221084147691726685e-01 -1.779871135950088501e-01 -3.456774950027465820e-01
-8.085080385208129883e-01 -1.751750558614730835e-01 -2.933361530303955078e-01
8.178373575210571289e-01 -1.415728628635406494e-01 1.063300818204879761e-01
2.126794774085283279e-03 2.935492992401123047e-01 1.915073096752166748e-01
1.119311526417732239e-01 3.150576353073120117e-01 1.455832570791244507e-01
6.372699141502380371e-01 1.969121247529983521e-01 -5.425154417753219604e-02
-8.353542685508728027e-01 3.739039227366447449e-02 2.668735682964324951e-01
1.220088675618171692e-01 1.383899748325347900e-01 -2.968035340309143066e-01
-6.147143244743347168e-01 3.986158221960067749e-02 -3.373396098613739014e-01
-1.743644326925277710e-01 -5.498692393302917480e-02 4.447014629840850830e-02
3.418711423873901367e-01 4.449457302689552307e-02 3.528445661067962646e-01
-5.261888504028320312e-01 -1.506872922182083130e-01 2.925683856010437012e-01
-4.444090723991394043e-01 1.308439970016479492e-01 1.734464913606643677e-01
7.850667834281921387e-01 1.148503720760345459e-01 -2.850503027439117432e-01
7.001923322677612305e-01 1.031052786856889725e-02 3.263171911239624023e-01
-3.362778425216674805e-01 -1.265337876975536346e-02 -2.747398316860198975e-01
4.000199586153030396e-02 7.574763149023056030e-02 -1.091555729508399963e-01
8.836316317319869995e-02 -1.652535349130630493e-01 3.016697168350219727e-01
-4.373531341552734375e-01 1.284740418195724487e-01 1.042685583233833313e-01
-6.994402408599853516e-01 -1.383208781480789185e-01 -2.834220826625823975e-01
5.566982626914978027e-01 6.282087415456771851e-03 -2.005428969860076904e-01
2.244465202093124390e-01 -8.702769875526428223e-02 -7.717610150575637817e-02
-6.991422772407531738e-01 2.281780354678630829e-02 -3.614885210990905762e-01
9.785147756338119507e-02 2.622867822647094727e-01 2.581497132778167725e-01
-5.888634324073791504e-01 -7.916229963302612305e-02 3.204874098300933838e-01
4.863386750221252441e-01 2.203675210475921631e-01 -2.548890113830566406e-01
6.997783482074737549e-02 1.016410961747169495e-01 -2.964175343513488770e-01
-2.832013964653015137e-01 2.488722056150436401e-01 3.699841722846031189e-02
3.074392080307006836e-01 -1.221690773963928223e-01 -2.023641169071197510e-01
5.606831908226013184e-01 2.180174440145492554e-01 1.991933137178421021e-01
6.415717601776123047e-01 -3.774447366595268250e-02 -2.547811567783355713e-01
-5.538118481636047363e-01 -1.252843588590621948e-01 1.856756210327148438e-01
-3.189322948455810547e-01 -1.640046089887619019e-01 -8.621141314506530762e-03
6.523600220680236816e-01 -1.009520888328552246e-01 3.459239304065704346e-01
2.978402078151702881e-01 -5.176511779427528381e-02 3.221203684806823730e-01
-8.790209293365478516e-01 1.428125891834497452e-02 -2.122015357017517090e-01
1.292786151170730591e-01 3.085372149944305420e-01 -1.182909831404685974e-01
1.947507113218307495e-01 -1.652535349130630493e-01 2.205871939659118652e-01
-2.225571870803833008e-01 4.084551334381103516e-02 -1.793543100357055664e-01
-9.781434535980224609e-01 -9.724288433790206909e-02 -6.462785601615905762e-02
-3.109709620475769043e-01 -8.876862376928329468e-02 3.567235171794891357e-01
4.953047633171081543e-01 -2.350279688835144043e-01 -2.478094547986984253e-01
-2.858570814132690430e-01 1.537184864282608032e-01 -3.045141398906707764e-01
-8.168269991874694824e-01 -1.702451854944229126e-01 -8.363663218915462494e-03
7.268019914627075195e-01 -1.137816384434700012e-01 1.943162381649017334e-01
7.823543548583984375e-01 -1.147430539131164551e-01 2.324568182229995728e-01
-7.119446992874145508e-01 3.318220004439353943e-02 2.434068173170089722e-01
-6.820729374885559082e-01 -1.942222565412521362e-01 2.611402869224548340e-01
-5.604845881462097168e-01 3.064384683966636658e-02 3.419711589813232422e-01
-3.389231264591217041e-01 -1.196557469666004181e-02 -1.330310255289077759e-01
-5.775103569030761719e-01 -1.473343521356582642e-01 -6.223926693201065063e-02
2.576286196708679199e-01 3.033602237701416016e-01 1.140198856592178345e-01
2.149264141917228699e-02 -1.652362197637557983e-01 -2.947145700454711914e-01
4.573818147182464600e-01 -8.054348826408386230e-02 -3.528686761856079102e-01
4.405130445957183838e-01 1.211702451109886169e-01 -1.983195990324020386e-01
8.290759921073913574e-01 -1.481923609972000122e-01 3.256486356258392334e-02
6.472246646881103516e-01 -2.773515321314334869e-02 3.469703197479248047e-01
-6.231411099433898926e-01 5.625821650028228760e-02 -2.606175839900970459e-01
4.585354775190353394e-02 3.151636123657226562e-01 -1.191434040665626526e-01
5.171839594841003418e-01 1.767945289611816406e-01 -1.265711486339569092e-01
3.337716758251190186e-01 -2.614043094217777252e-02 -2.254145890474319458e-01
-4.712277948856353760e-01 1.322668939828872681e-01 -2.098552286624908447e-01
-5.172569155693054199e-01 1.324229985475540161e-01 -1.148699373006820679e-01
-1.921329051256179810e-01 -9.727263450622558594e-02 -1.681658774614334106e-01
2.795205824077129364e-02 -1.652420014142990112e-01 1.510100215673446655e-01
-3.164923191070556641e-01 1.281362771987915039e-01 3.188582360744476318e-01
2.205395326018333435e-02 2.842242829501628876e-02 3.019611239433288574e-01
-4.035815894603729248e-01 -2.070918213576078415e-03 3.583611845970153809e-01
3.038071691989898682e-01 4.482664540410041809e-02 2.296876162290573120e-01
3.956713378429412842e-01 5.797537416219711304e-02 -2.282547503709793091e-01
4.153509140014648438e-01 2.844526767730712891e-01 -9.179797768592834473e-02
8.718959093093872070e-01 -1.249844506382942200e-01 1.346833854913711548e-01
-3.108305670320987701e-02 -3.729167953133583069e-02 -6.017320603132247925e-02
3.883117139339447021e-01 -6.824908405542373657e-02 -3.445762395858764648e-01
3.961869478225708008e-01 -1.447267383337020874e-01 -3.191406726837158203e-01
5.998871922492980957e-01 2.077425643801689148e-02 2.418230772018432617e-01
2.926111817359924316e-01 2.479607798159122467e-02 1.415860354900360107e-01
-4.592124819755554199e-01 -4.219118133187294006e-02 2.710079848766326904e-01
2.178920209407806396e-01 3.103499114513397217e-01 -1.646719872951507568e-01
-4.610375165939331055e-01 1.297294944524765015e-01 3.694723546504974365e-02
4.243027567863464355e-01 1.656316369771957397e-01 3.314074873924255371e-02
-7.073935866355895996e-02 1.000611409544944763e-01 3.008844852447509766e-01
-5.594524145126342773e-01 -1.417084336280822754e-01 -3.508913516998291016e-01
8.045836091041564941e-01 -1.449234187602996826e-01 -1.166287064552307129e-01
4.032750427722930908e-01 6.865575909614562988e-02 3.071087896823883057e-01
4.669514894485473633e-01 2.694401443004608154e-01 -2.160168066620826721e-02
8.611142635345458984e-01 -1.483780592679977417e-01 -1.399876177310943604e-01
6.564726829528808594e-01 -8.593070507049560547e-02 2.890290617942810059e-01
5.100958943367004395e-01 6.948926299810409546e-02 3.526401817798614502e-01
6.194390058517456055e-01 -1.229409873485565186e-01 1.553185135126113892e-01
3.128205537796020508e-01 2.945152521133422852e-01 -1.443093419075012207e-01
2.390758693218231201e-01 -1.141550540924072266e-01 2.450198978185653687e-01
6.239348053932189941e-01 -1.231747716665267944e-01 -3.384228944778442383e-01
-4.909405112266540527e-01 1.312735080718994141e-01 2.236023843288421631e-01
-5.478959083557128906e-01 -7.164156436920166016e-02 -3.128047287464141846e-01
-3.730002641677856445e-01 -1.628671139478683472e-01 -1.753996610641479492e-01
6.408518552780151367e-01 1.958733201026916504e-01 1.988445036113262177e-02
-8.226568698883056641e-01 -1.694703400135040283e-01 -1.636956185102462769e-01
5.826280452311038971e-03 -3.090710192918777466e-02 2.601695954799652100e-01
-4.343918859958648682e-01 -6.552615016698837280e-02 -9.630675613880157471e-02
-2.072362452745437622e-01 -1.649634540081024170e-01 1.579193025827407837e-01
7.966496944427490234e-01 1.370604056864976883e-02 -2.892963290214538574e-01
-2.759477794170379639e-01 -1.640802770853042603e-01 -3.021101355552673340e-01
-1.466079354286193848e-01 -1.393774598836898804e-01 -6.110169366002082825e-02
-6.923096179962158203e-01 4.360997676849365234e-02 -3.167300522327423096e-01
8.169301152229309082e-01 9.467221051454544067e-02 2.168151438236236572e-01
-2.581991553306579590e-01 1.400352418422698975e-01 3.149698376655578613e-01
-4.839858114719390869e-01 -9.007994085550308228e-02 -3.243867158889770508e-01
-1.244790330529212952e-01 -1.237684413790702820e-01 -3.243800997734069824e-01
-2.876442372798919678e-01 4.303096607327461243e-02 4.603119194507598877e-02
-4.601245224475860596e-01 -3.799764811992645264e-02 -2.391868084669113159e-01
4.389652907848358154e-01 -1.119868084788322449e-01 3.499296605587005615e-01
-3.538703620433807373e-01 1.698294281959533691e-01 -2.966445982456207275e-01
3.337199985980987549e-02 5.505763366818428040e-02 1.881080120801925659e-01
5.172520875930786133e-01 4.147182032465934753e-02 -3.604269623756408691e-01
2.705118805170059204e-02 2.172899097204208374e-01 -2.845933437347412109e-01
-8.590565919876098633e-01 7.553475350141525269e-02 1.344184875488281250e-01
-7.048732042312622070e-02 2.997594177722930908e-01 6.346067041158676147e-02
-1.220586523413658142e-02 6.192433834075927734e-02 2.427748143672943115e-01
1.853257864713668823e-01 1.006959602236747742e-01 -3.004270493984222412e-01
8.434007167816162109e-01 1.542293876409530640e-01 3.555233357474207878e-03
-2.108644992113113403e-01 -9.744146466255187988e-02 6.154276430606842041e-02
-8.603309392929077148e-01 -1.659470200538635254e-01 1.317826807498931885e-01
-6.554027199745178223e-01 -2.227704524993896484e-01 3.571653366088867188e-01
5.524361729621887207e-01 -2.187694609165191650e-01 2.698442935943603516e-01
-1.665620505809783936e-01 -1.055429801344871521e-01 2.250309735536575317e-01
-3.491323590278625488e-01 8.265879750251770020e-02 -1.111924871802330017e-01
-2.143924534320831299e-01 -1.011164188385009766e-01 -2.631398439407348633e-01
-6.505398154258728027e-01 -2.048969715833663940e-01 -2.575891613960266113e-01
7.160591483116149902e-01 -1.598095446825027466e-01 -1.956686526536941528e-01
4.529843628406524658e-01 -2.013415694236755371e-01 3.440535068511962891e-01
4.304041266441345215e-01 1.675294786691665649e-01 -7.755444198846817017e-02
-4.493902027606964111e-01 6.249009445309638977e-02 3.528436124324798584e-01
-3.428834378719329834e-01 2.159994542598724365e-01 1.483685523271560669e-01
3.976079821586608887e-01 5.325060710310935974e-02 7.227622717618942261e-02
5.115538239479064941e-01 1.761852204799652100e-01 -6.175098475068807602e-03
-4.312079027295112610e-02 -1.448072642087936401e-01 6.943938136100769043e-02
2.020005881786346436e-01 1.039094850420951843e-02 3.086915910243988037e-01
3.770192265510559082e-01 1.506673544645309448e-01 -2.741816341876983643e-01
-1.960979551076889038e-01 2.650531232357025146e-01 -2.480298876762390137e-01
8.594631217420101166e-03 -2.226780541241168976e-02 -1.245209723711013794e-01
1.512609571218490601e-01 2.551144957542419434e-01 -2.616119086742401123e-01
4.729827642440795898e-01 2.549167573451995850e-01 1.991337090730667114e-01
-2.566504180431365967e-01 2.573879361152648926e-01 8.735799789428710938e-02
-3.843504786491394043e-01 1.258032321929931641e-01 -2.287684679031372070e-01
-8.880437612533569336e-01 1.893127895891666412e-02 2.405553162097930908e-01
5.425088405609130859e-01 -7.676633447408676147e-02 1.856756210327148438e-01
5.445173978805541992e-01 1.959556192159652710e-01 -2.613205313682556152e-01
-7.076920270919799805e-01 9.850860387086868286e-02 -2.613044381141662598e-01
3.521569669246673584e-01 6.187798455357551575e-02 3.106215894222259521e-01
2.923481762409210205e-01 -5.493602529168128967e-02 -2.585163116455078125e-01
2.552095055580139160e-01 -1.364323943853378296e-01 -1.205171272158622742e-01
6.688938140869140625e-01 1.779250949621200562e-01 -1.613966226577758789e-01
9.067066013813018799e-02 -1.129660159349441528e-01 -2.633949927985668182e-02
-6.370467543601989746e-01 -2.368718981742858887e-01 2.498837262392044067e-01
8.353400230407714844e-01 9.648114442825317383e-02 -1.884197294712066650e-01
-5.997840762138366699e-01 -1.583715975284576416e-01 -3.378041386604309082e-01
9.422796219587326050e-02 -1.436116844415664673e-01 -6.777284294366836548e-02
-3.422174155712127686e-01 -4.463615640997886658e-02 -3.586303889751434326e-01
-6.783443689346313477e-01 -1.739018112421035767e-01 -3.071527779102325439e-01
-1.078238151967525482e-02 -3.434811532497406006e-02 3.119376301765441895e-01
3.384065330028533936e-01 -3.120446018874645233e-02 -1.398551464080810547e-01
-4.531594216823577881e-01 -7.001581788063049316e-02 -2.885612249374389648e-01
3.675990402698516846e-01 3.566757217049598694e-02 -2.114844024181365967e-01
-6.777181029319763184e-01 -1.692015677690505981e-01 6.559836119413375854e-02
7.222815752029418945e-01 1.737594753503799438e-01 -1.760136783123016357e-01
2.149345576763153076e-01 1.565936505794525146e-01 3.136377334594726562e-01
3.631864786148071289e-01 1.293662041425704956e-01 -1.694932430982589722e-01
3.916362822055816650e-01 -1.441925577819347382e-02 -3.378230631351470947e-01
-4.405300915241241455e-01 -1.689990907907485962e-01 3.144778609275817871e-01
3.038989603519439697e-01 1.239195689558982849e-01 3.032525479793548584e-01
2.760130167007446289e-01 3.023091256618499756e-01 -6.390126794576644897e-02
3.177496790885925293e-01 1.274030655622482300e-01 -3.013239502906799316e-01
-1.125866174697875977e-01 -1.650111526250839233e-01 2.344805002212524414e-01
-7.440180182456970215e-01 1.058691665530204773e-01 1.320986747741699219e-01
-8.802782893180847168e-01 -1.635565310716629028e-01 -1.798689961433410645e-01
-9.315486550331115723e-01 -1.057371944189071655e-01 -1.918351054191589355e-01
-4.508850276470184326e-01 -1.376952230930328369e-01 2.020457684993743896e-01
-3.002167940139770508e-01 -1.639713048934936523e-01 3.067625164985656738e-01
2.679201960563659668e-01 -1.172130927443504333e-01 1.407165825366973877e-01
-2.116412222385406494e-01 -5.738468840718269348e-02 -1.400365121662616730e-02
-1.591598540544509888e-01 -8.737718313932418823e-02 -2.710254788398742676e-01
-9.524676203727722168e-01 1.113613718189299107e-03 -5.363913718611001968e-03
-8.831837177276611328e-01 -1.689045876264572144e-01 2.572717368602752686e-01
4.605057537555694580e-01 7.019124925136566162e-02 3.066064119338989258e-01
4.303558468818664551e-01 6.801241636276245117e-02 2.161718159914016724e-01
6.263700723648071289e-01 -1.536324620246887207e-01 1.871893554925918579e-01
5.110145807266235352e-01 -3.228734806180000305e-02 -2.537328898906707764e-01
4.954707622528076172e-02 -1.463376432657241821e-01 -5.432400852441787720e-03
-6.337193250656127930e-01 -1.808770298957824707e-01 1.582977324724197388e-01
5.347528457641601562e-01 -2.200078815221786499e-01 -3.554987907409667969e-01
3.691023588180541992e-01 1.243071071803569794e-02 1.639837324619293213e-01
-4.049165248870849609e-01 1.729969233274459839e-01 -2.548937499523162842e-01
-5.640106201171875000e-01 -1.722447425127029419e-01 3.204874098300933838e-01
6.379704922437667847e-02 8.991245180368423462e-02 2.980187833309173584e-01
-2.075077593326568604e-01 -1.238355189561843872e-01 -3.525214791297912598e-01
-6.479362249374389648e-01 -7.393800467252731323e-02 -3.430530428886413574e-01
7.448826432228088379e-01 -1.229737251996994019e-01 -2.463278621435165405e-01
-1.235216930508613586e-01 2.130930423736572266e-01 -2.833284139633178711e-01
-3.057088255882263184e-01 7.372205704450607300e-02 -6.064189597964286804e-02
5.302777886390686035e-01 -1.124394237995147705e-01 3.204874098300933838e-01
2.321117222309112549e-01 -1.563123315572738647e-01 -1.873856633901596069e-01
8.625797629356384277e-01 8.165751583874225616e-03 -7.306951284408569336e-02
3.665904998779296875e-01 1.275241672992706299e-01 3.094629757106304169e-02
-5.732274055480957031e-01 -1.017918214201927185e-01 -1.843297928571701050e-01
-3.273496329784393311e-01 4.919946193695068359e-02 -1.557323932647705078e-01
-1.792046129703521729e-01 -1.645446419715881348e-01 -2.818506360054016113e-01
-2.948439717292785645e-01 -1.649420857429504395e-01 -8.030490577220916748e-02
3.146497160196304321e-02 1.422992050647735596e-01 -1.797914057970046997e-01
6.353970617055892944e-02 -6.441355496644973755e-02 3.580943942070007324e-01
-5.805615186691284180e-01 8.482690900564193726e-03 1.856756210327148438e-01
-3.823286592960357666e-01 1.204994618892669678e-01 1.908365339040756226e-01
7.173278331756591797e-01 -5.143341794610023499e-02 -3.216534852981567383e-01
5.623643994331359863e-01 -1.659823060035705566e-01 1.138533726334571838e-01
-9.720184803009033203e-01 -5.883920565247535706e-02 6.764286011457443237e-02
3.642319142818450928e-01 -1.339173167943954468e-01 1.856756210327148438e-01
-3.003530204296112061e-01 -6.282128393650054932e-02 7.138170301914215088e-02
9.382339194416999817e-03 1.066856384277343750e-01 3.439352512359619141e-01
3.292995095252990723e-01 7.124106865376234055e-03 -2.972803711891174316e-01
-6.819381564855575562e-02 -1.649399101734161377e-01 -2.912244498729705811e-01
5.998661741614341736e-03 -1.651725471019744873e-01 3.063169121742248535e-01
1.214118972420692444e-01 -5.778620764613151550e-02 2.872551381587982178e-01
4.642930030822753906e-01 -1.745174229145050049e-01 1.487469822168350220e-01
-1.908638328313827515e-02 5.206611007452011108e-02 6.827370822429656982e-02
5.427008867263793945e-01 2.313809394836425781e-01 -1.579613834619522095e-01
6.603469252586364746e-01 -9.751772135496139526e-02 2.374048531055450439e-01
-3.976675868034362793e-01 2.263520844280719757e-02 -3.557599186897277832e-01
-6.480847597122192383e-01 5.470095947384834290e-02 2.586861252784729004e-01
5.567218661308288574e-01 -1.404932737350463867e-01 1.812479197978973389e-01
-4.328251779079437256e-01 -6.303018331527709961e-02 1.401744782924652100e-01
-2.049514353275299072e-01 2.382325083017349243e-01 2.634714245796203613e-01
3.268870115280151367e-01 -6.124851107597351074e-02 2.014913707971572876e-01
4.536391352303326130e-04 -1.290919929742813110e-01 3.496060967445373535e-01
-2.474222779273986816e-01 -1.646782159805297852e-01 -1.868624687194824219e-01
2.436568289995193481e-01 -7.908869534730911255e-02 1.772866547107696533e-01
-7.924718856811523438e-01 -1.733952760696411133e-01 2.914595603942871094e-01
-9.921711087226867676e-01 -5.379211157560348511e-02 -2.652455307543277740e-02
-4.507043063640594482e-01 -8.130026608705520630e-02 2.330954223871231079e-01
-4.702545702457427979e-02 -1.650049835443496704e-01 2.968011498451232910e-01
-2.618756592273712158e-01 1.563227362930774689e-02 3.177210688591003418e-01
3.740891814231872559e-01 1.980168372392654419e-02 -6.797407567501068115e-02
2.941608726978302002e-01 4.867248609662055969e-02 3.094938993453979492e-01
4.740891605615615845e-02 2.179569005966186523e-01 -1.321625113487243652e-01
-4.569920301437377930e-01 1.407542526721954346e-01 2.768472433090209961e-01
5.293487310409545898e-01 -1.561296582221984863e-01 -3.507059514522552490e-01
8.373678475618362427e-02 -1.657708436250686646e-01 -3.472517430782318115e-01
-8.986366540193557739e-02 -1.651356518268585205e-01 -1.512167304754257202e-01
-7.907112240791320801e-01 -9.659311920404434204e-02 -2.398414909839630127e-01
5.713058710098266602e-01 4.431575536727905273e-02 2.862437665462493896e-01
-1.270713061094284058e-01 -1.649900376796722412e-01 7.469139993190765381e-02
-3.916018456220626831e-02 -1.810975000262260437e-02 2.176931202411651611e-01
7.435174584388732910e-01 5.991390720009803772e-02 -3.147318959236145020e-01
-7.407360076904296875e-01 -1.132586374878883362e-01 -2.932159602642059326e-01
-3.244441747665405273e-01 9.177623689174652100e-02 2.964019179344177246e-01
-5.623748898506164551e-01 -1.224773079156875610e-01 3.204874098300933838e-01
5.941349267959594727e-01 5.813242122530937195e-02 3.440203964710235596e-01
1.778024882078170776e-01 3.094028830528259277e-01 -5.705877766013145447e-02
8.122668266296386719e-01 7.921976596117019653e-02 -2.541207969188690186e-01
-8.084475398063659668e-01 9.001841396093368530e-02 -1.454436928033828735e-01
7.399961352348327637e-01 1.757472008466720581e-01 1.391810923814773560e-01
-3.354812562465667725e-01 5.452025681734085083e-02 -3.019578158855438232e-01
-5.143116712570190430e-01 -6.873423606157302856e-02 1.856756210327148438e-01
2.104627713561058044e-02 1.659160666167736053e-02 1.567943990230560303e-01
-5.227332003414630890e-03 -1.114888861775398254e-01 -3.532263338565826416e-01
2.559048533439636230e-01 -9.357883781194686890e-02 -3.500805795192718506e-01
2.258060574531555176e-01 -1.190864369273185730e-01 -2.998764216899871826e-01
-1.906617283821105957e-01 2.463619410991668701e-02 -3.582377433776855469e-01
-4.946595728397369385e-01 -6.177131831645965576e-02 2.935778498649597168e-01
6.856604218482971191e-01 6.761789321899414062e-02 -3.289137482643127441e-01
-7.174490690231323242e-01 -4.489046707749366760e-02 -2.798496484756469727e-01
4.035191535949707031e-01 1.925336271524429321e-01 1.016412675380706787e-01
-2.504563629627227783e-01 -1.661077328026294708e-02 -1.200769003480672836e-02
4.721483588218688965e-01 -1.442187875509262085e-01 9.689722210168838501e-03
-1.997712440788745880e-02 -1.233532056212425232e-01 -5.958492681384086609e-02
2.795712351799011230e-01 7.725815288722515106e-03 1.991289854049682617e-01
2.143328338861465454e-01 -1.129882484674453735e-01 -3.434434533119201660e-02
2.413530796766281128e-01 -9.104597568511962891e-02 5.185568705201148987e-02
-5.278511643409729004e-01 -1.752315312623977661e-01 1.665513962507247925e-01
4.744444489479064941e-01 -2.100767940282821655e-01 2.856335639953613281e-01
6.782100200653076172e-01 -1.405468285083770752e-01 2.807138860225677490e-01
-9.612481594085693359e-01 -8.857811987400054932e-02 4.778003320097923279e-02
7.162445783615112305e-01 -1.677162945270538330e-01 -3.256286308169364929e-02
-7.340874522924423218e-02 2.194990068674087524e-01 -2.809660136699676514e-01
-6.065950170159339905e-02 1.951785385608673096e-02 -3.597864806652069092e-01
1.600330919027328491e-01 -7.961452752351760864e-02 3.152688145637512207e-01
-6.730113029479980469e-01 -1.122347861528396606e-01 1.856756210327148438e-01
4.716860502958297729e-02 3.169867396354675293e-01 6.079441308975219727e-02
5.171402357518672943e-03 -1.652214527130126953e-01 -9.106958657503128052e-02
-3.868093490600585938e-01 -4.921957477927207947e-02 -9.086456894874572754e-02
-2.602351605892181396e-01 -1.646343320608139038e-01 1.867144256830215454e-01
4.441157579421997070e-01 -1.692224591970443726e-01 2.226875275373458862e-01
-8.694266676902770996e-01 -1.651927977800369263e-01 -3.105308627709746361e-03
5.002527832984924316e-01 2.567455470561981201e-01 5.025159195065498352e-02
-6.051126495003700256e-02 -1.609296202659606934e-01 -3.487181961536407471e-01
8.735818266868591309e-01 -4.809429496526718140e-02 -2.957247011363506317e-02
4.725135266780853271e-01 -1.393737792968750000e-01 -3.521364331245422363e-01
-8.794977664947509766e-01 7.212032377719879150e-02 -8.141618221998214722e-02
2.368979752063751221e-01 -1.089154332876205444e-01 -2.470620423555374146e-01
3.999732136726379395e-01 -2.322597205638885498e-01 3.450326919555664062e-01
-6.148061156272888184e-01 -1.194913685321807861e-01 8.156917244195938110e-02
3.530292809009552002e-01 -8.106674067676067352e-03 -1.824858635663986206e-01
-5.683001875877380371e-01 -2.437745481729507446e-01 -3.070080578327178955e-01
2.986188530921936035e-01 3.745377808809280396e-02 -2.337411195039749146e-01
1.617057621479034424e-01 -1.652535349130630493e-01 -2.268024981021881104e-01
-1.576688289642333984e-01 2.826787531375885010e-01 -1.926818490028381348e-01
5.123286247253417969e-01 -1.696612313389778137e-02 -1.843411475419998169e-01
4.187549352645874023e-01 1.416246592998504639e-01 -3.246364891529083252e-01
-4.105305969715118408e-01 -5.465494096279144287e-02 -1.993385255336761475e-01
-1.212618574500083923e-01 1.223481148481369019e-01 3.271819353103637695e-01
5.892512202262878418e-01 -1.176754459738731384e-01 -1.691592782735824585e-01
4.211750328540802002e-01 -2.425049096345901489e-01 2.942060530185699463e-01
4.196386039257049561e-01 8.447339385747909546e-02 1.538823395967483521e-01
-1.658155769109725952e-01 3.438751772046089172e-02 3.593706786632537842e-01
3.261575400829315186e-01 -2.663192152976989746e-02 2.963262200355529785e-01
3.782169520854949951e-01 -1.060563921928405762e-01 -2.859188020229339600e-01
-1.534214336425065994e-02 -1.484868675470352173e-01 1.209764704108238220e-01
5.344983339309692383e-01 6.102839484810829163e-02 2.568289637565612793e-01
-2.924816012382507324e-01 -7.460821419954299927e-02 -6.668786704540252686e-02
8.430288434028625488e-01 9.705068171024322510e-02 1.484026014804840088e-01
2.690554857254028320e-01 -1.129874885082244873e-01 -3.266608342528343201e-02
-7.496552914381027222e-02 1.034869179129600525e-01 -2.995746135711669922e-01
4.833887815475463867e-01 2.479951828718185425e-01 -2.138202786445617676e-01
-7.760620117187500000e-01 -1.497817784547805786e-01 -3.231766819953918457e-01
3.770045191049575806e-02 -9.556575864553451538e-02 -3.171482086181640625e-01
3.907743990421295166e-01 5.579464137554168701e-02 -2.788723409175872803e-01
5.426318049430847168e-01 1.849819719791412354e-01 2.735453844070434570e-01
2.930993437767028809e-01 3.098702430725097656e-01 3.012670017778873444e-02
9.406806528568267822e-02 3.198022842407226562e-01 3.829607367515563965e-02
1.338274031877517700e-01 -1.652535349130630493e-01 1.741352528333663940e-01
-5.986706018447875977e-01 -1.195088624954223633e-01 1.395576298236846924e-01
5.395797491073608398e-01 -1.212972216308116913e-02 3.476855456829071045e-01
5.440906882286071777e-01 -6.018104404211044312e-02 3.514556884765625000e-01
7.414919137954711914e-01 -1.277414411306381226e-01 2.564855217933654785e-01
-4.755618572235107422e-01 -9.355796501040458679e-03 3.056347966194152832e-01
5.161451697349548340e-01 -1.911177784204483032e-01 3.542173504829406738e-01
4.261713027954101562e-01 -4.989224299788475037e-02 3.542173504829406738e-01
2.016855329275131226e-01 -7.823769003152847290e-02 -3.049805760383605957e-01
8.001871109008789062e-01 -1.317097097635269165e-01 -2.772176563739776611e-01
-3.585421442985534668e-01 -3.577320650219917297e-02 2.277944982051849365e-01
4.726611077785491943e-01 -4.414873197674751282e-02 1.856756210327148438e-01
-4.404298067092895508e-01 -1.652746200561523438e-01 2.412866204977035522e-01
8.505975604057312012e-01 -9.099500626325607300e-02 -2.085619270801544189e-01
7.480028867721557617e-01 1.768692433834075928e-01 -7.021156698465347290e-02
-4.675039947032928467e-01 -9.896129369735717773e-02 -1.913989484310150146e-01
6.299500465393066406e-01 -1.208699047565460205e-01 -1.368976831436157227e-01
-3.197440505027770996e-01 -1.642909944057464600e-01 -1.806845068931579590e-01
-1.114000305533409119e-01 8.883012086153030396e-02 -3.491354286670684814e-01
3.067353069782257080e-01 -8.370371162891387939e-02 -3.529916703701019287e-01
-8.459315299987792969e-01 -1.689691990613937378e-01 1.970400214195251465e-01
7.710940241813659668e-01 7.697375863790512085e-02 2.961464822292327881e-01
1.994622200727462769e-01 -1.302864104509353638e-01 2.989005446434020996e-01
-6.534969061613082886e-02 -1.911960355937480927e-02 3.119820952415466309e-01
4.714435040950775146e-01 -8.171635866165161133e-02 3.128042519092559814e-01
-6.278176307678222656e-01 1.271003186702728271e-01 -1.615536808967590332e-01
-1.753067374229431152e-01 -1.090808063745498657e-01 3.256672620773315430e-01
7.422336339950561523e-01 -1.181199178099632263e-01 1.477062851190567017e-01
1.729027181863784790e-01 -1.652535349130630493e-01 -9.887538105249404907e-02
-3.309135437011718750e-01 8.973458409309387207e-02 3.417866826057434082e-01
3.541844785213470459e-01 -5.572354793548583984e-02 -3.107384741306304932e-01
-5.220667719841003418e-01 -2.158990204334259033e-01 -2.596525549888610840e-01
-5.806306004524230957e-01 1.129563003778457642e-01 -2.969189584255218506e-01
2.438195496797561646e-01 4.494591557886451483e-04 3.545815646648406982e-01
-2.597109973430633545e-01 2.674406953155994415e-02 -3.155549764633178711e-01
5.326724052429199219e-01 6.159700080752372742e-02 -2.773472666740417480e-01
-1.767538674175739288e-02 2.777638137340545654e-01 2.456272840499877930e-01
4.942148923873901367e-01 1.853159219026565552e-01 -2.919160425662994385e-01
5.243642628192901611e-02 3.155117630958557129e-01 1.278327703475952148e-01
3.382457196712493896e-01 -1.412540376186370850e-01 2.994274795055389404e-01
2.977976202964782715e-01 2.649169266223907471e-01 -2.423675656318664551e-01
-4.423617124557495117e-01 -1.196453869342803955e-01 3.131051063537597656e-01
8.271052837371826172e-01 1.604858487844467163e-01 -1.410973668098449707e-01
4.942404329776763916e-01 6.892444938421249390e-02 -3.207565844058990479e-01
2.548092901706695557e-01 -1.118452772498130798e-01 3.096679747104644775e-01
-7.538474351167678833e-02 -5.719462037086486816e-02 5.054942145943641663e-02
8.652145862579345703e-01 -3.943437710404396057e-02 5.124867334961891174e-02
4.903292953968048096e-01 7.709736470133066177e-03 3.073784410953521729e-01
8.574424982070922852e-01 5.451268330216407776e-02 -3.227629140019416809e-02
6.770911812782287598e-02 2.419269829988479614e-01 -2.718816995620727539e-01
8.359889984130859375e-01 -1.051288992166519165e-01 2.548128366470336914e-01
-4.689922034740447998e-01 1.205921769142150879e-01 -3.096826374530792236e-01
3.371454179286956787e-01 -1.246666610240936279e-01 -2.627973556518554688e-01
5.070362091064453125e-01 -1.344255506992340088e-01 -4.339433461427688599e-02
-2.353318221867084503e-02 -5.110266432166099548e-02 2.137179486453533173e-02
-6.379190087318420410e-01 1.299764215946197510e-01 1.927668415009975433e-02
7.280744314193725586e-01 -3.166179358959197998e-02 3.212537467479705811e-01
9.101030975580215454e-02 -1.129660159349441528e-01 2.270426601171493530e-02
2.463531792163848877e-01 -9.539903700351715088e-02 -2.045476734638214111e-01
-1.629352942109107971e-02 -5.702924355864524841e-02 -2.632978260517120361e-01
3.376619815826416016e-01 -1.341160833835601807e-01 -3.482678830623626709e-01
-1.806369870901107788e-01 2.839758396148681641e-01 1.572154164314270020e-01
-4.592219591140747070e-01 -1.025592014193534851e-01 3.557499945163726807e-01
4.167615175247192383e-01 1.726525425910949707e-01 7.200071960687637329e-02
-4.020811021327972412e-01 7.075606286525726318e-02 -3.484324812889099121e-01
6.852365732192993164e-01 1.798872798681259155e-01 -7.003787159919738770e-02
3.673132956027984619e-01 -1.261657327413558960e-01 2.548052966594696045e-01
1.061969101428985596e-01 2.951150536537170410e-01 2.028206288814544678e-01
-5.867659449577331543e-01 -1.195217370986938477e-01 3.081365488469600677e-02
-1.634446829557418823e-01 -2.650457620620727539e-02 -3.155228197574615479e-01
5.389118194580078125e-01 -2.059310376644134521e-01 -2.493070960044860840e-01
-4.736412763595581055e-01 -1.111667379736900330e-01 1.856756210327148438e-01
-6.951175332069396973e-01 -1.786717027425765991e-01 -1.332609355449676514e-01
5.515364408493041992e-01 1.799979805946350098e-01 -4.893793538212776184e-02
-6.694980710744857788e-02 7.992933690547943115e-02 3.572750985622406006e-01
3.935076296329498291e-01 1.728587895631790161e-01 -1.451995968818664551e-01
-5.661459565162658691e-01 -1.828986257314682007e-01 -1.870261430740356445e-01
-2.680091261863708496e-01 2.146332859992980957e-01 -2.809953391551971436e-01
-1.101197823882102966e-01 2.089567482471466064e-01 2.872939407825469971e-01
3.098823875188827515e-02 1.671794354915618896e-01 1.777568757534027100e-01
-6.490133702754974365e-02 -1.651581674814224243e-01 -2.302188277244567871e-01
-3.456248342990875244e-02 2.558038197457790375e-02 -7.528544217348098755e-02
-2.862308025360107422e-01 -1.227784529328346252e-01 3.277259171009063721e-01
5.112766027450561523e-01 -9.111789613962173462e-02 -1.843297928571701050e-01
-2.885941267013549805e-01 9.559938311576843262e-02 -1.839040517807006836e-01
-4.825836718082427979e-01 -1.432357132434844971e-01 -3.092209398746490479e-01
-5.805123448371887207e-01 6.097603589296340942e-03 -3.270698189735412598e-01
-4.916896671056747437e-02 -1.651723533868789673e-01 2.387265264987945557e-01
7.487984895706176758e-01 -8.331600576639175415e-02 3.121381998062133789e-01
1.733341217041015625e-01 -1.652535349130630493e-01 -2.898715436458587646e-01
-7.252656221389770508e-01 -1.376639157533645630e-01 2.490606307983398438e-01
-3.375910520553588867e-01 2.086587548255920410e-01 -2.412634789943695068e-01
-3.214167058467864990e-01 -1.073676347732543945e-01 -3.539812862873077393e-01
-7.431712746620178223e-01 -1.671528071165084839e-01 -1.843297928571701050e-01
1.368255466222763062e-01 3.091975748538970947e-01 8.907344192266464233e-02
3.088299632072448730e-01 4.485502466559410095e-02 -2.575926296412944794e-02
4.903434514999389648e-01 -1.423271745443344116e-01 3.518947064876556396e-01
1.487859934568405151e-01 -8.503855019807815552e-02 -3.147564828395843506e-01
-5.341946482658386230e-01 -2.250874340534210205e-01 2.843733429908752441e-01
-6.555852890014648438e-01 2.253871038556098938e-02 -3.546426296234130859e-01
2.480116784572601318e-01 -5.145186930894851685e-02 -2.992756664752960205e-01
3.353081345558166504e-01 2.748309373855590820e-01 2.445231974124908447e-01
7.118945121765136719e-01 -1.289541423320770264e-01 -1.564561575651168823e-01
3.537274897098541260e-01 6.680237501859664917e-02 -3.494315743446350098e-01
-9.537485837936401367e-01 -1.714209094643592834e-02 -7.970584928989410400e-02
-6.856566667556762695e-01 -1.673454195261001587e-01 1.614605039358139038e-01
4.994306266307830811e-01 -1.004869639873504639e-01 -3.522319793701171875e-01
8.580631613731384277e-01 6.797707639634609222e-03 -1.985731422901153564e-01
-1.135277841240167618e-02 -9.545646607875823975e-02 1.588616073131561279e-01
-2.365678101778030396e-01 6.142481043934822083e-02 -1.386034786701202393e-01
5.870326757431030273e-01 2.176248133182525635e-01 -1.723371893167495728e-01
3.337782919406890869e-01 1.247757747769355774e-01 3.368783891201019287e-01
1.991821825504302979e-01 -1.198555156588554382e-01 3.439939320087432861e-01
-2.421166151762008667e-01 2.637304961681365967e-01 -8.284780383110046387e-02
-6.610357165336608887e-01 -2.062319070100784302e-01 -3.526132404804229736e-01
-9.237708449363708496e-01 -5.460697412490844727e-02 -2.266842424869537354e-01
-8.240050077438354492e-01 1.609964296221733093e-02 3.115024268627166748e-01
-4.275015294551849365e-01 -6.067480519413948059e-02 1.963815540075302124e-01
1.532628834247589111e-01 -1.129692271351814270e-01 -9.163467213511466980e-03
-7.780317664146423340e-01 -1.753220707178115845e-01 1.957807689905166626e-01
-1.036412641406059265e-01 -3.660415858030319214e-02 3.609894216060638428e-01
-7.612216472625732422e-01 9.673469513654708862e-02 -1.968540996313095093e-01
-6.154121365398168564e-03 -7.781071960926055908e-02 -4.920170828700065613e-02
-4.502274990081787109e-01 1.295535266399383545e-01 -1.013740003108978271e-01
-6.702127456665039062e-01 5.065927654504776001e-02 -2.574160099029541016e-01
-7.428675293922424316e-01 -4.209534451365470886e-02 -3.547646403312683105e-01
-3.866030871868133545e-01 1.942583471536636353e-01 1.332576274871826172e-01
5.003809556365013123e-02 -1.652535349130630493e-01 2.050959616899490356e-01
5.943894982337951660e-01 -9.342755377292633057e-02 2.995524108409881592e-01
3.246617913246154785e-01 6.978064775466918945e-02 1.112109422683715820e-01
4.272119998931884766e-01 9.534866362810134888e-02 -1.005045399069786072e-01
1.481076478958129883e-01 2.879825234413146973e-01 -2.198657840490341187e-01
-1.898254007101058960e-01 -1.644003540277481079e-01 3.075392544269561768e-01
-6.877740621566772461e-01 -1.116346716880798340e-01 3.507281541824340820e-01
2.259129434823989868e-01 7.291693240404129028e-02 -3.032378852367401123e-01
-2.316538244485855103e-01 -7.766294479370117188e-02 -5.185387283563613892e-02
6.502975225448608398e-01 1.691255271434783936e-01 -2.662695050239562988e-01
-3.014940023422241211e-01 1.430494636297225952e-01 -2.018361836671829224e-01
5.814413428306579590e-01 -5.908036231994628906e-02 2.601629793643951416e-01
-7.011839151382446289e-01 2.251695655286312103e-02 -2.020689249038696289e-01
3.705243170261383057e-01 2.015782147645950317e-01 2.885579168796539307e-01
3.735631704330444336e-01 1.906562410295009613e-02 2.160528860986232758e-02
4.734687507152557373e-03 -3.431387245655059814e-02 2.114479839801788330e-01
-2.559559941291809082e-01 -1.534957438707351685e-01 6.388234347105026245e-02
-7.362955808639526367e-02 2.894196212291717529e-01 -1.919798552989959717e-01
-3.318388164043426514e-01 6.573481950908899307e-03 1.830682009458541870e-01
-4.327797591686248779e-01 1.626684665679931641e-01 -2.183624505996704102e-01
-9.143761992454528809e-01 3.346507251262664795e-02 1.171769723296165466e-01
-6.618578433990478516e-01 -7.473386940546333790e-04 3.044644594192504883e-01
5.245880484580993652e-01 2.471351921558380127e-01 -3.864980489015579224e-02
-6.883435845375061035e-01 -2.993036434054374695e-02 -1.843297928571701050e-01
7.368173003196716309e-01 1.148560494184494019e-01 3.084446787834167480e-01
-7.073230147361755371e-01 7.689429074525833130e-02 -3.030202984809875488e-01
-9.294975399971008301e-01 7.643512450158596039e-03 1.516874283552169800e-01
-2.805207483470439911e-02 -4.484656825661659241e-02 -3.592424690723419189e-01
-2.655067443847656250e-01 5.335053429007530212e-03 3.108215518295764923e-02
2.207202650606632233e-02 1.979316957294940948e-02 -2.144465893507003784e-01
4.494355916976928711e-01 -2.442333996295928955e-01 -2.510138452053070068e-01
-1.192232314497232437e-02 2.077769935131072998e-01 2.902958691120147705e-01
1.415408551692962646e-01 -6.784359365701675415e-02 -1.848842054605484009e-01
6.231902837753295898e-01 -1.377036422491073608e-01 3.441235125064849854e-01
-7.421674728393554688e-01 -1.743711680173873901e-01 1.613526493310928345e-01
3.695034980773925781e-01 -5.871857702732086182e-02 1.889112442731857300e-01
6.240947246551513672e-01 1.537043005228042603e-01 2.996432185173034668e-01
1.617525331676006317e-02 8.851602673530578613e-02 -7.111735641956329346e-02
-4.147898852825164795e-01 -7.322531938552856445e-02 3.577103018760681152e-01
7.991379499435424805e-01 1.917442306876182556e-02 2.861132025718688965e-01
1.568986922502517700e-01 -1.652535349130630493e-01 3.042241632938385010e-01
4.642542004585266113e-01 1.599636077880859375e-01 2.025566548109054565e-01
-3.615601658821105957e-01 2.148717045783996582e-01 -2.099798247218132019e-02
6.132018938660621643e-02 2.034675776958465576e-01 2.944113612174987793e-01
3.924319446086883545e-01 -4.181010276079177856e-02 -2.504045367240905762e-01
7.997661828994750977e-01 9.802042692899703979e-02 2.488751858472824097e-01
-5.760430097579956055e-01 1.206848993897438049e-01 2.875115275382995605e-01
-4.543136358261108398e-01 -3.662610799074172974e-02 3.604577481746673584e-01
-7.091272473335266113e-01 3.555498644709587097e-02 3.049403429031372070e-01
-6.140293478965759277e-01 -1.769239008426666260e-01 -2.697756886482238770e-01
8.214836120605468750e-01 1.354240030050277710e-01 1.954856067895889282e-01
5.883685350418090820e-01 -7.250705361366271973e-02 -2.861818075180053711e-01
4.925662651658058167e-02 -1.130817160010337830e-01 3.529855310916900635e-01
8.405075073242187500e-01 -1.481923609972000122e-01 -1.231223624199628830e-02
8.321260809898376465e-01 -1.215530857443809509e-01 1.749204993247985840e-01
-5.861224979162216187e-02 -9.088732302188873291e-02 2.640400230884552002e-01
4.295914173126220703e-01 -1.295033395290374756e-01 1.856756210327148438e-01
6.366057395935058594e-01 -6.951693445444107056e-02 3.301176428794860840e-01
-5.333564877510070801e-01 -2.245566695928573608e-01 -3.304899334907531738e-01
5.379827618598937988e-01 1.788021177053451538e-01 1.435624212026596069e-01
1.212434843182563782e-01 -6.353804469108581543e-02 1.679147183895111084e-01
-1.851621270179748535e-01 -6.951476633548736572e-02 -4.985535889863967896e-02
2.795362472534179688e-01 -1.272910088300704956e-01 2.327519953250885010e-01
-7.083911895751953125e-01 -2.064570635557174683e-01 3.468245863914489746e-01
-3.723588287830352783e-01 -4.028415307402610779e-02 -2.657122611999511719e-01
-2.281145155429840088e-01 3.288607299327850342e-02 3.586724698543548584e-01
-1.654352545738220215e-01 -5.020454898476600647e-02 3.598636090755462646e-01
-3.648856580257415771e-01 -1.666451245546340942e-01 -3.793776733800768852e-03
1.986410170793533325e-01 6.571909785270690918e-02 3.040075004100799561e-01
-3.606339693069458008e-01 1.050347164273262024e-01 4.166528210043907166e-02
4.890775978565216064e-01 -1.657420843839645386e-01 1.863615363836288452e-01
-3.929626941680908203e-01 1.394117474555969238e-01 -2.871203422546386719e-01
-6.570734977722167969e-01 3.174981847405433655e-02 3.448472917079925537e-01
-8.796207904815673828e-01 6.032923981547355652e-02 1.760690361261367798e-01
-9.444405883550643921e-02 -1.208934634923934937e-01 -6.006459146738052368e-02
-3.268803656101226807e-01 7.516673207283020020e-02 1.630773693323135376e-01
2.382678985595703125e-01 4.042543843388557434e-02 3.077785968780517578e-01
1.686689704656600952e-01 2.983232736587524414e-01 1.788675636053085327e-01
-4.437770843505859375e-01 1.056912913918495178e-01 3.258205056190490723e-01
4.189602136611938477e-01 1.961624808609485626e-02 -3.560144305229187012e-01
-1.998529881238937378e-01 8.922653645277023315e-02 3.043083846569061279e-01
6.900525838136672974e-02 -1.652535349130630493e-01 -2.932471930980682373e-01
-4.590346217155456543e-01 1.295213550329208374e-01 -2.644943259656429291e-02
3.645516932010650635e-01 1.314040720462799072e-01 1.711777597665786743e-01
-5.867271423339843750e-01 5.252590775489807129e-02 -3.583153188228607178e-01
