-4.911229014396667480e-01 -2.516614496707916260e-01 3.517586290836334229e-01
2.773221135139465332e-01 9.168127179145812988e-02 1.302247792482376099e-01
2.896511256694793701e-01 1.046950221061706543e-01 4.720867797732353210e-02
-2.935965955257415771e-01 -8.144346997141838074e-03 -7.055989503860473633e-01
5.031267404556274414e-01 2.476737648248672485e-01 6.452571749687194824e-01
1.502816230058670044e-01 9.168127179145812988e-02 2.198549807071685791e-01
-5.079828500747680664e-01 2.341464627534151077e-03 -5.164691209793090820e-01
-4.795443117618560791e-01 9.134795516729354858e-02 -4.410521686077117920e-01
-2.532814145088195801e-01 1.165841519832611084e-01 -5.081667304039001465e-01
3.221322298049926758e-01 -2.464270740747451782e-01 -6.710475087165832520e-01
4.462267756462097168e-01 7.974562793970108032e-02 4.332305192947387695e-01
-3.583796620368957520e-01 1.193350329995155334e-01 5.967336893081665039e-01
-2.142220884561538696e-01 2.341464627534151077e-03 -3.240331709384918213e-01
4.727570116519927979e-01 -1.665021479129791260e-01 -5.915538668632507324e-01
-2.383987605571746826e-01 2.341464627534151077e-03 1.643679440021514893e-01
-1.421712785959243774e-01 -2.815448641777038574e-01 -3.977940976619720459e-02
-3.750892728567123413e-02 9.168127179145812988e-02 -2.438951432704925537e-01
-1.526350826025009155e-01 -1.096017099916934967e-02 -6.768172383308410645e-01
6.131641864776611328e-01 2.341464627534151077e-03 -3.968894779682159424e-01
4.431410133838653564e-02 1.143881157040596008e-01 1.285547018051147461e-01
-5.052190423011779785e-01 9.086244553327560425e-02 -3.653289973735809326e-01
1.113943606615066528e-01 -5.507881939411163330e-02 -1.966314613819122314e-01
-3.571196272969245911e-02 5.015321075916290283e-02 6.155098676681518555e-01
4.727570116519927979e-01 -1.813037842512130737e-01 -2.074354737997055054e-01
-2.950315475463867188e-01 -5.507881939411163330e-02 -6.157665848731994629e-01
6.109166741371154785e-01 2.341464627534151077e-03 -4.351643845438957214e-02
-2.256224751472473145e-01 9.168127179145812988e-02 -3.719122707843780518e-01
-3.530592024326324463e-01 -2.815448641777038574e-01 -5.684549212455749512e-01
-2.984877824783325195e-01 8.665431290864944458e-02 5.993824601173400879e-01
-6.270439177751541138e-02 9.168127179145812988e-02 1.536760181188583374e-01
3.183707892894744873e-01 2.551906406879425049e-01 6.106837987899780273e-01
-5.352455377578735352e-01 -5.507881939411163330e-02 2.396748661994934082e-01
-4.911229014396667480e-01 -9.342972189188003540e-02 -3.962850868701934814e-01
5.287043452262878418e-01 -5.507881939411163330e-02 -7.540143728256225586e-01
4.387639462947845459e-01 9.165336191654205322e-02 -3.958868384361267090e-01
-5.787704885005950928e-02 9.148315340280532837e-02 -6.066517233848571777e-01
2.446708977222442627e-01 -1.617110799998044968e-03 3.452143967151641846e-01
-2.811925709247589111e-01 -5.507881939411163330e-02 1.800130903720855713e-01
-3.763443529605865479e-01 -5.507881939411163330e-02 -2.417742833495140076e-02
-1.544572860002517700e-01 1.437636017799377441e-01 5.998867154121398926e-01
4.135725796222686768e-01 -2.815448641777038574e-01 4.709079861640930176e-01
-2.798951754812151194e-05 -1.378400065004825592e-02 -6.094715595245361328e-01
-3.046667873859405518e-01 3.556118607521057129e-01 6.936786770820617676e-01
-2.150696218013763428e-01 9.168127179145812988e-02 -2.676865756511688232e-01
3.036701977252960205e-01 -2.815448641777038574e-01 -2.411003410816192627e-01
2.535606920719146729e-01 -5.507881939411163330e-02 5.720934364944696426e-03
-3.934524655342102051e-01 -1.155655924230813980e-02 2.440647035837173462e-01
5.222361087799072266e-01 1.018017455935478210e-01 -1.965784132480621338e-01
3.579144477844238281e-01 9.168127179145812988e-02 -1.785466969013214111e-01
-1.619651317596435547e-01 3.711504116654396057e-02 6.452571749687194824e-01
4.727570116519927979e-01 -6.228649988770484924e-02 -4.845304414629936218e-02
2.630608677864074707e-01 -1.161808148026466370e-03 4.978024363517761230e-01
5.673694014549255371e-01 -5.507881939411163330e-02 -4.628723263740539551e-01
4.893397986888885498e-01 -1.352283731102943420e-02 -5.883267521858215332e-01
-2.866721153259277344e-01 1.181785762310028076e-01 1.958914101123809814e-01
3.255083858966827393e-01 -1.356931519694626331e-03 -3.342107832431793213e-01
5.442124009132385254e-01 7.850202172994613647e-02 -6.499447822570800781e-01
3.972710072994232178e-01 2.341464627534151077e-03 4.378185272216796875e-01
8.499652147293090820e-02 3.633588850498199463e-01 6.694239377975463867e-01
-4.920614957809448242e-01 -1.091513969004154205e-02 4.035902917385101318e-01
7.561338134109973907e-03 2.341464627534151077e-03 -4.041801989078521729e-01
-3.893727958202362061e-01 9.168127179145812988e-02 4.225926101207733154e-01
-2.287805229425430298e-01 4.865363612771034241e-02 -7.233354449272155762e-01
-9.408606588840484619e-02 2.341464627534151077e-03 -2.429175227880477905e-01
-5.639982223510742188e-01 7.202651351690292358e-02 -2.014215737581253052e-01
4.318364560604095459e-01 1.366188824176788330e-01 6.106837987899780273e-01
1.934376209974288940e-01 9.168127179145812988e-02 2.863321602344512939e-01
2.999948263168334961e-01 -1.357930479571223259e-03 -1.731542199850082397e-01
3.780415058135986328e-01 -1.349938334897160530e-03 -2.882779538631439209e-01
5.531522035598754883e-01 3.607081472873687744e-01 6.822912693023681641e-01
2.373411357402801514e-01 -2.815448641777038574e-01 -1.415456831455230713e-01
-2.787359654903411865e-01 -9.112970903515815735e-03 3.784489631652832031e-01
4.097581207752227783e-01 -5.507881939411163330e-02 -3.232486844062805176e-01
3.194284737110137939e-01 -1.356931519694626331e-03 2.786561548709869385e-01
4.183156490325927734e-01 -2.815448641777038574e-01 1.890610009431838989e-01
1.665021330118179321e-01 3.364854156970977783e-01 6.797996759414672852e-01
1.570730358362197876e-01 -1.378400065004825592e-02 -4.947140440344810486e-02
-1.445838510990142822e-01 -2.815448641777038574e-01 -4.172236621379852295e-01
6.291828304529190063e-02 -7.814131677150726318e-03 3.909560665488243103e-02
2.236222475767135620e-01 9.091107547283172607e-02 5.620061159133911133e-01
4.243495762348175049e-01 1.046759113669395447e-01 -7.683686912059783936e-02
9.687853604555130005e-02 9.168127179145812988e-02 -3.963361084461212158e-01
-1.190712898969650269e-01 -5.507881939411163330e-02 3.509771227836608887e-01
-4.141248762607574463e-01 -1.194881927222013474e-02 -9.428469836711883545e-02
-6.706862151622772217e-02 1.379057765007019043e-01 6.013846993446350098e-01
-4.839352071285247803e-01 -1.140045840293169022e-02 -6.464204788208007812e-01
-1.438213437795639038e-01 -2.815448641777038574e-01 -1.899421066045761108e-01
1.650511920452117920e-01 -3.133096266537904739e-03 3.112103044986724854e-01
-2.100603878498077393e-01 -2.815448641777038574e-01 -1.241503953933715820e-01
2.959822416305541992e-01 9.161713719367980957e-02 -5.784313678741455078e-01
-5.466199517250061035e-01 3.496549725532531738e-01 6.261938214302062988e-01
4.727570116519927979e-01 -2.214768528938293457e-01 -6.547369360923767090e-01
4.935424923896789551e-01 1.111529171466827393e-01 5.896941423416137695e-01
-3.461817502975463867e-01 9.168127179145812988e-02 -1.383706331253051758e-01
-1.261959224939346313e-01 -5.507881939411163330e-02 -5.362359881401062012e-01
1.147468313574790955e-01 -2.815448641777038574e-01 2.339361310005187988e-01
-1.086585298180580139e-01 2.078944258391857147e-02 6.452571749687194824e-01
4.727570116519927979e-01 -2.633861005306243896e-01 -7.866115123033523560e-02
3.414067327976226807e-01 1.046912223100662231e-01 2.755201458930969238e-01
-4.874404370784759521e-01 -1.148952078074216843e-02 -2.994922399520874023e-01
-1.551867425441741943e-01 3.261167109012603760e-01 6.106837987899780273e-01
-6.294053792953491211e-02 1.427110582590103149e-01 4.310671389102935791e-01
-2.043516784906387329e-01 3.063708841800689697e-01 6.452571749687194824e-01
-4.911229014396667480e-01 -2.419621795415878296e-01 9.856822341680526733e-02
5.274015069007873535e-01 1.003574132919311523e-01 -1.134643554687500000e-01
1.132558658719062805e-01 1.634285748004913330e-01 5.804871916770935059e-01
-3.555388152599334717e-01 9.168127179145812988e-02 -2.967768907546997070e-02
4.006331861019134521e-01 2.773740589618682861e-01 6.106837987899780273e-01
3.646598160266876221e-01 -1.618109759874641895e-03 -6.023418903350830078e-01
-4.790620505809783936e-01 2.341464627534151077e-03 5.054374337196350098e-01
-3.926839530467987061e-01 2.341464627534151077e-03 4.046750068664550781e-01
4.307647645473480225e-01 3.575116395950317383e-02 4.336158037185668945e-01
-7.649504393339157104e-02 9.168127179145812988e-02 -2.899550497531890869e-01
-5.473625380545854568e-03 -1.073301862925291061e-02 1.402893215417861938e-01
8.777532726526260376e-02 1.119572445750236511e-01 -1.293397545814514160e-01
-4.351255297660827637e-01 6.653714925050735474e-02 -7.707842588424682617e-01
-5.465899109840393066e-01 3.770342469215393066e-02 4.048030972480773926e-01
3.974551260471343994e-01 9.168127179145812988e-02 -4.780641794204711914e-01
-2.979406388476490974e-03 -1.260499060153961182e-01 6.247528791427612305e-01
1.707829236984252930e-01 -5.507881939411163330e-02 2.657978236675262451e-01
5.137816071510314941e-01 -5.507881939411163330e-02 5.808693766593933105e-01
-4.269912242889404297e-01 1.181785762310028076e-01 -1.672163754701614380e-01
2.883132398128509521e-01 9.182287007570266724e-02 6.397336125373840332e-01
1.474217474460601807e-01 1.075732931494712830e-01 -7.237957715988159180e-01
5.152005553245544434e-01 5.046217236667871475e-03 5.363454818725585938e-01
-3.177360072731971741e-02 -2.815448641777038574e-01 -1.233068406581878662e-01
5.651450157165527344e-01 8.940769731998443604e-02 4.085164964199066162e-01
-5.615966320037841797e-01 8.210776001214981079e-02 -3.743838667869567871e-01
3.379724919795989990e-01 -1.300249435007572174e-02 -7.186943888664245605e-01
-4.122176170349121094e-01 3.331402540206909180e-01 7.152726650238037109e-01
-1.247249618172645569e-01 -5.507881939411163330e-02 -2.066439539194107056e-01
3.367837369441986084e-01 -5.507881939411163330e-02 -5.428532958030700684e-01
4.285012781620025635e-01 -1.846260624006390572e-03 -6.904220581054687500e-01
-5.588718652725219727e-01 2.153349341824650764e-03 3.631880581378936768e-01
3.705148771405220032e-02 8.997747302055358887e-02 -6.962057948112487793e-01
5.496789216995239258e-01 5.885506048798561096e-02 -4.666367769241333008e-01
6.253240108489990234e-01 2.341464627534151077e-03 2.261080294847488403e-01
4.579103589057922363e-01 -5.507881939411163330e-02 -6.642470955848693848e-01
4.930103942751884460e-02 9.881700575351715088e-02 -7.633214592933654785e-01
-5.321685075759887695e-01 -5.507881939411163330e-02 -4.349962621927261353e-02
2.772910892963409424e-01 -5.507881939411163330e-02 -5.312967896461486816e-01
-4.587788581848144531e-01 2.330106496810913086e-01 6.106837987899780273e-01
-1.883352547883987427e-01 -1.378400065004825592e-02 1.316407024860382080e-01
5.401137471199035645e-01 2.302889525890350342e-02 -7.133870124816894531e-01
3.389040827751159668e-01 -5.507881939411163330e-02 -7.745928317308425903e-02
-1.651802361011505127e-01 9.159412235021591187e-02 -5.832865238189697266e-01
-4.467570483684539795e-01 -2.815448641777038574e-01 -2.364803403615951538e-01
-5.598444938659667969e-01 2.016491740942001343e-01 6.452571749687194824e-01
3.557009994983673096e-01 -1.378400065004825592e-02 -2.622245624661445618e-02
-6.468567252159118652e-02 -2.815448641777038574e-01 2.798569500446319580e-01
4.727570116519927979e-01 -7.547706365585327148e-02 2.643708884716033936e-01
-1.380876451730728149e-01 -2.815448641777038574e-01 -4.811331927776336670e-01
9.620830416679382324e-02 1.114855334162712097e-01 -2.796923816204071045e-01
9.180393815040588379e-02 -5.507881939411163330e-02 3.388232290744781494e-01
4.745801985263824463e-01 -2.172465203329920769e-03 6.452571749687194824e-01
-4.016037285327911377e-01 -5.507881939411163330e-02 4.997987747192382812e-01
-7.276131212711334229e-02 9.168127179145812988e-02 -3.487692475318908691e-01
-5.545801520347595215e-01 -3.970638383179903030e-03 2.802081704139709473e-01
4.366525709629058838e-01 -5.507881939411163330e-02 -4.005558490753173828e-01
3.167267143726348877e-01 -5.507881939411163330e-02 1.500636488199234009e-01
1.685144454240798950e-01 9.168127179145812988e-02 -3.824562299996614456e-03
-1.159182488918304443e-01 9.360242635011672974e-02 -7.662973403930664062e-01
6.809734553098678589e-02 -5.507881939411163330e-02 -7.664965093135833740e-02
5.779905989766120911e-02 -7.991243153810501099e-03 2.979736924171447754e-01
1.486415416002273560e-01 1.085522323846817017e-01 -1.024829298257827759e-01
3.650473430752754211e-02 9.082712233066558838e-02 5.642836093902587891e-01
4.199096858501434326e-01 -2.815448641777038574e-01 1.297074090689420700e-02
2.920436561107635498e-01 -2.815448641777038574e-01 -1.243084967136383057e-01
3.472337499260902405e-02 -5.507881939411163330e-02 -5.714178085327148438e-01
-4.424042403697967529e-01 -1.378400065004825592e-02 2.639646232128143311e-01
1.051511019468307495e-01 -5.878868512809276581e-03 -8.640298247337341309e-02
4.126149713993072510e-01 -5.507881939411163330e-02 4.958572387695312500e-01
-3.856934010982513428e-01 -1.194881927222013474e-02 7.623822242021560669e-02
-2.892827987670898438e-01 3.030637204647064209e-01 6.106837987899780273e-01
4.843115210533142090e-01 -1.356587000191211700e-02 -3.344719409942626953e-01
4.727570116519927979e-01 -1.402891576290130615e-01 2.403182685375213623e-01
-5.680425837635993958e-02 -1.378400065004825592e-02 2.302477210760116577e-01
2.573012560606002808e-02 1.154275983572006226e-01 -3.109877109527587891e-01
6.074674725532531738e-01 -5.507881939411163330e-02 -1.193631887435913086e-01
-7.658029347658157349e-02 1.179434284567832947e-01 3.090018928050994873e-01
5.484931468963623047e-01 2.357625775039196014e-02 -2.425983101129531860e-01
-1.302225440740585327e-01 1.642089784145355225e-01 4.519066512584686279e-01
-3.766205310821533203e-01 1.181785762310028076e-01 -2.796703577041625977e-01
-4.911229014396667480e-01 -2.031960040330886841e-01 -3.657432794570922852e-01
1.253554224967956543e-01 -4.952264018356800079e-03 1.922810636460781097e-02
5.907348915934562683e-02 -7.158695720136165619e-03 5.532965064048767090e-01
-4.466209709644317627e-01 9.074757248163223267e-02 4.969789385795593262e-01
4.727570116519927979e-01 -2.517715692520141602e-01 7.249399274587631226e-02
2.618400454521179199e-01 2.341464627534151077e-03 -1.352325826883316040e-01
-5.313960313796997070e-01 -1.215594541281461716e-02 -4.495606720447540283e-01
6.813716888427734375e-02 1.130556538701057434e-01 -2.892016805708408356e-02
-1.963464617729187012e-01 -2.815448641777038574e-01 -3.263446688652038574e-02
4.201661050319671631e-02 -1.284839026629924774e-02 -7.216494083404541016e-01
-3.197145760059356689e-01 9.012096375226974487e-02 5.250130891799926758e-01
-2.545532584190368652e-01 -1.194881927222013474e-02 -5.083889141678810120e-02
-5.463257431983947754e-01 4.750469326972961426e-02 5.465151071548461914e-01
7.314081490039825439e-02 2.341464627534151077e-03 -4.856511056423187256e-01
4.276437461376190186e-01 -5.507881939411163330e-02 -2.647376656532287598e-01
-1.518325507640838623e-01 9.168127179145812988e-02 2.746415734291076660e-01
-2.324068695306777954e-01 3.249399662017822266e-01 6.106837987899780273e-01
2.565706372261047363e-01 -1.378400065004825592e-02 -4.967042803764343262e-01
-5.457293391227722168e-01 1.052831113338470459e-01 3.181738257408142090e-01
2.642365992069244385e-01 -2.815448641777038574e-01 -7.307242602109909058e-02
-4.911229014396667480e-01 -2.360443323850631714e-01 4.318856596946716309e-01
-5.466159582138061523e-01 5.303518474102020264e-02 -3.073163330554962158e-01
3.807542622089385986e-01 1.046857237815856934e-01 1.198540553450584412e-01
4.332573711872100830e-01 2.341464627534151077e-03 5.753498077392578125e-01
1.730463951826095581e-01 -2.815448641777038574e-01 1.714445501565933228e-01
6.316021680831909180e-01 -5.507881939411163330e-02 4.273557066917419434e-01
4.134455025196075439e-01 1.788995116949081421e-01 5.157601237297058105e-01
2.665981352329254150e-01 1.049051657319068909e-01 -4.590559005737304688e-02
3.159251511096954346e-01 -5.507881939411163330e-02 4.613617956638336182e-01
-8.526108227670192719e-03 -1.078004762530326843e-02 -3.416236042976379395e-01
-9.569910913705825806e-02 9.168127179145812988e-02 -2.056393176317214966e-01
6.082132086157798767e-02 -5.507881939411163330e-02 1.055507510900497437e-01
2.671545147895812988e-01 9.168127179145812988e-02 -4.617335796356201172e-01
-2.478699237108230591e-01 9.307908266782760620e-02 4.308710098266601562e-01
2.665801346302032471e-01 -5.507881939411163330e-02 3.835632801055908203e-01
-4.943830072879791260e-01 -5.507881939411163330e-02 -2.683840692043304443e-01
-4.833057820796966553e-01 -1.170750632882118225e-01 6.106837987899780273e-01
-3.846547305583953857e-01 7.473167032003402710e-02 -7.196930646896362305e-01
1.079673971980810165e-02 -5.507881939411163330e-02 -4.342797696590423584e-01
-3.551023080945014954e-02 -5.507881939411163330e-02 4.319286942481994629e-01
-2.032166719436645508e-02 1.778764426708221436e-01 5.004041194915771484e-01
1.128887236118316650e-01 1.105524301528930664e-01 1.364518105983734131e-01
-2.888514995574951172e-01 -7.550955284386873245e-03 4.321108162403106689e-01
-3.551355600357055664e-01 -2.620206400752067566e-02 6.452571749687194824e-01
5.313469767570495605e-01 1.676038801670074463e-01 4.874027371406555176e-01
4.473495185375213623e-01 -5.507881939411163330e-02 4.015409648418426514e-01
1.394531410187482834e-02 1.160867214202880859e-01 -5.982402712106704712e-02
5.194563269615173340e-01 1.023670062422752380e-01 2.084655500948429108e-02
-4.911229014396667480e-01 -2.096141725778579712e-01 2.958743572235107422e-01
-8.084922097623348236e-03 -5.507881939411163330e-02 3.331585526466369629e-01
-6.081959605216979980e-01 -3.824288398027420044e-02 -2.534523606300354004e-01
-2.011785954236984253e-01 4.364508390426635742e-02 -7.729877233505249023e-01
3.576062619686126709e-01 -5.507881939411163330e-02 2.698013745248317719e-02
-2.725989520549774170e-01 -5.507881939411163330e-02 -6.691222190856933594e-01
5.950773954391479492e-01 -2.710464783012866974e-02 6.452571749687194824e-01
-2.307325601577758789e-02 -1.378400065004825592e-02 -1.968505978584289551e-01
1.435902565717697144e-01 9.168127179145812988e-02 -4.990408122539520264e-01
-1.077429279685020447e-01 1.181785762310028076e-01 2.509241700172424316e-01
-1.552327573299407959e-01 -1.378400065004825592e-02 -1.626844257116317749e-01
-3.007992804050445557e-01 1.181785762310028076e-01 -2.379132658243179321e-01
5.280548930168151855e-01 -5.507881939411163330e-02 1.048833280801773071e-01
4.727570116519927979e-01 -2.456845790147781372e-01 3.349887430667877197e-01
1.004783734679222107e-01 2.341464627534151077e-03 -1.416787803173065186e-01
2.574511766433715820e-01 9.168127179145812988e-02 3.699914515018463135e-01
2.318926006555557251e-01 2.346352040767669678e-01 6.143010854721069336e-01
-2.392823249101638794e-01 2.341464627534151077e-03 4.098863527178764343e-02
-2.908268272876739502e-01 -1.194881927222013474e-02 -4.219917654991149902e-01
-5.492506623268127441e-01 1.006018668413162231e-01 -5.773956775665283203e-01
-4.004579782485961914e-01 -4.858661070466041565e-02 -7.741695046424865723e-01
-4.876215755939483643e-01 9.129182249307632446e-02 2.825496792793273926e-01
-1.485384255647659302e-01 -1.378400065004825592e-02 2.246841229498386383e-02
-5.195180699229240417e-02 9.168127179145812988e-02 -5.412312150001525879e-01
7.223073393106460571e-02 1.300637573003768921e-01 6.106837987899780273e-01
-5.654651522636413574e-01 4.940042272210121155e-02 -5.218926072120666504e-01
6.753218173980712891e-02 1.130932793021202087e-01 3.641917109489440918e-01
3.698431849479675293e-01 -2.539989948272705078e-01 4.766377210617065430e-01
-1.471385061740875244e-01 -2.815448641777038574e-01 -3.083389699459075928e-01
4.120205640792846680e-01 -5.507881939411163330e-02 9.434048086404800415e-02
-4.911229014396667480e-01 -2.003941684961318970e-01 -4.987305998802185059e-01
-3.185758292675018311e-01 9.168127179145812988e-02 5.933354794979095459e-02
2.200409024953842163e-01 -4.921401292085647583e-02 -7.741695046424865723e-01
-8.394447714090347290e-02 9.168127179145812988e-02 -4.495696723461151123e-01
6.502785533666610718e-02 1.125797480344772339e-01 -6.541475057601928711e-01
1.203503757715225220e-01 1.101349592208862305e-01 1.831910805776715279e-03
-1.495130509138107300e-01 -5.507881939411163330e-02 1.980638355016708374e-01
-5.006160736083984375e-01 1.261044293642044067e-01 4.856435954570770264e-01
-4.464398622512817383e-01 2.341464627534151077e-03 -5.441260933876037598e-01
-5.563582777976989746e-01 -5.507881939411163330e-02 1.154511515051126480e-02
7.614076882600784302e-02 -2.610535621643066406e-01 4.766377210617065430e-01
1.362094730138778687e-01 -1.378400065004825592e-02 2.541592717170715332e-01
4.734884798526763916e-01 1.043171808123588562e-01 2.775404453277587891e-01
2.084473818540573120e-01 1.171362102031707764e-01 4.362564980983734131e-01
7.233029603958129883e-02 -2.815448641777038574e-01 -4.500950574874877930e-01
1.069780886173248291e-01 -5.507881939411163330e-02 -1.938600651919841766e-02
-2.763644158840179443e-01 -1.155556086450815201e-02 2.421474754810333252e-01
5.241383314132690430e-01 9.005442261695861816e-02 2.580237686634063721e-01
3.640233874320983887e-01 -7.707310467958450317e-02 6.106837987899780273e-01
1.120020076632499695e-02 -1.190223321318626404e-01 4.766377210617065430e-01
4.727570116519927979e-01 -2.161173969507217407e-01 -5.141756534576416016e-01
4.727570116519927979e-01 -1.668503880500793457e-01 -3.754345700144767761e-02
-3.265460133552551270e-01 -2.815448641777038574e-01 -9.200802445411682129e-02
-5.527946725487709045e-02 2.341464627534151077e-03 -1.516502499580383301e-01
-3.778162896633148193e-01 -2.815448641777038574e-01 -3.717731833457946777e-01
6.341808438301086426e-01 3.633498847484588623e-01 6.695119738578796387e-01
3.854233026504516602e-01 1.046846136450767517e-01 3.977714851498603821e-02
1.858146935701370239e-01 -1.155220717191696167e-01 4.766377210617065430e-01
-3.486053049564361572e-01 -1.375798135995864868e-02 -6.311386227607727051e-01
-5.380473136901855469e-01 8.211646974086761475e-02 4.627827107906341553e-01
2.353508472442626953e-01 1.052140668034553528e-01 -6.679725050926208496e-01
7.437962293624877930e-02 -5.507881939411163330e-02 -2.983625233173370361e-01
3.531703650951385498e-01 1.046903282403945923e-01 -6.174927577376365662e-02
-2.071955054998397827e-01 3.521896600723266602e-01 6.987509131431579590e-01
-1.838753670454025269e-01 -5.507881939411163330e-02 3.156071603298187256e-01
-1.390332430601119995e-01 -1.194881927222013474e-02 -4.126547276973724365e-01
-3.656803965568542480e-01 1.181785762310028076e-01 7.257784903049468994e-02
-5.704524517059326172e-01 2.341464627534151077e-03 5.474066734313964844e-01
-5.286842584609985352e-01 -1.232706289738416672e-02 1.264233142137527466e-01
-1.167077571153640747e-01 -2.815448641777038574e-01 1.303348392248153687e-01
3.770508766174316406e-01 1.185791417956352234e-01 5.961263179779052734e-01
-5.248167514801025391e-01 1.162243112921714783e-01 -2.553135752677917480e-01
4.811324477195739746e-01 -5.507881939411163330e-02 -2.106275558471679688e-01
3.733587265014648438e-02 9.168127179145812988e-02 -4.738874733448028564e-01
2.819941341876983643e-01 -5.507881939411163330e-02 -6.577298641204833984e-01
-1.968757957220077515e-01 -2.254094034433364868e-01 4.766377210617065430e-01
5.775099992752075195e-01 -5.507881939411163330e-02 -7.321021556854248047e-01
-1.425155103206634521e-01 1.088206022977828979e-01 -7.237266898155212402e-01
4.727570116519927979e-01 -2.433010488748550415e-01 -4.599063992500305176e-01
1.965266466140747070e-01 1.002204194664955139e-01 -7.557175159454345703e-01
-3.357579708099365234e-01 9.168127179145812988e-02 -5.441660881042480469e-01
3.584197759628295898e-01 9.168127179145812988e-02 -4.207149744033813477e-01
-2.562871202826499939e-02 1.555904746055603027e-02 -7.684347033500671387e-01
-4.621260464191436768e-01 3.619929850101470947e-01 6.779484748840332031e-01
5.490865707397460938e-01 2.944406121969223022e-02 -1.474705338478088379e-01
4.121326506137847900e-01 -5.507881939411163330e-02 -6.976737380027770996e-01
4.963353276252746582e-01 9.124929457902908325e-02 4.588541984558105469e-01
-3.324198126792907715e-01 -2.269564419984817505e-01 -6.710475087165832520e-01
-3.051841259002685547e-01 -2.815448641777038574e-01 -6.517209410667419434e-01
1.369519531726837158e-01 -1.262125372886657715e-02 3.900635242462158203e-01
1.223844960331916809e-01 -1.348381582647562027e-02 3.359103500843048096e-01
-3.223522603511810303e-01 9.132424741983413696e-02 -6.401193737983703613e-01
-1.882321834564208984e-01 -2.815448641777038574e-01 -3.733812272548675537e-01
3.267872333526611328e-01 -2.815448641777038574e-01 4.350087046623229980e-01
1.599728912115097046e-01 -1.378400065004825592e-02 -4.554474949836730957e-01
-3.883301317691802979e-01 1.181785762310028076e-01 -3.439070880413055420e-01
-3.958029747009277344e-01 3.434479534626007080e-01 6.581125259399414062e-01
1.800459325313568115e-01 -2.815448641777038574e-01 4.536407887935638428e-01
2.844157218933105469e-01 -1.378400065004825592e-02 -3.677996098995208740e-01
1.538097579032182693e-02 1.679433882236480713e-01 5.715534090995788574e-01
5.788208842277526855e-01 4.551209881901741028e-02 5.285634472966194153e-02
-4.604519307613372803e-01 -2.815448641777038574e-01 1.962846703827381134e-02
4.727570116519927979e-01 -1.050322502851486206e-01 8.146712183952331543e-02
-2.971208989620208740e-01 -5.507881939411163330e-02 -2.149183303117752075e-01
1.106578782200813293e-01 2.341464627534151077e-03 -7.651085853576660156e-01
1.104795709252357483e-01 1.786253303289413452e-01 5.114373564720153809e-01
-2.355699390172958374e-01 1.181785762310028076e-01 1.666674464941024780e-01
-2.800858616828918457e-01 -1.458907723426818848e-01 4.766377210617065430e-01
3.895449638366699219e-01 9.137207269668579102e-02 -6.300598978996276855e-01
-4.070302546024322510e-01 2.808463275432586670e-01 6.452571749687194824e-01
-1.120398868806660175e-03 -1.378400065004825592e-02 -1.038614213466644287e-01
-3.532353341579437256e-01 -1.166962832212448120e-02 -7.442670464515686035e-01
1.007406972348690033e-02 2.341464627534151077e-03 2.403632998466491699e-01
-5.626413226127624512e-01 7.964465767145156860e-02 8.326628804206848145e-02
-6.842119991779327393e-02 -7.340816780924797058e-03 5.572670698165893555e-01
-6.081959605216979980e-01 -2.116880565881729126e-02 -5.941245555877685547e-01
-2.944191396236419678e-01 2.341464627534151077e-03 -2.888123095035552979e-01
-1.448690444231033325e-01 1.128443256020545959e-01 -6.323183178901672363e-01
3.983957171440124512e-01 -8.887075632810592651e-02 6.452571749687194824e-01
-5.121665596961975098e-01 8.422403037548065186e-02 -7.108933329582214355e-01
1.291438937187194824e-01 -2.690837681293487549e-01 4.766377210617065430e-01
1.445809006690979004e-01 -5.507881939411163330e-02 -3.998874425888061523e-01
-1.447709947824478149e-01 2.334154993295669556e-01 6.106837987899780273e-01
-1.358001530170440674e-01 -2.577279694378376007e-02 6.452571749687194824e-01
-4.000317156314849854e-01 1.181785762310028076e-01 -3.575740009546279907e-02
-4.396444261074066162e-01 -2.815448641777038574e-01 1.698044687509536743e-01
1.511541754007339478e-01 -2.815448641777038574e-01 -2.283490747213363647e-01
4.641444385051727295e-01 -2.815448641777038574e-01 3.741011321544647217e-01
-3.666880428791046143e-01 -2.815448641777038574e-01 2.600380778312683105e-01
3.882981538772583008e-01 9.168127179145812988e-02 2.641957700252532959e-01
-1.545013040304183960e-01 9.154588729143142700e-02 4.845678806304931641e-01
5.787817835807800293e-01 4.351719841361045837e-02 -9.988914430141448975e-02
3.877007663249969482e-01 9.415298700332641602e-02 5.527891516685485840e-01
7.146733254194259644e-02 2.341464627534151077e-03 -6.755334138870239258e-01
-4.871743321418762207e-01 1.174680218100547791e-01 -4.987496435642242432e-01
-5.940447449684143066e-01 2.341464627534151077e-03 -1.187343746423721313e-01
-4.994532763957977295e-01 1.176318302750587463e-01 1.574664376676082611e-02
3.586309254169464111e-01 -1.378400065004825592e-02 -9.713965654373168945e-02
2.474977523088455200e-01 1.737357527017593384e-01 6.128171682357788086e-01
-3.979633748531341553e-01 1.776147633790969849e-02 6.139809489250183105e-01
5.299621224403381348e-01 1.046437919139862061e-01 6.106837987899780273e-01
1.020655035972595215e-01 -1.317496001720428467e-01 -6.710475087165832520e-01
3.520346283912658691e-01 9.168127179145812988e-02 3.841266334056854248e-01
-1.236502602696418762e-01 -5.837848410010337830e-03 5.441985726356506348e-01
4.529601633548736572e-01 1.042397320270538330e-01 -6.848434805870056152e-01
-3.475524112582206726e-02 8.884033560752868652e-02 5.940939784049987793e-01
3.891206979751586914e-01 6.618162244558334351e-02 4.336608350276947021e-01
3.191032409667968750e-01 2.341464627534151077e-03 8.570887893438339233e-02
-4.631426930427551270e-01 -5.507881939411163330e-02 -4.862585365772247314e-01
2.207553684711456299e-01 9.168127179145812988e-02 1.490229964256286621e-01
-1.765326112508773804e-01 9.168127179145812988e-02 1.983930170536041260e-02
4.727570116519927979e-01 -9.889727085828781128e-02 2.130385488271713257e-01
-5.006210803985595703e-01 1.430935114622116089e-01 6.452571749687194824e-01
2.198167592287063599e-01 -5.507881939411163330e-02 1.999610662460327148e-01
-3.554677963256835938e-01 2.152481079101562500e-01 6.376062631607055664e-01
1.460068225860595703e-01 8.680585771799087524e-03 6.089876294136047363e-01
-2.086334377527236938e-01 9.144341945648193359e-02 5.061509013175964355e-01
-5.165404081344604492e-01 -4.110173881053924561e-02 -7.741695046424865723e-01
3.584878146648406982e-01 -1.378400065004825592e-02 -4.960598647594451904e-01
-1.736047118902206421e-01 -2.815448641777038574e-01 -5.567292571067810059e-01
2.484163194894790649e-01 -5.507881939411163330e-02 5.552177131175994873e-02
-3.016408383846282959e-01 9.168127179145812988e-02 -3.116831481456756592e-01
9.405449777841567993e-02 -2.815448641777038574e-01 -2.169376462697982788e-01
5.546941757202148438e-01 -3.716918453574180603e-02 6.106837987899780273e-01
4.906546175479888916e-01 1.041319593787193298e-01 -2.944649755954742432e-01
1.184044685214757919e-02 -9.620296768844127655e-03 4.438284039497375488e-01
-4.311299026012420654e-01 9.168127179145812988e-02 -5.407298803329467773e-01
1.971380412578582764e-01 -2.988545969128608704e-02 6.106837987899780273e-01
1.002473235130310059e-01 9.168127179145812988e-02 2.281853705644607544e-01
-1.860217750072479248e-01 -1.378400065004825592e-02 2.890719175338745117e-01
-1.507188379764556885e-01 -5.507881939411163330e-02 -6.254248619079589844e-01
-5.630326271057128906e-01 1.444232184439897537e-02 -7.345327138900756836e-01
2.862609028816223145e-01 -1.378400065004825592e-02 -4.455390572547912598e-01
-5.078898072242736816e-01 -5.507881939411163330e-02 2.924671173095703125e-01
5.393734946846961975e-02 3.223562538623809814e-01 6.106837987899780273e-01
-1.997987031936645508e-01 -5.507881939411163330e-02 5.579544976353645325e-02
1.224445328116416931e-01 -2.815448641777038574e-01 2.822204828262329102e-01
-1.879149824380874634e-01 -1.378400065004825592e-02 -2.345560938119888306e-01
3.413186669349670410e-01 9.168127179145812988e-02 -2.686322033405303955e-01
-5.268250703811645508e-01 -2.568720839917659760e-03 4.342842102050781250e-02
1.878770142793655396e-01 3.292977809906005859e-01 6.364935040473937988e-01
2.249180823564529419e-01 3.448177129030227661e-03 -7.632433772087097168e-01
-2.594934701919555664e-01 2.365312278270721436e-01 6.106837987899780273e-01
-8.645711094141006470e-02 -2.815448641777038574e-01 3.235222995281219482e-01
1.122804358601570129e-01 -5.507881939411163330e-02 -7.493353486061096191e-01
-4.960620701313018799e-01 -1.059694215655326843e-02 4.558162093162536621e-01
-4.759440124034881592e-01 -5.507881939411163330e-02 -3.425352275371551514e-02
5.462357401847839355e-01 7.502055913209915161e-02 5.113872885704040527e-01
3.650520741939544678e-01 -5.507881939411163330e-02 -4.504472613334655762e-01
2.375250123441219330e-02 9.139039367437362671e-02 5.173131823539733887e-01
5.279060825705528259e-02 1.535096168518066406e-01 4.380666911602020264e-01
6.692935824394226074e-01 3.321786522865295410e-01 6.299772858619689941e-01
1.888486593961715698e-01 -2.469653263688087463e-03 9.021079540252685547e-02
5.058247223496437073e-02 -5.507881939411163330e-02 -3.650127947330474854e-01
-1.008884832262992859e-01 -2.815448641777038574e-01 2.159554138779640198e-02
-2.745832800865173340e-01 -5.507881939411163330e-02 2.565186936408281326e-03
-1.677536591887474060e-02 -4.828641191124916077e-02 6.106837987899780273e-01
3.055644631385803223e-01 5.742143467068672180e-02 6.098061800003051758e-01
-1.019701883196830750e-01 9.168127179145812988e-02 -6.999202817678451538e-02
2.275417596101760864e-01 -1.878274255432188511e-03 3.053254783153533936e-01
6.089554429054260254e-01 7.769209146499633789e-02 6.452571749687194824e-01
4.555007815361022949e-01 2.341464627534151077e-03 -1.031221374869346619e-01
-3.506776690483093262e-01 -1.194881927222013474e-02 3.208125382661819458e-02
-8.051825314760208130e-02 -9.273082949221134186e-03 -7.025039196014404297e-01
5.310491099953651428e-02 2.341464627534151077e-03 3.606203794479370117e-01
-9.921038895845413208e-02 2.535606026649475098e-01 6.193784475326538086e-01
-1.252112686634063721e-01 9.168127179145812988e-02 -2.739756703376770020e-01
-4.002938866615295410e-01 -1.360187958925962448e-02 3.183229267597198486e-01
-2.497091144323348999e-01 1.181785762310028076e-01 1.026158481836318970e-01
4.280509650707244873e-01 2.341464627534151077e-03 4.696761965751647949e-01
1.033143699169158936e-02 -1.022469345480203629e-02 -5.436958074569702148e-01
4.261637628078460693e-01 3.296029567718505859e-01 6.830687522888183594e-01
4.445827305316925049e-01 9.161293506622314453e-02 -3.406339585781097412e-01
5.625633001327514648e-01 -5.507881939411163330e-02 2.837014496326446533e-01
4.914731681346893311e-01 9.128741919994354248e-02 -5.213693380355834961e-01
4.488975405693054199e-01 2.805171012878417969e-01 6.452571749687194824e-01
5.819569230079650879e-01 2.341464627534151077e-03 -7.550920844078063965e-01
1.195064261555671692e-01 -5.507881939411163330e-02 5.349145531654357910e-01
2.922668159008026123e-01 9.037593007087707520e-02 5.765185952186584473e-01
3.495400249958038330e-01 -1.354933367110788822e-03 1.655897498130798340e-01
5.785467028617858887e-01 5.007226020097732544e-02 -6.912046074867248535e-01
-5.189616978168487549e-02 -1.127838250249624252e-02 -6.129417419433593750e-01
2.310390472412109375e-01 1.703919917345046997e-01 5.653623342514038086e-01
-3.161702752113342285e-01 -5.507881939411163330e-02 4.051373004913330078e-01
-2.268382757902145386e-01 -1.378400065004825592e-02 -4.122544527053833008e-01
3.237062394618988037e-01 5.925422161817550659e-02 -7.680454850196838379e-01
1.305237859487533569e-01 -2.815448641777038574e-01 -4.341486692428588867e-01
9.861966967582702637e-02 2.341464627534151077e-03 1.613379716873168945e-01
-1.824374496936798096e-01 -2.700344324111938477e-01 -6.710475087165832520e-01
1.695301085710525513e-01 2.341464627534151077e-03 -7.127606272697448730e-01
-3.413456082344055176e-01 1.174533069133758545e-01 -4.541957080364227295e-01
-5.653930902481079102e-01 4.261621832847595215e-02 2.515695691108703613e-01
-5.704203844070434570e-01 -5.507881939411163330e-02 4.311601817607879639e-01
4.444946646690368652e-01 7.596436887979507446e-02 6.106837987899780273e-01
7.635000348091125488e-02 2.341464627534151077e-03 -4.242192208766937256e-01
-3.707977235317230225e-01 9.168127179145812988e-02 3.520208001136779785e-01
1.680511385202407837e-01 1.077903360128402710e-01 3.234552443027496338e-01
-3.049449622631072998e-01 2.341464627534151077e-03 -6.415623426437377930e-01
-1.497492045164108276e-01 -5.507881939411163330e-02 4.678120017051696777e-01
2.037423253059387207e-01 -1.358388271182775497e-02 -6.570163965225219727e-01
2.365896701812744141e-01 -1.378400065004825592e-02 -5.972445607185363770e-01
-5.482139587402343750e-01 1.020981371402740479e-01 -1.148645654320716858e-01
-2.808960899710655212e-02 1.155984103679656982e-01 -5.782702565193176270e-01
-9.538390487432479858e-02 1.181785762310028076e-01 1.760415285825729370e-01
4.120906293392181396e-01 -1.654344797134399414e-01 -6.710475087165832520e-01
-3.298378735780715942e-02 -1.378400065004825592e-02 -3.245904226787388325e-04
3.187059760093688965e-01 2.341464627534151077e-03 3.402871787548065186e-01
1.690277755260467529e-01 -2.950975205749273300e-03 3.708730638027191162e-01
-2.784978151321411133e-01 -1.194881927222013474e-02 1.202593147754669189e-01
-1.737367957830429077e-01 1.133852750062942505e-01 4.177034497261047363e-01
-4.682300090789794922e-01 -6.043029204010963440e-02 6.106837987899780273e-01
-1.725009828805923462e-01 1.761434227228164673e-01 4.873526692390441895e-01
-1.469453722238540649e-01 4.462368087843060493e-04 -7.631913423538208008e-01
6.454693526029586792e-02 -7.740084547549486160e-03 7.805179804563522339e-02
-2.444234304130077362e-02 9.168127179145812988e-02 -1.289835423231124878e-01
-4.152536094188690186e-01 9.137898683547973633e-02 -6.285969614982604980e-01
-1.846829056739807129e-01 9.168127179145812988e-02 3.709621131420135498e-01
1.222744211554527283e-01 -1.378400065004825592e-02 -5.266887545585632324e-01
3.750765919685363770e-01 -1.059743459336459637e-03 5.171440243721008301e-01
-4.032107889652252197e-01 -8.203832805156707764e-02 -6.710475087165832520e-01
-3.623332679271697998e-01 -5.507881939411163330e-02 -5.156966447830200195e-01
5.254421830177307129e-01 9.003811329603195190e-02 -6.065656542778015137e-01
4.671593606472015381e-01 -1.349080912768840790e-02 3.313704133033752441e-01
-6.081959605216979980e-01 -1.790668442845344543e-02 1.983290016651153564e-01
-1.156660765409469604e-01 -1.348281651735305786e-02 -6.719501018524169922e-01
5.883129835128784180e-01 4.042568150907754898e-03 6.106837987899780273e-01
-4.055400565266609192e-02 1.170243322849273682e-01 3.583559393882751465e-01
-1.830888390541076660e-01 -1.194881927222013474e-02 -1.248568594455718994e-01
-1.901094019412994385e-01 -5.507881939411163330e-02 -5.975027680397033691e-01
3.508948683738708496e-01 -9.138990193605422974e-03 4.174172878265380859e-01
-3.286944031715393066e-01 -1.194881927222013474e-02 -3.233087062835693359e-01
-4.712869822978973389e-01 9.140529483556747437e-02 4.273637011647224426e-02
-2.387299686670303345e-01 -1.194881927222013474e-02 -2.084931582212448120e-01
1.822349242866039276e-02 1.147188395261764526e-01 -6.574757099151611328e-01
-3.238350152969360352e-02 1.172215640544891357e-01 -3.805078566074371338e-01
4.663890972733497620e-02 -8.560613729059696198e-03 -1.060217246413230896e-01
3.743380904197692871e-01 9.168127179145812988e-02 1.886627227067947388e-01
1.882712841033935547e-01 1.063662171363830566e-01 -3.822079598903656006e-01
-1.191783547401428223e-01 -5.507881939411163330e-02 -4.132321178913116455e-01
1.782627701759338379e-01 -1.873326897621154785e-01 -6.710475087165832520e-01
1.905417591333389282e-01 -2.815448641777038574e-01 -1.444205492734909058e-01
1.960543245077133179e-01 -2.359581412747502327e-03 -2.931691408157348633e-01
3.560952842235565186e-01 1.046901196241378784e-01 -4.958117306232452393e-01
5.360870957374572754e-01 8.636632561683654785e-02 5.562834143638610840e-01
-3.775108233094215393e-02 3.292977809906005859e-01 6.347203850746154785e-01
-4.674271866679191589e-02 9.168127179145812988e-02 4.371981322765350342e-01
-1.808333992958068848e-01 1.181785762310028076e-01 -8.845251798629760742e-02
5.850589275360107422e-01 -5.507881939411163330e-02 -2.092746645212173462e-01
4.123067557811737061e-01 1.046786159276962280e-01 -2.488595433533191681e-03
-4.495148360729217529e-01 -2.815448641777038574e-01 -4.268759489059448242e-01
3.288485705852508545e-01 -5.507881939411163330e-02 -2.215226143598556519e-01
5.697189569473266602e-01 -2.200482646003365517e-03 -4.512988328933715820e-01
-3.658545315265655518e-01 -5.507881939411163330e-02 -1.543159782886505127e-01
1.026487797498703003e-01 1.111253052949905396e-01 -1.780714094638824463e-01
-5.342599153518676758e-01 -1.197683624923229218e-02 -3.134843111038208008e-01
-4.291816353797912598e-01 -2.815448641777038574e-01 -3.225052058696746826e-01
1.531664729118347168e-01 2.341464627534151077e-03 5.295600891113281250e-01
-5.288143754005432129e-01 9.677558392286300659e-02 5.469554066658020020e-01
6.267479658126831055e-01 2.341464627534151077e-03 5.622302889823913574e-01
-5.217494815587997437e-02 5.375385284423828125e-02 -7.712825536727905273e-01
2.570729553699493408e-01 -2.377164065837860107e-01 4.766377210617065430e-01
1.640200987458229065e-02 9.168127179145812988e-02 -3.499249815940856934e-01
-3.901192843914031982e-01 9.320546686649322510e-02 5.483523011207580566e-01
-4.486422836780548096e-01 -1.375498436391353607e-02 1.064463406801223755e-01
4.727570116519927979e-01 -7.120329141616821289e-02 4.268814250826835632e-02
3.655894100666046143e-01 2.972359657287597656e-01 6.452571749687194824e-01
2.428347170352935791e-01 -1.378400065004825592e-02 1.469216048717498779e-01
4.556569159030914307e-01 9.153608977794647217e-02 3.372452259063720703e-01
-4.785987436771392822e-01 -5.507881939411163330e-02 -9.711223840713500977e-02
2.417920231819152832e-01 -2.815448641777038574e-01 3.596397638320922852e-01
-9.634953737258911133e-02 1.145339161157608032e-01 4.154940247535705566e-01
-4.559630453586578369e-01 -1.166162174195051193e-02 -6.091282963752746582e-01
4.727570116519927979e-01 -2.313572913408279419e-01 -1.400277018547058105e-01
1.748705804347991943e-01 2.354123257100582123e-02 6.452571749687194824e-01
-2.370949089527130127e-01 1.506150364875793457e-01 6.452571749687194824e-01
-1.553128361701965332e-01 9.168127179145812988e-02 -4.047906398773193359e-01
4.185958206653594971e-01 1.033677682280540466e-01 -7.288310527801513672e-01
-1.655204445123672485e-01 7.058588415384292603e-02 6.134695410728454590e-01
1.186590716242790222e-01 -5.507881939411163330e-02 1.820424348115921021e-01
-5.246726870536804199e-01 1.126281768083572388e-01 -7.533018589019775391e-01
2.981386184692382812e-01 1.468142122030258179e-01 6.106837987899780273e-01
4.747823476791381836e-01 5.029930546879768372e-02 -7.229362130165100098e-01
5.663617849349975586e-01 8.924819529056549072e-02 -2.298240214586257935e-01
3.488575518131256104e-01 -5.507881939411163330e-02 -6.553533077239990234e-01
5.701512098312377930e-01 8.767327666282653809e-02 2.565438151359558105e-01
5.175740718841552734e-01 5.514522083103656769e-03 4.617120325565338135e-01
1.643717736005783081e-01 -1.378400065004825592e-02 -3.951693773269653320e-01
4.868101477622985840e-01 2.341464627534151077e-03 -7.087169885635375977e-01
-3.802418708801269531e-01 4.876180365681648254e-02 -7.715207338333129883e-01
-1.166216954588890076e-01 1.181785762310028076e-01 -3.261295706033706665e-02
4.035730957984924316e-01 9.685173630714416504e-02 4.687655866146087646e-01
-7.321901619434356689e-02 9.168127179145812988e-02 -2.353370003402233124e-02
-3.615157306194305420e-01 -2.815448641777038574e-01 -1.258915364742279053e-01
3.219850957393646240e-01 -1.378400065004825592e-02 -5.564621090888977051e-01
4.727570116519927979e-01 -2.490407675504684448e-01 -6.096766591072082520e-01
9.272223711013793945e-02 -1.378400065004825592e-02 1.109872907400131226e-01
4.727570116519927979e-01 -2.407153546810150146e-01 1.171782985329627991e-01
2.901554405689239502e-01 1.046950221061706543e-01 -1.034450950101017952e-03
-1.243707239627838135e-01 1.787743270397186279e-01 5.176043510437011719e-01
-3.249337151646614075e-02 -5.507881939411163330e-02 -7.004736065864562988e-01
4.524648189544677734e-01 2.341464627534151077e-03 -7.428250908851623535e-01
4.727570116519927979e-01 -1.894490718841552734e-01 -7.736971974372863770e-02
-7.846491783857345581e-02 -3.598442673683166504e-02 -7.741695046424865723e-01
-2.789790928363800049e-01 9.168127179145812988e-02 3.382698595523834229e-01
2.587120234966278076e-01 -5.507881939411163330e-02 -4.192980527877807617e-01
5.674664974212646484e-01 8.878909796476364136e-02 -4.370045065879821777e-01
-3.785777688026428223e-01 3.304345011711120605e-01 6.113302111625671387e-01
-4.815896749496459961e-01 -1.347580924630165100e-02 -2.008221894502639771e-01
-4.911229014396667480e-01 -2.367077469825744629e-01 -2.645155191421508789e-01
1.121030747890472412e-02 -9.173016995191574097e-03 5.019901990890502930e-01
5.183596014976501465e-01 5.678630433976650238e-03 -8.630972355604171753e-02
-4.116612672805786133e-01 -9.281075559556484222e-03 4.444818198680877686e-01
-4.830035865306854248e-01 9.106066823005676270e-02 -6.715468168258666992e-01
-4.438101649284362793e-01 -5.507881939411163330e-02 4.138759523630142212e-02
-3.904725313186645508e-01 9.168127179145812988e-02 -1.490175426006317139e-01
-3.463568389415740967e-01 1.576784253120422363e-01 4.421863555908203125e-01
4.047158360481262207e-01 9.166456758975982666e-02 -5.684509277343750000e-01
-5.344400405883789062e-01 1.628613919019699097e-01 5.145623683929443359e-01
1.845858991146087646e-01 1.065413281321525574e-01 -5.349230766296386719e-01
-1.122448518872261047e-01 -2.815448641777038574e-01 -6.598511934280395508e-01
5.910370498895645142e-02 -2.815448641777038574e-01 -6.634525656700134277e-01
4.281430244445800781e-01 -2.389181852340698242e-01 4.766377210617065430e-01
2.892548441886901855e-01 1.785891056060791016e-01 5.109049677848815918e-01
4.516513347625732422e-01 -1.046980395913124084e-01 4.766377210617065430e-01
2.056045383214950562e-01 -5.507881939411163330e-02 4.137818813323974609e-01
-2.478319108486175537e-01 -5.507881939411163330e-02 -1.172270998358726501e-01
-4.333493709564208984e-01 -1.189177017658948898e-02 -5.106583610177040100e-02
1.177587956190109253e-01 2.341464627534151077e-03 -6.594709753990173340e-01
-4.259395301342010498e-01 -1.378400065004825592e-02 2.128924578428268433e-01
-5.049308538436889648e-01 -9.999554604291915894e-03 5.841995477676391602e-01
2.025765627622604370e-01 2.341464627534151077e-03 -2.423921525478363037e-01
2.125610560178756714e-01 9.168127179145812988e-02 -9.932607412338256836e-02
2.251845225691795349e-02 1.151990517973899841e-01 -5.753012895584106445e-01
1.297812908887863159e-01 -1.378400065004825592e-02 -6.207878589630126953e-01
-4.911229014396667480e-01 -1.555240452289581299e-01 -3.685370981693267822e-01
-2.287054657936096191e-01 1.179602369666099548e-01 3.237544596195220947e-01
4.126822575926780701e-02 1.145585328340530396e-01 3.189553320407867432e-02
-3.934134244918823242e-01 2.341464627534151077e-03 -4.620978236198425293e-01
-3.793902993202209473e-01 9.168127179145812988e-02 1.563437432050704956e-01
1.634931862354278564e-01 -1.378400065004825592e-02 -1.331212222576141357e-01
2.658016085624694824e-01 1.049199700355529785e-01 -3.005099296569824219e-01
-4.136895835399627686e-01 2.385511398315429688e-01 6.284412741661071777e-01
8.049955591559410095e-03 2.825744450092315674e-01 6.452571749687194824e-01
2.865841090679168701e-01 1.046952232718467712e-01 -1.509568095207214355e-01
2.612977027893066406e-01 2.341464627534151077e-03 -3.328329026699066162e-01
3.240464329719543457e-01 -5.507881939411163330e-02 -4.266968369483947754e-01
4.653392136096954346e-01 3.340478539466857910e-01 6.468032002449035645e-01
-2.485273480415344238e-01 -1.461479663848876953e-01 -6.710475087165832520e-01
5.379332900047302246e-01 -5.507881939411163330e-02 -2.638401091098785400e-01
-4.384716749191284180e-01 1.178273558616638184e-01 -4.448906481266021729e-01
2.818344905972480774e-02 -9.406162425875663757e-03 -3.159258961677551270e-01
-1.565426290035247803e-01 -5.507881939411163330e-02 1.318168044090270996e-01
4.034762829542160034e-02 -1.378400065004825592e-02 -1.957408785820007324e-01
-4.589479863643646240e-01 4.394587874412536621e-02 6.106837987899780273e-01
2.164705842733383179e-01 -2.815448641777038574e-01 -5.819346904754638672e-01
-5.100211501121520996e-01 9.076197445392608643e-02 -6.128396987915039062e-01
