-6.632973551750183105e-01 1.223070472478866577e-01 2.589784264564514160e-01
6.499255895614624023e-01 -4.843004643917083740e-01 -2.942740917205810547e-01
2.049870938062667847e-01 -1.523079574108123779e-01 6.818754673004150391e-01
-7.329112887382507324e-01 -6.120518967509269714e-02 5.626736283302307129e-01
-5.403829813003540039e-01 6.232537031173706055e-01 3.958117365837097168e-01
-1.888780146837234497e-01 -5.538153052330017090e-01 -3.864202499389648438e-01
-2.267061620950698853e-01 2.509716153144836426e-02 8.948062062263488770e-01
-8.091840744018554688e-01 1.325949840247631073e-02 -4.483452737331390381e-01
-7.870767265558242798e-03 -3.551294207572937012e-01 -5.463894084095954895e-02
6.348040103912353516e-01 6.232537031173706055e-01 1.379403918981552124e-01
-8.607292175292968750e-01 1.524020433425903320e-01 -2.899307608604431152e-01
8.460224270820617676e-01 3.912317156791687012e-01 1.286286860704421997e-01
5.070824027061462402e-01 -2.511901557445526123e-01 4.383738636970520020e-01
2.569200098514556885e-01 2.832112014293670654e-01 -8.482394218444824219e-01
2.753728926181793213e-01 6.232537031173706055e-01 -6.768330931663513184e-01
-6.140143871307373047e-01 -3.959811031818389893e-01 5.242242217063903809e-01
-5.278809666633605957e-01 -2.981623113155364990e-01 -6.968916058540344238e-01
1.346299611032009125e-02 -5.538153052330017090e-01 -4.622013568878173828e-01
6.342408657073974609e-01 2.658255696296691895e-01 6.179540753364562988e-01
2.370015978813171387e-01 2.225068360567092896e-01 8.634586930274963379e-01
-3.343169093132019043e-01 2.855418063700199127e-02 -6.488893032073974609e-01
-7.833777070045471191e-01 -4.125157892704010010e-01 -1.142516657710075378e-01
1.454462110996246338e-01 -3.551294207572937012e-01 -3.404181599617004395e-01
4.092597961425781250e-01 6.228820681571960449e-01 4.257336854934692383e-01
-3.325130641460418701e-01 -2.151820510625839233e-01 -6.088953018188476562e-01
-7.421543598175048828e-01 5.723909139633178711e-01 -2.948239147663116455e-01
5.645535588264465332e-01 -2.915291488170623779e-01 2.982473671436309814e-01
8.455126546323299408e-03 -3.551294207572937012e-01 -2.424173802137374878e-01
-5.856179445981979370e-02 -3.551294207572937012e-01 2.158703058958053589e-01
-8.472685813903808594e-01 4.014372527599334717e-01 -6.745579838752746582e-02
5.892478823661804199e-01 -4.254923462867736816e-01 5.133697390556335449e-01
1.601580083370208740e-01 -3.551294207572937012e-01 3.266170322895050049e-01
-1.201635040342807770e-02 -5.538153052330017090e-01 5.114782452583312988e-01
-4.848452806472778320e-01 -1.062429472804069519e-01 7.788347005844116211e-01
5.013783574104309082e-01 -1.454613655805587769e-01 7.632605433464050293e-01
4.079057276248931885e-01 -3.577736914157867432e-01 7.277088761329650879e-01
-7.656499743461608887e-01 -3.932891190052032471e-01 2.578235268592834473e-01
-4.910476803779602051e-01 3.978905677795410156e-01 -6.995968818664550781e-01
2.753995656967163086e-01 -5.538153052330017090e-01 -3.275378346443176270e-01
8.356159925460815430e-02 -3.551294207572937012e-01 -3.841733336448669434e-01
4.192595183849334717e-01 -4.965613782405853271e-01 5.477846264839172363e-01
6.992608904838562012e-01 1.610857993364334106e-01 -5.879020094871520996e-01
-8.304470777511596680e-01 1.836381256580352783e-01 3.550800979137420654e-01
6.246775984764099121e-01 -5.304654836654663086e-01 2.063465677201747894e-02
-5.964924693107604980e-01 -3.152191638946533203e-01 1.012442931532859802e-01
-9.612865000963211060e-02 -3.796874582767486572e-01 8.127626776695251465e-01
5.951187014579772949e-01 5.239903926849365234e-01 -1.365027725696563721e-01
-1.128415241837501526e-01 6.143117547035217285e-01 5.713707208633422852e-01
5.909135937690734863e-01 -4.713953435420989990e-01 4.246378242969512939e-01
2.046697735786437988e-01 -5.538153052330017090e-01 -3.081511259078979492e-01
3.305218517780303955e-01 5.180119276046752930e-01 -5.124524831771850586e-01
-1.115808412432670593e-01 -3.551294207572937012e-01 -3.979979455471038818e-01
8.952645212411880493e-02 3.148620598949491978e-04 -7.253584265708923340e-01
5.333910882472991943e-02 -1.685767471790313721e-01 -7.090486288070678711e-01
-4.577438533306121826e-01 4.651146233081817627e-01 -4.251317381858825684e-01
2.518248856067657471e-01 6.232537031173706055e-01 -5.703724622726440430e-01
4.686263203620910645e-01 6.134102940559387207e-01 3.497067093849182129e-01
-2.638015151023864746e-01 -3.551294207572937012e-01 -1.178650483489036560e-01
-2.116093933582305908e-01 -3.551294207572937012e-01 4.711001813411712646e-01
6.942210793495178223e-01 9.743250161409378052e-02 1.920497417449951172e-01
-4.412835240364074707e-01 -2.268455028533935547e-01 -7.832374572753906250e-01
-1.198557987809181213e-01 2.524631023406982422e-01 -8.840445280075073242e-01
7.977828979492187500e-01 7.935854047536849976e-02 -4.643997251987457275e-01
-3.910829424858093262e-01 -5.947947874665260315e-02 6.083517074584960938e-01
1.039903983473777771e-01 -3.551294207572937012e-01 3.945443928241729736e-01
-2.218015789985656738e-01 -4.130074679851531982e-01 -7.636468410491943359e-01
-8.946437835693359375e-01 -1.375818401575088501e-01 -2.161669582128524780e-01
1.807815730571746826e-01 2.425853312015533447e-01 6.632376909255981445e-01
7.879090309143066406e-01 3.305118903517723083e-02 4.791607260704040527e-01
3.220992088317871094e-01 -4.803049564361572266e-01 6.387472748756408691e-01
-6.890893578529357910e-01 2.226955145597457886e-01 -6.221066787838935852e-02
6.329048871994018555e-01 3.518770337104797363e-01 -5.947656631469726562e-01
8.050727099180221558e-02 1.777863800525665283e-01 8.992095589637756348e-01
-5.373059958219528198e-02 -5.538153052330017090e-01 4.525415599346160889e-01
2.737035043537616730e-02 -2.354253977537155151e-01 -8.985067009925842285e-01
-7.172351479530334473e-01 -3.148866295814514160e-01 -4.759717285633087158e-01
2.426046431064605713e-01 -2.936388850212097168e-01 8.361715674400329590e-01
2.645632028579711914e-01 -3.551294207572937012e-01 -2.492868304252624512e-01
-1.500378996133804321e-01 3.519380092620849609e-01 6.409465670585632324e-01
7.324027419090270996e-01 2.884578406810760498e-01 -4.957844018936157227e-01
-4.665924906730651855e-01 -5.456461310386657715e-01 3.539756834506988525e-01
5.732945203781127930e-01 3.974788784980773926e-01 2.986704707145690918e-01
8.392359018325805664e-01 4.315745532512664795e-01 -9.400381892919540405e-02
-8.400379419326782227e-01 -2.209508717060089111e-01 -3.185863196849822998e-01
-2.541286349296569824e-01 -5.538153052330017090e-01 -1.281630247831344604e-01
-2.299812585115432739e-01 -6.219905242323875427e-02 -6.915057897567749023e-01
-7.828335762023925781e-01 4.982068538665771484e-01 -2.493373155593872070e-01
8.297774195671081543e-01 7.366014178842306137e-03 4.153937995433807373e-01
6.123194694519042969e-01 -6.002167984843254089e-02 3.903716206550598145e-01
9.041007608175277710e-02 -5.538153052330017090e-01 -2.816157937049865723e-01
-8.025814294815063477e-01 -3.919264972209930420e-01 1.063165664672851562e-01
-6.955251842737197876e-02 5.185300856828689575e-02 -7.235298752784729004e-01
-8.167758584022521973e-01 3.205790817737579346e-01 3.000874221324920654e-01
2.872488796710968018e-01 -3.636797368526458740e-01 -7.833975553512573242e-01
8.387566208839416504e-01 1.260561197996139526e-01 3.692115843296051025e-01
5.653063058853149414e-01 -5.388788506388664246e-02 -7.392621636390686035e-01
2.271238565444946289e-01 -5.311506390571594238e-01 5.751766562461853027e-01
5.594612956047058105e-01 -3.391245007514953613e-01 8.525370806455612183e-02
-6.738592386245727539e-01 1.684941947460174561e-01 -2.066513001918792725e-01
-3.215423524379730225e-01 1.715566217899322510e-01 8.439300060272216797e-01
2.262691110372543335e-01 3.663077056407928467e-01 6.110312938690185547e-01
-9.374916553497314453e-03 3.937845230102539062e-01 8.543661832809448242e-01
-6.271358132362365723e-01 -2.744208276271820068e-01 1.729727387428283691e-01
-1.170333176851272583e-01 -5.538153052330017090e-01 -2.486693263053894043e-01
4.563044011592864990e-01 -1.701928675174713135e-01 5.424731969833374023e-01
8.802838921546936035e-01 -2.314337193965911865e-01 1.892596632242202759e-01
-3.768790364265441895e-01 1.889486312866210938e-01 -5.923463106155395508e-01
8.441387116909027100e-02 -3.181569576263427734e-01 8.520649075508117676e-01
4.406111240386962891e-01 -3.551294207572937012e-01 -1.261705011129379272e-01
-5.738926529884338379e-01 -3.709227442741394043e-01 -5.961092710494995117e-01
-3.799492716789245605e-01 6.232308745384216309e-01 -4.586632549762725830e-01
4.349918663501739502e-01 7.721755653619766235e-02 5.764983296394348145e-01
-2.187284827232360840e-01 -5.235083699226379395e-01 -6.004449725151062012e-01
-8.741183280944824219e-01 2.117762267589569092e-01 -2.182147353887557983e-01
-3.014514446258544922e-01 -2.098915576934814453e-01 8.466953635215759277e-01
-7.265373468399047852e-01 -4.381525516510009766e-01 -2.504360079765319824e-01
7.034641504287719727e-01 2.232653349637985229e-01 5.613062381744384766e-01
7.115828394889831543e-01 6.232537031173706055e-01 1.250514984130859375e-01
5.719166994094848633e-02 -4.532340466976165771e-01 7.476273179054260254e-01
-5.330428481101989746e-01 -3.015786223113536835e-02 4.914188086986541748e-01
7.388414740562438965e-01 1.106235608458518982e-01 -5.492925047874450684e-01
5.394265651702880859e-01 2.028618901968002319e-01 4.457683563232421875e-01
3.896472752094268799e-01 -2.108692079782485962e-01 8.169058561325073242e-01
8.152428865432739258e-01 2.220742106437683105e-01 3.849991858005523682e-01
4.005655944347381592e-01 -1.706837862730026245e-02 -6.124791502952575684e-01
1.197732463479042053e-01 6.232537031173706055e-01 -6.774467825889587402e-01
6.267654299736022949e-01 6.232537031173706055e-01 3.106035888195037842e-01
-5.806229114532470703e-01 8.947068825364112854e-03 -7.266734838485717773e-01
-8.493515104055404663e-02 5.538074970245361328e-01 -5.920308828353881836e-01
-1.627971976995468140e-01 -2.779808938503265381e-01 6.270685791969299316e-01
2.657305002212524414e-01 -5.538153052330017090e-01 2.853851616382598877e-01
8.351165652275085449e-01 2.835885286331176758e-01 -2.910980582237243652e-01
2.720730304718017578e-01 5.724804997444152832e-01 5.226328372955322266e-01
-6.018563508987426758e-01 -1.990427970886230469e-01 -3.520759046077728271e-01
6.232339739799499512e-01 6.232537031173706055e-01 1.637520268559455872e-02
1.605764217674732208e-02 -5.538153052330017090e-01 -1.027177870273590088e-01
5.544719286262989044e-03 4.360141158103942871e-01 -6.393651366233825684e-01
9.013686180114746094e-01 1.551710627973079681e-02 -2.277008146047592163e-01
5.446608662605285645e-01 5.469170808792114258e-01 -2.593846619129180908e-01
1.492741052061319351e-02 2.965984344482421875e-01 -6.789665818214416504e-01
1.869163364171981812e-01 -3.551294207572937012e-01 -4.911294877529144287e-01
6.668957471847534180e-01 -5.043094158172607422e-01 -1.141382679343223572e-01
1.611042320728302002e-01 -9.980516135692596436e-02 -7.120388150215148926e-01
-2.703984379768371582e-01 1.733868420124053955e-01 6.477617621421813965e-01
-7.765321135520935059e-01 -2.163550555706024170e-01 4.509349763393402100e-01
4.900369346141815186e-01 6.126022338867187500e-01 -6.201471090316772461e-01
5.380629897117614746e-01 -3.496568799018859863e-01 -7.499741762876510620e-02
-3.319565653800964355e-01 -4.873411655426025391e-01 -6.248534917831420898e-01
-3.149340152740478516e-01 -3.551294207572937012e-01 4.038351178169250488e-01
-4.569729864597320557e-01 4.223914742469787598e-01 7.069319486618041992e-01
-2.676969766616821289e-01 3.193203210830688477e-01 -6.157570481300354004e-01
-7.000153064727783203e-01 -1.834648400545120239e-01 -4.575602710247039795e-02
4.989989399909973145e-01 -1.048602983355522156e-01 -5.268021821975708008e-01
-5.389508008956909180e-01 -4.745256006717681885e-01 -4.833985865116119385e-01
-3.744949102401733398e-01 6.225381493568420410e-01 -6.749863624572753906e-01
-5.645123124122619629e-01 1.256434321403503418e-01 -7.250544428825378418e-01
4.266978502273559570e-01 2.121774256229400635e-01 5.512150526046752930e-01
-6.511316895484924316e-01 4.237264692783355713e-01 5.385491251945495605e-01
-6.634240746498107910e-01 2.484427988529205322e-01 5.904973149299621582e-01
-3.955692052841186523e-01 -4.495129883289337158e-01 6.414011120796203613e-01
-4.300240874290466309e-01 -3.602998256683349609e-01 7.096409797668457031e-01
1.194168552756309509e-01 -3.701937794685363770e-01 8.162531256675720215e-01
3.338455557823181152e-01 -5.538153052330017090e-01 -4.097491204738616943e-01
6.952463388442993164e-01 5.617575049400329590e-01 -4.069847464561462402e-01
-4.193125367164611816e-01 9.690850228071212769e-02 -5.861534476280212402e-01
-5.952974408864974976e-02 -5.997404083609580994e-02 9.189621806144714355e-01
-7.041004300117492676e-01 6.232537031173706055e-01 -3.830608353018760681e-02
-1.991368271410465240e-02 5.655691027641296387e-01 -8.065253496170043945e-01
8.799160718917846680e-01 3.193755745887756348e-01 -8.621880784630775452e-03
-7.847107648849487305e-01 -3.126482367515563965e-01 3.598159849643707275e-01
5.153840184211730957e-01 2.320625036954879761e-01 7.298938632011413574e-01
9.999679774045944214e-02 2.298784554004669189e-01 6.817392110824584961e-01
8.154382705688476562e-01 3.550644516944885254e-01 2.875835001468658447e-01
8.968548178672790527e-01 -2.338464707136154175e-01 -4.204868525266647339e-02
-3.527516722679138184e-01 4.198605716228485107e-01 -5.333609580993652344e-01
5.495949983596801758e-01 -4.540173411369323730e-01 -5.168224573135375977e-01
-8.926855325698852539e-01 1.761007010936737061e-01 -1.489085555076599121e-01
-6.843077540397644043e-01 -4.909535646438598633e-01 -1.592122465372085571e-01
7.256590723991394043e-01 -4.204801023006439209e-01 3.057542741298675537e-01
6.879472136497497559e-01 2.129997611045837402e-01 -1.191343069076538086e-01
-4.981591403484344482e-01 3.333993852138519287e-01 4.356237947940826416e-01
2.495626956224441528e-01 -3.036471605300903320e-01 5.692839026451110840e-01
1.061048731207847595e-01 -3.096037507057189941e-01 -8.603183627128601074e-01
5.868839100003242493e-02 6.037184000015258789e-01 -7.890196442604064941e-01
1.929329335689544678e-01 -3.031792938709259033e-01 -5.952792763710021973e-01
-2.112282216548919678e-01 -2.083192765712738037e-01 -6.629941463470458984e-01
-1.021890789270401001e-01 -3.551294207572937012e-01 3.085129261016845703e-01
5.721052885055541992e-01 -2.712610363960266113e-01 6.707189083099365234e-01
-5.811079740524291992e-01 5.246516466140747070e-01 -1.685106158256530762e-01
9.256808757781982422e-01 -7.058360427618026733e-02 -4.083392769098281860e-02
5.298365950584411621e-01 1.376439183950424194e-01 4.756969809532165527e-01
-4.739793539047241211e-01 5.886425375938415527e-01 -3.429061770439147949e-01
4.044019579887390137e-01 -3.686816617846488953e-02 6.029716730117797852e-01
-5.017820596694946289e-01 -3.551294207572937012e-01 -1.065770238637924194e-01
-8.624196052551269531e-01 -3.127349615097045898e-01 -3.096886165440082550e-02
2.539803385734558105e-01 6.232537031173706055e-01 7.171489000320434570e-01
8.741777539253234863e-01 3.076997101306915283e-01 -8.488449454307556152e-02
7.420545816421508789e-01 -2.113285362720489502e-01 5.135002732276916504e-01
5.800535157322883606e-02 -3.551294207572937012e-01 4.421682953834533691e-01
3.574737161397933960e-02 -4.022768437862396240e-01 -8.062099218368530273e-01
4.538258910179138184e-01 -2.282110303640365601e-01 5.111123323440551758e-01
-8.849135786294937134e-02 -1.197445616126060486e-01 -9.180467724800109863e-01
6.796560287475585938e-01 -2.277383953332901001e-01 8.579266816377639771e-02
3.625906705856323242e-01 -5.538153052330017090e-01 -1.225313842296600342e-01
-9.597427397966384888e-02 -5.112817287445068359e-01 6.505880355834960938e-01
8.714247941970825195e-01 -2.746581137180328369e-01 -1.313666552305221558e-01
6.918445229530334473e-01 -5.219553038477897644e-02 -6.187844872474670410e-01
8.656941354274749756e-03 -3.551294207572937012e-01 3.346423506736755371e-01
-5.418742895126342773e-01 -4.842080175876617432e-01 4.555136263370513916e-01
4.674180448055267334e-01 -4.270989000797271729e-01 6.244738101959228516e-01
6.989045739173889160e-01 -4.396457374095916748e-01 -3.341881036758422852e-01
4.897787272930145264e-01 6.217138171195983887e-01 6.010878086090087891e-01
-7.235290408134460449e-01 1.507672369480133057e-01 -5.571157932281494141e-01
8.363590836524963379e-01 4.092090725898742676e-01 -1.765559315681457520e-01
2.602799534797668457e-01 -1.053043454885482788e-01 6.712925434112548828e-01
2.334425300359725952e-01 -1.876814067363739014e-01 -8.816422820091247559e-01
4.656532704830169678e-01 -1.589705944061279297e-01 -5.443401932716369629e-01
4.398745298385620117e-01 6.232537031173706055e-01 -4.741783440113067627e-01
6.847387552261352539e-01 -2.068518102169036865e-01 5.902276635169982910e-01
-5.936128497123718262e-01 5.887645483016967773e-01 -5.293111205101013184e-01
-1.216539219021797180e-01 1.147892549633979797e-01 -7.087303996086120605e-01
-3.035278320312500000e-01 3.229918181896209717e-01 8.140861988067626953e-01
3.305923938751220703e-01 7.060821354389190674e-02 8.566254973411560059e-01
-6.364598870277404785e-01 -6.490910053253173828e-02 3.464125394821166992e-01
3.291353881359100342e-01 2.131712883710861206e-01 -6.177381277084350586e-01
6.513215303421020508e-01 -2.033327370882034302e-01 -2.507285773754119873e-01
7.142385840415954590e-01 3.907845914363861084e-02 1.463678181171417236e-01
-5.381770730018615723e-01 -3.481017947196960449e-01 6.923387944698333740e-02
5.238857269287109375e-01 -3.211452364921569824e-01 -6.867060661315917969e-01
-4.983926415443420410e-01 6.232537031173706055e-01 -4.381016194820404053e-01
3.968340158462524414e-01 3.575296103954315186e-01 -5.294016599655151367e-01
-4.467083513736724854e-01 1.136127039790153503e-01 7.958182096481323242e-01
-7.800577878952026367e-01 -3.474290072917938232e-01 -3.149814903736114502e-01
-1.025483161211013794e-01 3.887770175933837891e-01 -8.506130576133728027e-01
-3.621348440647125244e-01 3.809125721454620361e-02 6.246644258499145508e-01
-6.584775447845458984e-01 5.268088728189468384e-02 3.025220632553100586e-01
4.426112174987792969e-01 -3.442920744419097900e-01 -3.407955169677734375e-01
4.700842499732971191e-01 -5.538153052330017090e-01 -7.081266492605209351e-02
8.418982625007629395e-01 8.114195615053176880e-02 -3.861696422100067139e-01
2.330813854932785034e-01 7.298397272825241089e-02 6.811665296554565430e-01
7.725226879119873047e-02 -5.538153052330017090e-01 -4.504683613777160645e-01
6.059045791625976562e-01 6.232537031173706055e-01 3.755092620849609375e-01
3.337683677673339844e-01 6.232537031173706055e-01 -5.316733717918395996e-01
9.577421844005584717e-02 -1.974162161350250244e-01 6.882894039154052734e-01
8.932109475135803223e-01 1.501561552286148071e-01 -2.085923552513122559e-01
-3.189581036567687988e-01 -3.551294207572937012e-01 1.645796149969100952e-01
6.579662859439849854e-02 6.232537031173706055e-01 -7.215563654899597168e-01
-3.841906189918518066e-01 -5.538153052330017090e-01 -9.972091764211654663e-02
7.693932652473449707e-01 -1.534199863672256470e-01 4.914064109325408936e-01
4.564282596111297607e-01 1.724337786436080933e-02 8.017480969429016113e-01
6.605065464973449707e-01 2.150178328156471252e-02 -6.492790579795837402e-01
6.778426170349121094e-01 2.499674260616302490e-01 1.226321011781692505e-01
6.812444925308227539e-01 -4.788193702697753906e-01 -2.283554673194885254e-01
-5.306272506713867188e-01 3.161202743649482727e-02 -4.965571761131286621e-01
7.719365358352661133e-01 4.892525076866149902e-01 -2.997122704982757568e-01
4.611757025122642517e-02 -3.551294207572937012e-01 5.066050887107849121e-01
-6.779633760452270508e-01 2.458261549472808838e-01 1.031882017850875854e-01
-8.219500780105590820e-01 5.103057622909545898e-01 -5.977179855108261108e-03
-2.481920868158340454e-01 5.428501367568969727e-01 -5.496469736099243164e-01
2.667949199676513672e-01 -2.545729279518127441e-01 -8.486939668655395508e-01
2.114105671644210815e-01 4.274856448173522949e-01 -8.229160904884338379e-01
1.146371215581893921e-01 3.234244585037231445e-01 -8.673878908157348633e-01
4.295231699943542480e-01 3.154143691062927246e-01 7.607525587081909180e-01
1.290601789951324463e-01 -1.873640865087509155e-01 -9.004553556442260742e-01
-5.835235714912414551e-01 -5.463836789131164551e-01 -3.127216920256614685e-02
-5.776089429855346680e-01 2.976674214005470276e-02 4.392333626747131348e-01
-6.566499471664428711e-01 6.232537031173706055e-01 3.340029418468475342e-01
-4.899574443697929382e-02 5.016420483589172363e-01 -8.237528204917907715e-01
5.619521737098693848e-01 -1.802287995815277100e-01 4.282836019992828369e-01
6.630975008010864258e-01 2.456002980470657349e-01 1.874491721391677856e-01
-6.062387824058532715e-01 -5.339883565902709961e-01 7.757811993360519409e-02
-4.949927031993865967e-01 1.118609029799699783e-02 7.756406068801879883e-01
2.474386990070343018e-01 -4.974933266639709473e-01 6.381088495254516602e-01
2.465001866221427917e-02 -3.551294207572937012e-01 -4.857646524906158447e-01
-5.514128208160400391e-01 2.641627788543701172e-01 3.994804024696350098e-01
-1.228059828281402588e-01 -3.551294207572937012e-01 1.979191601276397705e-02
-8.430176973342895508e-01 2.758996188640594482e-01 2.593967616558074951e-01
4.770566895604133606e-02 -5.538153052330017090e-01 -3.477383255958557129e-01
9.584254771471023560e-02 3.451962471008300781e-01 6.504812836647033691e-01
6.620721817016601562e-01 7.593994587659835815e-02 -2.988356053829193115e-01
8.740767240524291992e-01 -4.128770902752876282e-02 3.019198179244995117e-01
-7.104467153549194336e-01 3.961208462715148926e-02 -1.590645462274551392e-01
-3.502684235572814941e-01 -2.902084589004516602e-01 -5.349351167678833008e-01
1.680003702640533447e-01 2.834570407867431641e-01 8.656151294708251953e-01
-1.416676342487335205e-01 -1.557736247777938843e-01 -9.048901200294494629e-01
-1.411244869232177734e-01 1.415544301271438599e-01 -9.028432965278625488e-01
-2.851826548576354980e-01 -2.456681132316589355e-01 6.096200942993164062e-01
-3.096959292888641357e-01 2.841679155826568604e-01 6.010906696319580078e-01
-1.455840468406677246e-01 4.856610000133514404e-01 5.989428162574768066e-01
7.728017568588256836e-01 -4.093511700630187988e-01 -2.084217965602874756e-01
9.110519886016845703e-01 -1.297737956047058105e-01 1.204470992088317871e-01
-8.549022078514099121e-01 -7.756166905164718628e-02 -3.461403250694274902e-01
4.239897131919860840e-01 3.862356543540954590e-01 -7.475218772888183594e-01
-6.074270009994506836e-01 -3.631358593702316284e-02 6.949911117553710938e-01
1.181637942790985107e-01 -5.538153052330017090e-01 4.061306416988372803e-01
1.672752052545547485e-01 3.988501131534576416e-01 8.354120850563049316e-01
1.876853257417678833e-01 6.232537031173706055e-01 7.011620998382568359e-01
-1.325350701808929443e-01 -5.538153052330017090e-01 -5.577170252799987793e-01
-7.985630631446838379e-01 1.694615632295608521e-01 -4.321365058422088623e-01
3.109207842499017715e-03 -3.551294207572937012e-01 -1.598830670118331909e-01
4.444684386253356934e-01 -3.352605104446411133e-01 3.623392581939697266e-01
5.530254244804382324e-01 3.871333003044128418e-01 -3.425126373767852783e-01
-6.002659797668457031e-01 6.232537031173706055e-01 -1.330542266368865967e-01
-5.441440939903259277e-01 5.805639028549194336e-01 2.132174223661422729e-01
-7.770799994468688965e-01 -4.269998073577880859e-01 4.294733330607414246e-02
-3.581431806087493896e-01 -3.551294207572937012e-01 -6.785439699888229370e-02
-1.395493447780609131e-01 -2.260345816612243652e-01 -8.888633251190185547e-01
-4.654461443424224854e-01 1.782142370939254761e-01 7.723464369773864746e-01
-7.862802743911743164e-01 4.661685526371002197e-01 2.629386782646179199e-01
-5.966230630874633789e-01 2.484380453824996948e-01 3.346652388572692871e-01
7.735764980316162109e-01 -4.382764101028442383e-01 -2.123472467064857483e-02
-6.961046457290649414e-01 -6.099650263786315918e-02 -2.078043073415756226e-01
2.169802635908126831e-01 -2.118059098720550537e-01 -6.608501076698303223e-01
7.229985594749450684e-01 -6.187221407890319824e-02 -9.180710464715957642e-02
2.776809036731719971e-02 8.186837285757064819e-02 7.189860939979553223e-01
6.377115100622177124e-02 -5.538153052330017090e-01 -5.565468668937683105e-01
-3.045321702957153320e-01 -4.265357553958892822e-01 7.158424258232116699e-01
6.411789655685424805e-01 -5.731735378503799438e-02 -3.505560457706451416e-01
-7.560827583074569702e-02 -4.660000205039978027e-01 -7.329025268554687500e-01
-3.594677150249481201e-01 4.046113193035125732e-01 -7.770036458969116211e-01
-4.824430346488952637e-01 -1.293393075466156006e-01 5.280691385269165039e-01
4.154727160930633545e-01 1.641370654106140137e-01 8.085994124412536621e-01
7.101412862539291382e-02 -3.469673451036214828e-03 7.217627763748168945e-01
-8.891436457633972168e-01 -2.373902648687362671e-01 6.040947511792182922e-02
-8.595075607299804688e-01 3.550339639186859131e-01 6.705345213413238525e-02
-4.084695279598236084e-01 5.534025430679321289e-01 -4.343967735767364502e-01
-5.182538628578186035e-01 5.211440920829772949e-01 -3.131157457828521729e-01
3.094409108161926270e-01 6.920079886913299561e-02 -6.608348488807678223e-01
-2.833435535430908203e-01 5.582861304283142090e-01 5.190271139144897461e-01
-6.504427194595336914e-01 2.586016356945037842e-01 2.039047628641128540e-01
-2.568987309932708740e-01 -7.697755843400955200e-02 -8.890653848648071289e-01
1.043134331703186035e-01 -5.304921865463256836e-01 6.110455989837646484e-01
4.248997271060943604e-01 -5.538153052330017090e-01 3.147849142551422119e-01
-3.384363055229187012e-01 -1.616206169128417969e-01 -8.494952917098999023e-01
-1.973569095134735107e-01 -3.551294207572937012e-01 2.115346044301986694e-01
-3.585700690746307373e-01 -3.551294207572937012e-01 -3.091345131397247314e-01
-6.458268761634826660e-01 3.412522077560424805e-01 5.765069127082824707e-01
6.563004255294799805e-01 -2.012592554092407227e-01 -6.265858411788940430e-01
-5.633926391601562500e-01 6.039699316024780273e-01 1.428106576204299927e-01
-3.183406293392181396e-01 -5.161148309707641602e-01 5.649882555007934570e-01
-6.416617631912231445e-01 -2.855707108974456787e-01 1.914956606924533844e-02
6.301739215850830078e-01 -2.917759716510772705e-01 1.022048145532608032e-01
5.159025266766548157e-02 5.809926986694335938e-01 5.814505219459533691e-01
-8.060471415519714355e-01 5.413712263107299805e-01 -5.749515816569328308e-02
8.646649718284606934e-01 -1.958620399236679077e-01 2.708038985729217529e-01
-7.624118775129318237e-02 -3.551294207572937012e-01 -5.225446224212646484e-01
-6.723155379295349121e-01 2.836857438087463379e-01 -6.827443838119506836e-02
-5.539675354957580566e-01 6.232537031173706055e-01 -2.628675103187561035e-01
2.812875211238861084e-01 -3.551294207572937012e-01 3.218725621700286865e-01
6.573029160499572754e-01 1.284022480249404907e-01 2.835813164710998535e-01
-5.282736420631408691e-01 4.344122707843780518e-01 -6.634277105331420898e-01
-3.429158627986907959e-01 4.074821993708610535e-02 8.531903028488159180e-01
-1.721860095858573914e-02 -5.891917273402214050e-02 -7.316742539405822754e-01
-8.271986246109008789e-01 3.794357776641845703e-01 2.220603227615356445e-01
-8.645340800285339355e-01 -2.363336831331253052e-02 3.218649327754974365e-01
1.257651951164007187e-03 -5.538153052330017090e-01 3.166087567806243896e-01
2.902124635875225067e-02 -5.538153052330017090e-01 1.759543418884277344e-01
-1.857906132936477661e-01 4.950135201215744019e-02 -9.086007475852966309e-01
-5.010464191436767578e-01 -5.538153052330017090e-01 3.234015032649040222e-02
5.804679393768310547e-01 1.821973323822021484e-01 -7.028376460075378418e-01
6.017824634909629822e-02 5.332067608833312988e-01 -8.128497004508972168e-01
-7.334763407707214355e-01 9.515107423067092896e-02 5.519802570343017578e-01
-1.518179029226303101e-01 6.232537031173706055e-01 -7.043327689170837402e-01
7.107862234115600586e-01 4.213994741439819336e-01 -4.629208147525787354e-01
-5.350056663155555725e-02 2.795510888099670410e-01 -8.852575421333312988e-01
-6.115692257881164551e-01 4.409234225749969482e-01 1.561359763145446777e-01
-1.664067804813385010e-01 -5.538153052330017090e-01 -1.132587492465972900e-01
-4.341071471571922302e-02 6.232537031173706055e-01 6.827254295349121094e-01
-7.391498684883117676e-01 -2.640066146850585938e-01 4.767384529113769531e-01
-5.714160203933715820e-01 4.186008274555206299e-01 6.209214329719543457e-01
-6.728425025939941406e-01 6.232537031173706055e-01 -9.434077143669128418e-02
-7.028844952583312988e-01 1.274654567241668701e-01 -1.209333837032318115e-01
-5.211496949195861816e-01 2.338901460170745850e-01 7.236123681068420410e-01
-1.218368783593177795e-01 -4.678590893745422363e-01 7.191957235336303711e-01
5.443044900894165039e-01 -2.271323353052139282e-01 -4.250231087207794189e-01
2.708066105842590332e-01 -3.551294207572937012e-01 -3.103789985179901123e-01
-6.270957589149475098e-01 4.153704941272735596e-01 -1.340138018131256104e-01
-6.056222319602966309e-01 -3.718357533216476440e-02 3.979671597480773926e-01
6.471907496452331543e-01 -9.005988389253616333e-02 -6.607605814933776855e-01
-1.506448835134506226e-01 4.827184379100799561e-01 8.122004270553588867e-01
3.850705027580261230e-01 4.799216985702514648e-01 7.335425019264221191e-01
-8.869224786758422852e-01 -2.022092938423156738e-01 -1.916469782590866089e-01
-6.913181394338607788e-02 -3.551294207572937012e-01 -5.333366245031356812e-02
7.707434892654418945e-01 3.880881071090698242e-01 -3.851443529129028320e-01
5.987225770950317383e-01 -3.197254240512847900e-01 -5.819973349571228027e-02
2.883065640926361084e-01 -7.992295920848846436e-02 8.738558292388916016e-01
-5.238531231880187988e-01 -5.537314414978027344e-01 -2.213850170373916626e-01
3.538583517074584961e-01 -5.164666846394538879e-02 -6.400530934333801270e-01
-7.424212098121643066e-01 -4.516303241252899170e-01 1.263407617807388306e-01
-3.738879263401031494e-01 -1.019692048430442810e-01 8.413791060447692871e-01
-5.291740894317626953e-01 3.440632522106170654e-01 -3.998132646083831787e-01
-3.009883463382720947e-01 -3.551294207572937012e-01 5.754591897130012512e-02
-2.149607390165328979e-01 -1.026781648397445679e-01 6.866561174392700195e-01
-7.055802345275878906e-01 3.182406723499298096e-01 -5.189321637153625488e-01
-4.716171026229858398e-01 2.795539796352386475e-01 -7.481880187988281250e-01
9.243049025535583496e-01 -9.207908064126968384e-02 3.715885803103446960e-02
1.137471124529838562e-01 -5.538153052330017090e-01 4.725847840309143066e-01
3.499304950237274170e-01 -3.079761862754821777e-01 5.055169463157653809e-01
7.267129421234130859e-01 6.232537031173706055e-01 -2.306800521910190582e-02
-5.761604290455579758e-03 1.360705941915512085e-01 7.123243808746337891e-01
7.046057581901550293e-01 -1.791034191846847534e-01 -5.376503989100456238e-02
9.043703079223632812e-01 1.177839264273643494e-01 1.485375761985778809e-01
5.968549251556396484e-01 2.853161394596099854e-01 -3.280133306980133057e-01
4.284950196743011475e-01 -5.305655598640441895e-01 -4.545152783393859863e-01
-8.244780898094177246e-01 -2.361143529415130615e-01 3.402653932571411133e-01
7.067106962203979492e-01 -6.439283490180969238e-03 1.858254224061965942e-01
-9.026119112968444824e-01 -4.081983491778373718e-02 -2.155713886022567749e-01
6.966985464096069336e-01 -4.839402735233306885e-01 -1.628551632165908813e-01
6.974961757659912109e-01 2.092310339212417603e-01 3.820590302348136902e-02
3.485182821750640869e-01 -2.798504531383514404e-01 8.046868443489074707e-01
2.921629548072814941e-01 -1.723464131355285645e-01 8.588467240333557129e-01
1.917618215084075928e-01 1.373406201601028442e-01 8.925840258598327637e-01
8.817475438117980957e-01 2.547605037689208984e-01 -1.273301690816879272e-01
8.092187047004699707e-01 -3.893603384494781494e-01 -1.056498512625694275e-01
-6.195622086524963379e-01 -4.204657971858978271e-01 -4.907006621360778809e-01
-2.077377736568450928e-01 -1.221563369035720825e-01 -9.027651548385620117e-01
-7.550261616706848145e-01 3.789488375186920166e-01 -4.092926681041717529e-01
-8.890378475189208984e-01 -7.193005084991455078e-02 2.446154057979583740e-01
-2.452057301998138428e-01 4.243914037942886353e-02 6.783354282379150391e-01
-4.118570983409881592e-01 -2.785497605800628662e-01 -5.059956312179565430e-01
9.156316518783569336e-01 1.277490407228469849e-01 3.326636552810668945e-02
-2.616003453731536865e-01 1.872981935739517212e-01 -6.531544923782348633e-01
-6.949848681688308716e-02 -3.551294207572937012e-01 3.592223525047302246e-01
3.102298974990844727e-01 -3.410103023052215576e-01 4.647024273872375488e-01
-8.645836710929870605e-01 2.371841110289096832e-02 -3.207141458988189697e-01
-6.724422574043273926e-01 1.251665055751800537e-01 6.142492890357971191e-01
-5.771515369415283203e-01 -2.060027718544006348e-01 6.951169371604919434e-01
-5.461251735687255859e-01 2.412960678339004517e-01 -7.115290164947509766e-01
8.100457787513732910e-01 -3.614680767059326172e-01 2.073342353105545044e-01
2.425150722265243530e-01 6.232537031173706055e-01 6.580301523208618164e-01
-2.809394001960754395e-01 1.197645217180252075e-01 -8.719065189361572266e-01
6.834380626678466797e-01 -4.671148955821990967e-01 2.658974230289459229e-01
-3.383638560771942139e-01 -5.538153052330017090e-01 -3.242093622684478760e-01
1.485155075788497925e-01 -3.551294207572937012e-01 -1.591255217790603638e-01
-5.805953145027160645e-01 1.271908432245254517e-01 -4.163908064365386963e-01
-2.004614323377609253e-01 4.293209314346313477e-01 -6.041908264160156250e-01
-1.402821242809295654e-01 -3.551294207572937012e-01 3.765021860599517822e-01
7.873972654342651367e-01 5.495490431785583496e-01 -1.988041996955871582e-01
2.398316860198974609e-01 -3.551294207572937012e-01 3.820890486240386963e-01
6.349641680717468262e-01 3.991540968418121338e-01 -1.328426897525787354e-01
8.944839835166931152e-01 -1.657152026891708374e-01 -2.086180895566940308e-01
-2.679637670516967773e-01 -1.945594251155853271e-01 6.422453522682189941e-01
3.757073283195495605e-01 2.258562743663787842e-01 5.796123743057250977e-01
5.699250698089599609e-01 -5.538153052330017090e-01 2.766266278922557831e-02
-9.145450592041015625e-01 -1.342762559652328491e-01 5.465368553996086121e-02
-2.768647968769073486e-01 6.232537031173706055e-01 6.354997754096984863e-01
-7.050104141235351562e-01 1.441705077886581421e-01 7.130633294582366943e-02
2.049785107374191284e-01 -2.864978611469268799e-01 6.052805185317993164e-01
-1.356195956468582153e-01 4.359921813011169434e-01 -8.335476517677307129e-01
-7.831233143806457520e-01 -1.964204460382461548e-01 -4.548726379871368408e-01
-7.771514654159545898e-01 6.009587645530700684e-01 -1.353049874305725098e-01
7.225878834724426270e-01 -1.479293704032897949e-01 5.679212808609008789e-01
1.321856975555419922e-01 3.073690533638000488e-01 -6.626853942871093750e-01
-3.930945098400115967e-01 5.691139101982116699e-01 -6.993395686149597168e-01
-6.234080195426940918e-01 -2.693904936313629150e-01 -2.035696357488632202e-01
-4.252805411815643311e-01 -2.852362394332885742e-01 4.779019355773925781e-01
7.502495050430297852e-01 5.714189410209655762e-01 2.782984375953674316e-01
9.147092103958129883e-01 2.131358534097671509e-02 -1.433836370706558228e-01
2.416413463652133942e-02 -4.177178442478179932e-02 7.263510227203369141e-01
5.417144894599914551e-01 5.987290143966674805e-01 2.145076543092727661e-01
3.788328468799591064e-01 -5.538153052330017090e-01 3.976612985134124756e-01
1.862484402954578400e-02 5.264927148818969727e-01 8.135592937469482422e-01
-2.921854853630065918e-01 6.232537031173706055e-01 -5.883117318153381348e-01
-4.808897972106933594e-01 -1.727018505334854126e-01 7.676210403442382812e-01
-1.567348688840866089e-01 -2.064087092876434326e-01 6.773091554641723633e-01
-4.268490076065063477e-01 2.003252804279327393e-01 -7.966037392616271973e-01
-7.095157504081726074e-01 4.923082515597343445e-02 1.561645567417144775e-01
2.826578021049499512e-01 1.851617991924285889e-01 8.561823964118957520e-01
-2.401153445243835449e-01 -3.551294207572937012e-01 1.603021664777770638e-04
4.862110614776611328e-01 6.066321581602096558e-02 7.799677252769470215e-01
6.764819025993347168e-01 -5.054185390472412109e-01 5.943896714597940445e-03
-4.095062911510467529e-01 6.232537031173706055e-01 -6.077280044555664062e-01
-3.737258911132812500e-01 -3.551294207572937012e-01 5.263935402035713196e-02
-4.935614168643951416e-01 -3.451401591300964355e-01 -2.507533431053161621e-01
-5.252881646156311035e-01 -3.034804165363311768e-01 -3.333524167537689209e-01
5.897662639617919922e-01 6.232537031173706055e-01 -2.282487452030181885e-01
2.522708475589752197e-01 -5.478063225746154785e-01 -5.315046906471252441e-01
3.291411101818084717e-01 3.365029692649841309e-01 -5.791982412338256836e-01
3.434622287750244141e-01 -3.008837699890136719e-01 -5.271937847137451172e-01
4.749668836593627930e-01 -5.167980790138244629e-01 4.427752792835235596e-01
6.771718263626098633e-01 3.105831742286682129e-01 -5.654459595680236816e-01
-4.461690187454223633e-01 -5.538153052330017090e-01 -3.173946961760520935e-02
6.603521704673767090e-01 4.808393716812133789e-01 -5.100263953208923340e-01
-6.270195245742797852e-01 -4.355206191539764404e-01 4.468384385108947754e-01
8.856849074363708496e-01 2.495090961456298828e-01 9.951096773147583008e-02
-1.459785550832748413e-01 5.860716104507446289e-01 -7.856692671775817871e-01
6.377866268157958984e-01 3.324874639511108398e-01 5.908079743385314941e-01
-4.578544199466705322e-01 6.232537031173706055e-01 6.003007292747497559e-01
1.436919420957565308e-01 -4.087479710578918457e-01 -7.878628373146057129e-01
-5.628237724304199219e-01 -2.032917886972427368e-01 4.049786031246185303e-01
-4.418943226337432861e-01 5.556160807609558105e-01 6.679897904396057129e-01
2.390693873167037964e-01 4.569225907325744629e-01 7.983520030975341797e-01
7.572237849235534668e-01 4.475708305835723877e-01 -3.741031289100646973e-01
-5.282993316650390625e-01 -3.551294207572937012e-01 7.368412334471940994e-03
-4.819513559341430664e-01 -2.594574987888336182e-01 4.531933367252349854e-01
7.830787897109985352e-01 -9.654530882835388184e-02 4.854593575000762939e-01
-2.588540911674499512e-01 4.061674177646636963e-01 5.861663818359375000e-01
-1.341559439897537231e-01 -2.272943258285522461e-01 -6.757334470748901367e-01
-8.313503861427307129e-01 4.128043353557586670e-01 -1.775421798229217529e-01
-5.152207612991333008e-01 1.092849299311637878e-01 4.929110407829284668e-01
-8.724326491355895996e-01 -1.573182791471481323e-01 2.626642584800720215e-01
1.095086261630058289e-01 -3.551294207572937012e-01 1.183745339512825012e-01
4.012135565280914307e-01 -3.060294091701507568e-01 -4.786407649517059326e-01
-1.005853489041328430e-01 -5.538153052330017090e-01 2.222209051251411438e-02
7.331964373588562012e-01 4.885261878371238708e-02 -5.701961517333984375e-01
4.710571467876434326e-01 6.173410415649414062e-01 -3.552023768424987793e-01
9.226144552230834961e-01 6.119007244706153870e-02 4.507962986826896667e-02
8.606019616127014160e-02 -2.850494682788848877e-01 6.342219710350036621e-01
-4.532271325588226318e-01 3.649038821458816528e-02 -5.732044577598571777e-01
-4.490944147109985352e-01 7.655403017997741699e-02 -8.056906461715698242e-01
-1.374091356992721558e-01 2.824355363845825195e-01 8.690932393074035645e-01
3.230759203433990479e-01 -3.551294207572937012e-01 1.690496653318405151e-01
-1.474221944808959961e-01 5.563612580299377441e-01 -5.805150866508483887e-01
7.475518584251403809e-01 -4.556820094585418701e-01 -7.053118199110031128e-02
6.225135922431945801e-01 -5.068708062171936035e-01 2.472072839736938477e-01
2.096991837024688721e-01 -5.538153052330017090e-01 -1.612228602170944214e-01
7.495548725128173828e-01 1.928879022598266602e-01 -5.073944926261901855e-01
-5.949640870094299316e-01 -2.816104590892791748e-01 2.457255274057388306e-01
-2.996438145637512207e-01 3.964888155460357666e-01 -8.002247810363769531e-01
-4.843831062316894531e-01 -2.677038609981536865e-01 -7.378490567207336426e-01
5.779169797897338867e-01 1.201814189553260803e-01 7.131257653236389160e-01
6.441100239753723145e-01 6.232537031173706055e-01 -1.010673642158508301e-01
7.943639755249023438e-01 -2.397973090410232544e-01 -4.164689481258392334e-01
2.070606872439384460e-02 1.907877177000045776e-01 9.033393859863281250e-01
3.503106832504272461e-01 -3.382726311683654785e-01 7.719709873199462891e-01
-4.823477268218994141e-01 5.998372435569763184e-01 3.203936815261840820e-01
7.064390778541564941e-01 1.464659571647644043e-01 7.976254075765609741e-02
-4.539750888943672180e-02 -5.538153052330017090e-01 2.166183143854141235e-01
2.051652818918228149e-01 4.254178702831268311e-01 5.996584892272949219e-01
2.219982296228408813e-01 4.245135486125946045e-01 -5.996264219284057617e-01
-6.518073081970214844e-01 -4.995582401752471924e-01 1.962091475725173950e-01
3.990114033222198486e-01 -3.590402891859412193e-03 8.372979164123535156e-01
-6.142658367753028870e-02 -1.191156432032585144e-01 7.139328718185424805e-01
-6.825877428054809570e-01 -4.493548274040222168e-01 3.323430120944976807e-01
3.588915467262268066e-01 -2.636759579181671143e-01 -8.131803870201110840e-01
-2.379474788904190063e-01 -4.490689635276794434e-01 -7.216030955314636230e-01
3.124129772186279297e-01 -5.538153052330017090e-01 5.600288882851600647e-02
-1.212680041790008545e-01 2.977857589721679688e-01 6.606172323226928711e-01
7.554485201835632324e-01 -2.363697439432144165e-01 -4.809868037700653076e-01
-3.833854496479034424e-01 4.576591849327087402e-01 7.402671575546264648e-01
-3.980076611042022705e-01 7.466250658035278320e-02 5.982872247695922852e-01
6.240277290344238281e-01 4.195365607738494873e-01 1.495676636695861816e-01
-5.632268786430358887e-01 -5.139403343200683594e-01 3.288896977901458740e-01
-2.455554306507110596e-01 9.107723832130432129e-02 8.832580447196960449e-01
4.707570075988769531e-01 2.425281703472137451e-01 -7.606661915779113770e-01
-3.134360611438751221e-01 -5.538153052330017090e-01 1.505891680717468262e-01
-6.398322582244873047e-01 1.167081892490386963e-01 3.199991583824157715e-01
-6.692662835121154785e-01 6.155685782432556152e-01 -4.020658731460571289e-01
2.504603266716003418e-01 -2.972208261489868164e-01 -5.837692618370056152e-01
7.175491005182266235e-02 -4.402088820934295654e-01 -7.667885422706604004e-01
5.632414221763610840e-01 -5.158652067184448242e-01 3.281283378601074219e-01
1.205441355705261230e-01 -2.170344889163970947e-01 8.892765045166015625e-01
4.920456707477569580e-01 3.104631006717681885e-01 -4.598791599273681641e-01
4.261546730995178223e-01 -3.551294207572937012e-01 -2.375347316265106201e-01
-8.378882408142089844e-01 -3.012477755546569824e-01 2.268143296241760254e-01
-4.030179977416992188e-01 -5.490356087684631348e-01 -4.170387685298919678e-01
-4.336298406124114990e-01 -5.279622673988342285e-01 4.488624036312103271e-01
-7.928857207298278809e-01 1.745225302875041962e-02 4.683606028556823730e-01
2.387053817510604858e-01 -4.177576601505279541e-01 7.487813234329223633e-01
-8.827859163284301758e-01 1.977066993713378906e-01 1.913055330514907837e-01
7.219332456588745117e-01 -9.736765921115875244e-02 6.486798822879791260e-02
1.462133973836898804e-02 2.742015421390533447e-01 -8.912427425384521484e-01
-4.184644520282745361e-01 -1.809634715318679810e-01 -8.110888004302978516e-01
5.700946450233459473e-01 6.232537031173706055e-01 -4.702962338924407959e-01
5.313403010368347168e-01 -2.965871393680572510e-01 -3.470636606216430664e-01
-6.441106796264648438e-01 2.920891717076301575e-02 -3.392918407917022705e-01
4.863415956497192383e-01 -3.551294207572937012e-01 3.422593325376510620e-02
-5.814520120620727539e-01 4.554808437824249268e-01 -2.327073365449905396e-01
6.157680153846740723e-01 4.646525084972381592e-01 -5.660291910171508789e-01
-1.852608174085617065e-01 -4.414676725864410400e-01 7.434889078140258789e-01
9.058539867401123047e-01 -1.881311833858489990e-01 -7.428855448961257935e-02
5.298433303833007812e-01 -5.495825409889221191e-01 2.356858104467391968e-01
-4.654785692691802979e-01 -5.538153052330017090e-01 -2.253948152065277100e-01
-3.023605048656463623e-01 6.232537031173706055e-01 -6.622290015220642090e-01
-1.751056872308254242e-02 7.309868931770324707e-02 -9.268420338630676270e-01
-2.845785021781921387e-01 -9.161882102489471436e-02 8.730143904685974121e-01
-6.803627610206604004e-01 -2.093045711517333984e-01 1.318742483854293823e-01
7.963860034942626953e-01 -1.867894977331161499e-01 -4.421038031578063965e-01
2.534914910793304443e-01 -5.538153052330017090e-01 -4.368962049484252930e-01
6.070042252540588379e-01 -3.286969661712646484e-01 5.974735021591186523e-01
-7.061672806739807129e-01 3.543307185173034668e-01 4.946462512016296387e-01
-1.902139782905578613e-01 -5.538153052330017090e-01 4.290516376495361328e-01
-2.440812885761260986e-01 -1.154307946562767029e-01 -6.794993281364440918e-01
-3.191992044448852539e-01 -9.159404784440994263e-02 -8.665502667427062988e-01
-7.210200428962707520e-01 5.695005878806114197e-02 4.795309528708457947e-02
8.459338545799255371e-01 -3.483743071556091309e-01 -1.482867728918790817e-02
-6.602604389190673828e-01 -1.649624109268188477e-01 6.231226325035095215e-01
-8.438419699668884277e-01 -1.283177733421325684e-01 3.597378730773925781e-01
4.046144187450408936e-01 5.104172825813293457e-01 -7.160152792930603027e-01
8.049764037132263184e-01 -3.220257461071014404e-01 2.937258780002593994e-01
8.558372855186462402e-01 2.861928045749664307e-01 2.237745821475982666e-01
-1.042435243725776672e-01 -5.538153052330017090e-01 2.277262508869171143e-01
4.440996646881103516e-01 4.350135624408721924e-01 -7.187053561210632324e-01
-5.476793646812438965e-01 3.617509603500366211e-01 3.538842201232910156e-01
-1.660360842943191528e-01 -5.538153052330017090e-01 6.771438568830490112e-02
-4.620480164885520935e-02 -2.849189043045043945e-01 -6.439886093139648438e-01
1.677192598581314087e-01 -2.278393805027008057e-01 -8.852823376655578613e-01
-6.250051259994506836e-01 -5.089014172554016113e-01 -2.242313176393508911e-01
-6.141649484634399414e-01 4.644085466861724854e-01 -1.101580113172531128e-01
-4.797310829162597656e-01 -3.993935883045196533e-02 -7.916496396064758301e-01
6.698631048202514648e-01 -4.925716221332550049e-01 1.934495568275451660e-01
3.702596295624971390e-03 -3.551294207572937012e-01 -3.221501410007476807e-01
4.320035576820373535e-01 5.053774118423461914e-01 4.304057359695434570e-01
-7.181032299995422363e-01 -2.440426871180534363e-02 1.088284030556678772e-01
3.108578622341156006e-01 -3.551294207572937012e-01 -4.290166795253753662e-01
5.609925985336303711e-01 4.796930253505706787e-01 2.702302634716033936e-01
4.986864030361175537e-01 -4.772549495100975037e-02 5.280176997184753418e-01
3.405129909515380859e-01 -3.551294207572937012e-01 -1.699609309434890747e-01
5.765686742961406708e-03 5.525516271591186523e-01 5.958659648895263672e-01
-4.277161657810211182e-01 -3.662106394767761230e-01 -7.128393054008483887e-01
-3.614564239978790283e-01 -5.538153052330017090e-01 2.531705200672149658e-01
5.872544646263122559e-01 2.149522453546524048e-01 3.709706366062164307e-01
6.172049641609191895e-01 -4.381439685821533203e-01 4.623802006244659424e-01
7.789003252983093262e-01 2.471058666706085205e-01 4.341306090354919434e-01
7.508727312088012695e-01 -4.231386780738830566e-01 2.268000245094299316e-01
-6.824849247932434082e-01 5.990177392959594727e-01 3.927929401397705078e-01
-3.415473923087120056e-02 1.880910098552703857e-01 6.983758211135864258e-01
9.901817888021469116e-02 -2.044829130172729492e-01 -6.909321546554565430e-01
5.744246244430541992e-01 -1.792329996824264526e-01 -7.144277691841125488e-01
6.772871017456054688e-01 -4.095198512077331543e-01 4.167383015155792236e-01
-2.655167281627655029e-01 2.025264501571655273e-01 8.571705818176269531e-01
2.833610475063323975e-01 1.888790577650070190e-01 6.408656239509582520e-01
-5.404124408960342407e-02 -5.538153052330017090e-01 -2.865632474422454834e-01
-1.591094732284545898e-01 -3.551294207572937012e-01 1.300847083330154419e-01
-8.478546142578125000e-01 7.211200892925262451e-02 3.537260293960571289e-01
-6.693282127380371094e-01 1.147601827979087830e-01 -6.250907182693481445e-01
-8.680512905120849609e-01 3.105374276638031006e-01 -9.827823936939239502e-02
