2.999294549226760864e-02 6.794458627700805664e-01 -1.334439516067504883e-01
2.108327448368072510e-01 -3.381386399269104004e-01 -3.321841061115264893e-01
-3.222192525863647461e-01 -1.843557953834533691e-01 -1.784456372261047363e-01
-7.950930297374725342e-02 7.071658372879028320e-01 -1.009842753410339355e-01
-1.765303015708923340e-01 4.874580726027488708e-02 -2.385222315788269043e-01
-1.343313753604888916e-01 3.754824697971343994e-01 1.659507304430007935e-01
3.575240671634674072e-01 -2.971097826957702637e-01 1.495306342840194702e-01
3.563129603862762451e-01 -1.459662169218063354e-01 3.210429847240447998e-02
5.069923773407936096e-02 3.760565817356109619e-01 2.068086266517639160e-01
-2.428569495677947998e-01 -1.043523028492927551e-01 -2.488682866096496582e-01
3.787922114133834839e-02 6.184598803520202637e-01 1.423318088054656982e-01
-3.275406062602996826e-01 -1.563038975000381470e-01 1.179434508085250854e-01
8.675037324428558350e-02 -3.228986561298370361e-01 3.770920634269714355e-01
9.487619251012802124e-02 3.655101954936981201e-01 -2.015809714794158936e-01
-6.081958487629890442e-02 5.339547395706176758e-01 1.472994834184646606e-01
-4.834925830364227295e-01 -3.349956274032592773e-01 -1.490728408098220825e-01
-5.348363518714904785e-02 6.585760712623596191e-01 -1.319294273853302002e-01
-1.529423743486404419e-01 5.497638583183288574e-01 -3.921397775411605835e-02
4.096659123897552490e-01 -3.644883036613464355e-01 -2.555156052112579346e-01
4.454563558101654053e-01 -3.053797781467437744e-01 -1.285701394081115723e-01
-2.035152316093444824e-01 -3.053797781467437744e-01 -4.192137718200683594e-01
-2.581891417503356934e-01 -3.053797781467437744e-01 4.498522579669952393e-01
2.449292987585067749e-01 3.833352029323577881e-02 1.657587885856628418e-01
5.143982172012329102e-02 -3.053797781467437744e-01 -4.119503796100616455e-01
-5.902972444891929626e-02 1.140437647700309753e-01 -2.834920585155487061e-01
3.382542729377746582e-01 -2.523142695426940918e-01 -1.674759984016418457e-01
1.312768459320068359e-01 3.215193152427673340e-01 -1.934543102979660034e-01
2.602916955947875977e-01 -3.642158806324005127e-01 -2.938481867313385010e-01
3.771702051162719727e-01 -3.291420340538024902e-01 -4.870783686637878418e-01
1.650274544954299927e-02 7.460801005363464355e-01 1.112533733248710632e-01
-1.430958509445190430e-01 6.406206637620925903e-02 2.480227351188659668e-01
-1.637913435697555542e-01 -2.022149711847305298e-01 3.200001418590545654e-01
2.473641186952590942e-01 1.459554731845855713e-01 -1.085150018334388733e-01
-4.624719321727752686e-01 -3.053797781467437744e-01 -1.683686226606369019e-01
-4.220674932003021240e-01 -3.644883036613464355e-01 4.313250780105590820e-01
-1.500398814678192139e-01 5.767396092414855957e-01 3.290519351139664650e-03
-1.192824691534042358e-01 2.698082923889160156e-01 2.098058462142944336e-01
1.969622820615768433e-01 -3.500579297542572021e-01 4.812634587287902832e-01
-3.103234469890594482e-01 -4.862153530120849609e-02 -7.812889665365219116e-02
-2.901534736156463623e-01 -7.933955639600753784e-02 -1.788211315870285034e-01
4.476917088031768799e-01 -3.644883036613464355e-01 -3.338017165660858154e-01
-3.200534582138061523e-01 -7.399302721023559570e-02 1.019625291228294373e-01
2.920047752559185028e-02 2.624451816082000732e-01 -2.485497891902923584e-01
4.540683031082153320e-01 -3.053797781467437744e-01 1.858206391334533691e-01
2.679473161697387695e-01 -2.863823771476745605e-01 2.735015153884887695e-01
2.016181647777557373e-01 -6.428728997707366943e-02 2.527549266815185547e-01
-8.405774086713790894e-02 6.545848250389099121e-01 9.523808211088180542e-02
2.981004118919372559e-01 1.199229806661605835e-02 6.172946467995643616e-02
1.853765994310379028e-01 3.017474710941314697e-01 -1.504784226417541504e-01
2.880351245403289795e-01 -2.193860560655593872e-01 2.243644148111343384e-01
-2.296660095453262329e-02 5.505383014678955078e-01 1.527608335018157959e-01
-4.055853486061096191e-01 -3.644883036613464355e-01 1.429335922002792358e-01
1.456200182437896729e-01 2.607747614383697510e-01 1.848366558551788330e-01
-3.922093808650970459e-01 -3.053797781467437744e-01 9.109430015087127686e-02
2.117220014333724976e-01 3.251595050096511841e-02 -2.290277034044265747e-01
-1.917590154334902763e-03 3.498385548591613770e-01 2.092224955558776855e-01
-3.250509034842252731e-03 7.122583985328674316e-01 1.112986356019973755e-01
-3.343352675437927246e-02 -3.644883036613464355e-01 4.769872128963470459e-01
-3.575218915939331055e-01 -1.605340391397476196e-01 -4.659016057848930359e-02
-3.865845799446105957e-01 -2.680864930152893066e-01 4.166870936751365662e-02
-1.936510950326919556e-01 -3.644883036613464355e-01 4.489076733589172363e-01
-1.267436444759368896e-01 1.586468964815139771e-01 2.280732244253158569e-01
-2.363177388906478882e-01 -1.925654113292694092e-01 -2.726162970066070557e-01
-1.971595734357833862e-01 2.111857831478118896e-01 -1.728895902633666992e-01
-3.660489991307258606e-02 3.337662816047668457e-01 2.207335680723190308e-01
-2.295488566160202026e-01 -3.303196132183074951e-01 -4.873080253601074219e-01
3.481831401586532593e-02 3.376913368701934814e-01 2.203589379787445068e-01
1.208310350775718689e-01 -6.228749454021453857e-02 -3.040056526660919189e-01
-4.834925830364227295e-01 -3.423922657966613770e-01 -2.751659154891967773e-01
2.709143161773681641e-01 -1.766800433397293091e-01 -2.515578866004943848e-01
2.013491243124008179e-01 3.892657458782196045e-01 2.040848694741725922e-02
-1.990611292421817780e-02 -1.323169004172086716e-02 3.073231875896453857e-01
1.724138408899307251e-01 1.478065103292465210e-01 2.018233388662338257e-01
-2.269724160432815552e-01 7.603832334280014038e-02 1.699687987565994263e-01
1.710275560617446899e-01 -9.413937106728553772e-03 2.553347349166870117e-01
2.353434413671493530e-01 5.391882732510566711e-02 -1.955748200416564941e-01
-1.097140181809663773e-02 2.079420089721679688e-01 2.475626021623611450e-01
2.459602206945419312e-01 1.898928135633468628e-01 -7.600411027669906616e-02
-4.259774088859558105e-01 -3.503956794738769531e-01 -4.830737411975860596e-01
3.255630731582641602e-01 -3.644883036613464355e-01 4.483947753906250000e-01
1.544616073369979858e-01 5.856155157089233398e-01 -4.416607692837715149e-02
2.228159084916114807e-02 -8.664315193891525269e-02 -3.442609310150146484e-01
1.173586025834083557e-01 -3.053797781467437744e-01 3.934333920478820801e-01
1.293809562921524048e-01 -3.108880519866943359e-01 -4.795510172843933105e-01
-1.741642206907272339e-01 -3.971707820892333984e-02 2.743446826934814453e-01
5.698272958397865295e-02 2.267307937145233154e-01 2.467906624078750610e-01
2.731865644454956055e-01 1.023801341652870178e-01 9.940786659717559814e-02
1.028352156281471252e-01 -3.644883036613464355e-01 4.394324719905853271e-01
-4.724741727113723755e-02 -1.967318356037139893e-01 3.649205267429351807e-01
2.842927873134613037e-01 -1.792213022708892822e-01 -2.176976501941680908e-01
1.580195277929306030e-01 5.535673499107360840e-01 6.618065293878316879e-03
4.854644238948822021e-01 -3.558528721332550049e-01 1.604902148246765137e-01
-1.941045373678207397e-01 2.118082791566848755e-01 1.525479555130004883e-01
8.354221284389495850e-02 7.792144417762756348e-01 6.456281244754791260e-02
-3.235049545764923096e-01 -3.797792270779609680e-02 4.821286350488662720e-02
3.901757001876831055e-01 -3.295024335384368896e-01 -4.016376286745071411e-02
3.721924424171447754e-01 -3.053797781467437744e-01 -1.146963238716125488e-01
-1.075643599033355713e-01 4.854956865310668945e-01 -1.546574085950851440e-01
4.883126541972160339e-02 5.586398243904113770e-01 1.455645114183425903e-01
3.122759461402893066e-01 -3.053797781467437744e-01 -3.298733234405517578e-01
-2.181190997362136841e-01 -3.083032071590423584e-01 3.326988518238067627e-01
-2.295170128345489502e-01 2.072052806615829468e-01 -1.032070294022560120e-01
-2.298891395330429077e-01 -3.644883036613464355e-01 4.526483416557312012e-01
2.275000810623168945e-01 -3.644883036613464355e-01 3.891672194004058838e-01
-2.951990962028503418e-01 -2.795705571770668030e-02 -1.111953854560852051e-01
-2.456546574831008911e-01 2.219821214675903320e-01 1.085069775581359863e-02
-1.335711628198623657e-01 -3.609555065631866455e-01 -4.876944124698638916e-01
2.756029069423675537e-01 -2.369192242622375488e-01 -2.693089544773101807e-01
1.858090758323669434e-01 1.612770557403564453e-02 -2.441688030958175659e-01
8.945088088512420654e-02 1.696875244379043579e-01 -2.489428818225860596e-01
-1.048546358942985535e-01 -3.644883036613464355e-01 -4.343263804912567139e-01
-1.213962733745574951e-01 -3.053797781467437744e-01 4.146728217601776123e-01
3.160333633422851562e-01 -1.961861997842788696e-01 -1.780668050050735474e-01
-1.567768901586532593e-01 2.810788154602050781e-01 -1.864130496978759766e-01
-2.371282130479812622e-01 1.329078972339630127e-01 -1.550714522600173950e-01
-2.588604986667633057e-01 -3.644883036613464355e-01 -4.542339742183685303e-01
1.031855642795562744e-01 -2.414074838161468506e-01 -3.626842200756072998e-01
4.139329195022583008e-01 -3.644883036613464355e-01 2.535184621810913086e-01
5.398049205541610718e-02 3.275231271982192993e-02 3.008015751838684082e-01
-3.552815318107604980e-01 -3.053797781467437744e-01 2.856462299823760986e-01
2.552577853202819824e-01 -3.585407733917236328e-01 -4.876944124698638916e-01
2.345941513776779175e-01 1.916917115449905396e-01 1.240141317248344421e-01
1.046439334750175476e-01 5.630375742912292480e-01 -1.181746274232864380e-01
-3.091609477996826172e-01 -3.644883036613464355e-01 3.542274832725524902e-01
2.075664848089218140e-01 -2.009627968072891235e-01 2.937158942222595215e-01
-3.144253194332122803e-01 -3.374723792076110840e-01 4.812634587287902832e-01
1.021001636981964111e-01 -3.644883036613464355e-01 3.939622640609741211e-01
1.695331335067749023e-01 -3.644883036613464355e-01 4.032338261604309082e-01
3.085755407810211182e-01 -6.560066342353820801e-02 -1.083976626396179199e-01
5.557288229465484619e-02 7.239958047866821289e-01 9.327850490808486938e-02
1.391051262617111206e-01 2.267444580793380737e-01 -2.062938511371612549e-01
6.261120736598968506e-02 4.220992624759674072e-01 1.912761330604553223e-01
-1.896942108869552612e-01 3.862484097480773926e-01 -7.271271198987960815e-02
3.885253667831420898e-01 -3.053797781467437744e-01 1.607106477022171021e-01
-3.452455997467041016e-01 -3.644883036613464355e-01 -3.169986009597778320e-01
-4.473760724067687988e-01 -3.053797781467437744e-01 6.317760795354843140e-02
-3.490549623966217041e-01 -3.602589964866638184e-01 -1.750880330801010132e-01
3.610786497592926025e-01 -3.644883036613464355e-01 2.638745903968811035e-01
-2.713882327079772949e-01 -5.484979599714279175e-02 1.699067652225494385e-01
1.433226615190505981e-01 -3.477018773555755615e-01 4.812634587287902832e-01
-3.439531922340393066e-01 -2.987977862358093262e-01 -2.041674852371215820e-01
-1.084134131669998169e-01 3.650667965412139893e-01 -1.800071150064468384e-01
3.557165618985891342e-03 6.495324969291687012e-01 1.389649659395217896e-01
3.791423439979553223e-01 -3.644883036613464355e-01 1.433358937501907349e-01
8.755835145711898804e-02 5.464758276939392090e-01 1.424466222524642944e-01
2.954753339290618896e-01 4.960992932319641113e-02 -2.111921494361013174e-04
1.292208731174468994e-01 -2.355596236884593964e-02 -2.895325720310211182e-01
3.436628282070159912e-01 -1.301261186599731445e-01 6.372572388499975204e-03
-1.595987565815448761e-02 6.362621188163757324e-01 -1.476480066776275635e-01
-1.466965228319168091e-01 1.612151116132736206e-01 -2.337422817945480347e-01
3.229725733399391174e-02 -2.430712133646011353e-01 -3.865227401256561279e-01
-4.188598692417144775e-01 -3.644883036613464355e-01 -1.107394397258758545e-01
4.608740508556365967e-01 -3.644883036613464355e-01 3.893164396286010742e-01
-2.135025858879089355e-01 3.432431817054748535e-01 2.551216864958405495e-03
6.183273717761039734e-02 -4.770291969180107117e-02 3.215029239654541016e-01
-2.503298521041870117e-01 -3.053797781467437744e-01 3.653991222381591797e-01
-4.834925830364227295e-01 -3.559392094612121582e-01 -2.156961709260940552e-01
3.239940702915191650e-01 -3.083082735538482666e-01 -4.760375022888183594e-01
2.659969329833984375e-01 -2.434743642807006836e-01 2.740555405616760254e-01
-9.987922385334968567e-03 9.632518887519836426e-01 -5.855049192905426025e-02
1.664294898509979248e-01 1.199028119444847107e-01 -2.233593165874481201e-01
-1.845764964818954468e-01 3.670004308223724365e-01 -1.190756335854530334e-01
3.906651735305786133e-01 -3.501593470573425293e-01 2.620710805058479309e-02
-3.432348668575286865e-01 -1.491318941116333008e-01 4.512815549969673157e-02
-1.870205402374267578e-01 4.646150171756744385e-01 -4.247486591339111328e-02
1.278984639793634415e-02 2.764019668102264404e-01 2.290655672550201416e-01
2.986544370651245117e-01 2.057741768658161163e-02 -5.687612667679786682e-02
-1.267704665660858154e-01 -2.869439125061035156e-01 3.596225976943969727e-01
-1.023561358451843262e-01 -3.393539488315582275e-01 -3.691949248313903809e-01
4.845810234546661377e-01 -3.644883036613464355e-01 -2.727026045322418213e-01
-2.674129009246826172e-01 -2.910047471523284912e-01 -2.947299182415008545e-01
-3.403315544128417969e-01 -3.053797781467437744e-01 3.216738998889923096e-01
3.289240300655364990e-01 -8.536663651466369629e-02 -4.069020226597785950e-02
-1.842052042484283447e-01 -2.279016226530075073e-01 3.280991315841674805e-01
1.863890737295150757e-01 -1.738655567169189453e-01 -3.171570003032684326e-01
-2.105506360530853271e-01 2.628935575485229492e-01 -1.306705325841903687e-01
-8.203572034835815430e-02 -2.946822717785835266e-02 3.123109936714172363e-01
1.791619323194026947e-02 1.051335260272026062e-01 -2.817487120628356934e-01
3.520199656486511230e-01 -3.552158772945404053e-01 -1.749095171689987183e-01
-2.832387685775756836e-01 1.150285005569458008e-01 3.444968163967132568e-02
1.466442346572875977e-01 -3.068549036979675293e-01 -3.763392567634582520e-01
-4.696496203541755676e-02 5.765350461006164551e-01 1.517416536808013916e-01
-3.343262374401092529e-01 -3.644883036613464355e-01 3.077825009822845459e-01
-3.277007043361663818e-01 -2.120874971151351929e-01 -1.602679491043090820e-01
1.809872388839721680e-01 4.729162156581878662e-02 2.436358779668807983e-01
-2.667851448059082031e-01 -2.146932929754257202e-01 -2.673996686935424805e-01
4.742412362247705460e-03 -3.644883036613464355e-01 4.309001564979553223e-01
1.603269577026367188e-01 -1.277407556772232056e-01 2.996759712696075439e-01
2.643759548664093018e-01 2.034801393747329712e-01 -6.812876090407371521e-03
5.466743558645248413e-02 8.400034308433532715e-01 6.909441202878952026e-02
-3.156901001930236816e-01 -3.162907361984252930e-01 -4.833117425441741943e-01
2.018427848815917969e-01 2.627594470977783203e-01 1.217025294899940491e-01
1.472083032131195068e-01 -1.800242513418197632e-01 3.214970529079437256e-01
-9.246183186769485474e-02 1.806687712669372559e-01 -2.438209801912307739e-01
2.899041771888732910e-01 -2.718512713909149170e-02 -1.520558148622512817e-01
1.509699076414108276e-01 4.532539248466491699e-01 1.039288192987442017e-01
1.983996927738189697e-01 1.672009974718093872e-01 1.855197399854660034e-01
1.469635665416717529e-01 -1.817860454320907593e-01 -3.285088539123535156e-01
2.121327072381973267e-01 -3.644883036613464355e-01 4.540153741836547852e-01
-1.144304499030113220e-01 5.308879613876342773e-01 1.272711604833602905e-01
-4.548439681529998779e-01 -3.644883036613464355e-01 -9.486078470945358276e-02
1.617970615625381470e-01 -6.934969127178192139e-02 -2.991377115249633789e-01
1.328056156635284424e-01 6.749466657638549805e-01 -3.186470270156860352e-02
-1.008365750312805176e-01 -3.644883036613464355e-01 4.276456236839294434e-01
-1.141572222113609314e-01 4.960940480232238770e-01 1.257541179656982422e-01
-5.816810950636863708e-02 8.063293099403381348e-01 7.642675936222076416e-02
9.009206295013427734e-02 7.116817831993103027e-01 6.854014843702316284e-02
-2.860809266567230225e-01 5.392805486917495728e-02 -6.186887621879577637e-02
-4.203601479530334473e-01 -3.053797781467437744e-01 -6.407839804887771606e-02
-3.797143101692199707e-01 -3.583203554153442383e-01 -1.688436418771743774e-02
-2.160564064979553223e-01 2.769635319709777832e-01 -8.794105798006057739e-02
-3.313162550330162048e-02 4.435624778270721436e-01 1.803274303674697876e-01
-2.838020026683807373e-01 1.956158503890037537e-02 -1.042983010411262512e-01
-4.046801328659057617e-01 -3.753238022327423096e-01 3.762338161468505859e-01
3.554044067859649658e-01 -1.802698373794555664e-01 2.657086402177810669e-02
-1.825926154851913452e-01 -3.357021808624267578e-01 -3.476537466049194336e-01
-4.522909820079803467e-01 -3.644883036613464355e-01 2.167984694242477417e-01
8.419302850961685181e-02 2.462351173162460327e-01 -2.402789741754531860e-01
2.027672827243804932e-01 2.734097540378570557e-01 -1.200830861926078796e-01
3.117429018020629883e-01 -3.005076348781585693e-01 2.293840795755386353e-01
3.564395010471343994e-01 -1.546921432018280029e-01 -6.271498650312423706e-02
-1.057137399911880493e-01 3.119376301765441895e-01 1.923011690378189087e-01
1.858065724372863770e-01 3.414445221424102783e-01 1.256803721189498901e-01
1.021437495946884155e-01 6.056547164916992188e-01 9.846326708793640137e-02
2.703133821487426758e-01 -1.281891465187072754e-01 2.246166914701461792e-01
3.431917726993560791e-01 -3.232263922691345215e-01 1.839850991964340210e-01
1.374506205320358276e-01 5.066085457801818848e-01 -1.042882427573204041e-01
-4.018346369266510010e-01 -3.866228461265563965e-01 -3.607992231845855713e-01
-1.845341990701854229e-03 8.824236989021301270e-01 -7.169780135154724121e-02
8.662129938602447510e-02 7.199215888977050781e-01 -9.173114597797393799e-02
-2.605686187744140625e-01 1.337768137454986572e-01 1.029532179236412048e-01
2.943063154816627502e-02 7.989636659622192383e-01 8.333390951156616211e-02
4.026397466659545898e-01 -3.881206214427947998e-01 -3.857398927211761475e-01
-2.895734608173370361e-01 -6.744441576302051544e-03 1.299071311950683594e-01
7.140990346670150757e-03 3.883488178253173828e-01 2.095275819301605225e-01
3.957275450229644775e-01 -3.188378810882568359e-01 -6.997368764132261276e-03
-3.682005032896995544e-02 8.343577384948730469e-01 -8.745326101779937744e-02
-1.175592541694641113e-01 -3.279216587543487549e-01 4.804110229015350342e-01
-1.746092736721038818e-01 -2.806000113487243652e-01 3.507164716720581055e-01
4.854644238948822021e-01 -3.500277400016784668e-01 -3.758296668529510498e-01
-2.811205759644508362e-02 1.581270396709442139e-01 2.707172036170959473e-01
-5.734714865684509277e-02 -3.246923387050628662e-01 4.797798991203308105e-01
-4.594258964061737061e-02 2.207546383142471313e-01 -2.457135170698165894e-01
1.833692342042922974e-01 3.973756432533264160e-01 -8.458378165960311890e-02
-1.140524446964263916e-01 -8.626429736614227295e-02 3.063987195491790771e-01
2.070719897747039795e-01 -3.644883036613464355e-01 -3.848447799682617188e-01
-3.228679597377777100e-01 -3.150544464588165283e-01 2.346769571304321289e-01
-7.657889276742935181e-02 -3.135525286197662354e-01 -4.815809726715087891e-01
-1.442307084798812866e-01 -3.053797781467437744e-01 -4.654198884963989258e-01
1.933079659938812256e-01 -3.613343536853790283e-01 3.241573274135589600e-01
-1.600942760705947876e-01 -1.146832853555679321e-01 -3.008341193199157715e-01
1.183551624417304993e-01 6.265815496444702148e-01 -9.339486807584762573e-02
6.807677447795867920e-03 8.176468014717102051e-01 -9.975220263004302979e-02
-3.709841966629028320e-01 -3.767629265785217285e-01 -4.101676344871520996e-01
1.301076263189315796e-01 6.016005873680114746e-01 8.228204399347305298e-02
3.085103817284107208e-02 -3.644883036613464355e-01 -4.203947186470031738e-01
3.217461705207824707e-01 -1.321569383144378662e-01 1.453482806682586670e-01
-1.667675822973251343e-01 4.919067025184631348e-01 7.418907433748245239e-02
2.721254527568817139e-01 -6.212068721652030945e-02 1.925568133592605591e-01
-4.653909802436828613e-02 4.165247380733489990e-01 1.960493624210357666e-01
2.059128284454345703e-01 -2.993927523493766785e-02 2.507534325122833252e-01
3.333234488964080811e-01 -3.395945131778717041e-01 -2.082517743110656738e-01
3.494686484336853027e-01 -3.254936039447784424e-01 4.799358248710632324e-01
1.111688986420631409e-01 4.595383405685424805e-01 1.555250436067581177e-01
4.957469925284385681e-02 9.738879203796386719e-01 2.046480961143970490e-02
1.238315999507904053e-01 1.209064200520515442e-01 2.431262880563735962e-01
-1.679586023092269897e-01 -3.319866955280303955e-01 3.373128771781921387e-01
-1.239291504025459290e-01 -3.053797781467437744e-01 4.507281184196472168e-01
3.621489405632019043e-01 -3.644883036613464355e-01 2.960375547409057617e-01
-3.963146209716796875e-01 -3.644883036613464355e-01 -2.048597931861877441e-01
4.030724242329597473e-02 2.988676130771636963e-01 2.192165255546569824e-01
1.010692492127418518e-01 2.312292754650115967e-01 2.202013432979583740e-01
1.153470575809478760e-01 7.108629345893859863e-01 -1.267226599156856537e-02
-5.609403923153877258e-02 1.937962174415588379e-01 -2.512410581111907959e-01
-2.575630545616149902e-01 1.724814176559448242e-01 -8.443199098110198975e-02
-4.561305046081542969e-01 -3.479256927967071533e-01 4.600944221019744873e-01
-3.064352869987487793e-01 -3.644883036613464355e-01 -2.704245448112487793e-01
-1.053826734423637390e-01 -3.053797781467437744e-01 3.868866562843322754e-01
-4.289888739585876465e-01 -3.644883036613464355e-01 -2.385406643152236938e-01
-9.713783860206604004e-02 4.284054338932037354e-01 1.730204820632934570e-01
2.533526718616485596e-01 2.207427620887756348e-01 5.132699012756347656e-02
-2.055485695600509644e-01 3.343295156955718994e-01 9.185030311346054077e-02
-1.131003126502037048e-01 4.700078442692756653e-02 2.681508064270019531e-01
1.555461734533309937e-01 2.640420570969581604e-02 -2.599192261695861816e-01
-3.710227310657501221e-01 -3.598725795745849609e-01 -4.876944124698638916e-01
-2.524545192718505859e-01 6.339322775602340698e-02 -1.443423628807067871e-01
2.237015962600708008e-01 -1.130757331848144531e-01 -2.568708956241607666e-01
2.158406376838684082e-01 3.231578767299652100e-01 4.297076910734176636e-02
-2.004803121089935303e-01 -3.194580972194671631e-01 4.787598848342895508e-01
-3.166019916534423828e-01 -6.741081830114126205e-03 3.118694759905338287e-02
-1.587138473987579346e-01 2.611669898033142090e-01 1.855214089155197144e-01
-4.704376459121704102e-01 -3.644883036613464355e-01 2.855288982391357422e-01
1.364171952009201050e-01 1.881243139505386353e-01 2.138507068157196045e-01
-4.211075976490974426e-02 1.405517905950546265e-01 -2.793499529361724854e-01
4.658786356449127197e-01 -3.053998947143554688e-01 -3.212664425373077393e-01
-2.721434235572814941e-01 -2.618020772933959961e-01 2.733330428600311279e-01
-2.787672579288482666e-01 -3.437995016574859619e-01 4.812634587287902832e-01
5.187473446130752563e-02 5.162422060966491699e-01 -1.630790829658508301e-01
-2.021482139825820923e-01 -8.691889047622680664e-02 -2.651349902153015137e-01
-1.430866271257400513e-01 -2.304185628890991211e-01 3.369222879409790039e-01
-5.509429797530174255e-02 6.138467192649841309e-01 1.378569304943084717e-01
1.202099621295928955e-01 -1.294011175632476807e-01 -3.351637125015258789e-01
3.103314638137817383e-01 -2.088908255100250244e-01 1.901278644800186157e-01
3.725352585315704346e-01 -3.053797781467437744e-01 -1.763050258159637451e-01
5.742124095559120178e-02 8.105326294898986816e-01 -7.057787477970123291e-02
-2.769895493984222412e-01 -3.053797781467437744e-01 4.040325880050659180e-01
8.848784863948822021e-02 9.245693683624267578e-03 -2.958077788352966309e-01
4.578140079975128174e-01 -3.053797781467437744e-01 -1.907496154308319092e-01
-2.945461869239807129e-01 -3.053797781467437744e-01 3.425621688365936279e-01
-1.037885248661041260e-01 -1.237905845046043396e-01 3.327181637287139893e-01
3.309431076049804688e-01 -3.644883036613464355e-01 -4.194593131542205811e-01
3.058918118476867676e-01 -2.247543781995773315e-01 -2.272650897502899170e-01
3.848082125186920166e-01 -2.395040541887283325e-01 -5.049594677984714508e-03
3.746523857116699219e-01 -2.605431973934173584e-01 -6.044352427124977112e-02
-3.917718827724456787e-01 -2.961157262325286865e-01 -7.422279566526412964e-02
-4.834925830364227295e-01 -3.346410691738128662e-01 3.433324098587036133e-01
-3.213324844837188721e-01 -3.475560545921325684e-01 2.169434726238250732e-01
2.358454912900924683e-01 1.045526042580604553e-01 -1.544705033302307129e-01
2.285863310098648071e-01 2.490046769380569458e-01 7.224985957145690918e-02
2.489021122455596924e-01 -3.644883036613464355e-01 3.362836241722106934e-01
-3.870495781302452087e-02 8.881632685661315918e-01 6.259895116090774536e-02
-3.830817714333534241e-02 6.926433444023132324e-01 1.213521882891654968e-01
2.905285954475402832e-01 -2.537795808166265488e-03 -1.095115616917610168e-01
-1.308914367109537125e-02 1.916126757860183716e-01 -2.583820819854736328e-01
9.150852262973785400e-02 1.560721173882484436e-02 2.978596985340118408e-01
2.696925215423107147e-02 5.104036927223205566e-01 1.634413152933120728e-01
2.790958387777209282e-03 6.186669468879699707e-01 1.473036706447601318e-01
4.163777828216552734e-01 -3.644883036613464355e-01 -3.344202637672424316e-01
4.401184618473052979e-02 1.388055831193923950e-01 -2.798494994640350342e-01
2.928695380687713623e-01 -3.053797781467437744e-01 -3.052980899810791016e-01
6.471855938434600830e-02 1.715452969074249268e-01 2.497225105762481689e-01
1.985421776771545410e-01 -4.649431630969047546e-02 -2.554602921009063721e-01
4.669288396835327148e-01 -3.066101670265197754e-01 4.209597408771514893e-01
3.880752921104431152e-01 -3.053797781467437744e-01 -2.777700424194335938e-01
-4.798852205276489258e-01 -3.175178170204162598e-01 8.941885083913803101e-02
3.630004823207855225e-01 -3.644883036613464355e-01 1.989275515079498291e-01
5.089109018445014954e-02 -1.523277461528778076e-01 3.415220379829406738e-01
5.204705893993377686e-02 5.472980141639709473e-01 -1.540128737688064575e-01
3.968280255794525146e-01 -3.932039737701416016e-01 3.463648259639739990e-01
1.437157541513442993e-01 6.075178980827331543e-01 5.439611151814460754e-02
-1.175783388316631317e-02 8.201394081115722656e-01 8.058940619230270386e-02
-1.668363213539123535e-01 3.435206413269042969e-01 -1.536323577165603638e-01
2.602061927318572998e-01 1.757726520299911499e-01 1.075707841664552689e-02
-1.862821280956268311e-01 4.054821729660034180e-01 8.739891648292541504e-02
-2.279119640588760376e-01 3.207532465457916260e-01 2.876596711575984955e-02
2.970016002655029297e-01 -3.644883036613464355e-01 -2.549582421779632568e-01
-2.272355854511260986e-01 2.906487584114074707e-01 -1.484222337603569031e-02
-1.241219267249107361e-01 4.160604178905487061e-01 1.459358185529708862e-01
2.326253354549407959e-01 3.143523335456848145e-01 -2.460770308971405029e-02
-3.356672525405883789e-01 -2.629109323024749756e-01 -1.989944428205490112e-01
-5.025497521273791790e-04 -3.644883036613464355e-01 -4.230993986129760742e-01
-3.792742788791656494e-01 -3.053797781467437744e-01 3.279451280832290649e-02
3.669766783714294434e-01 -3.053797781467437744e-01 -2.325755804777145386e-01
2.401068247854709625e-02 -3.569575250148773193e-01 3.860845267772674561e-01
4.825619459152221680e-01 -3.186224699020385742e-01 4.894506558775901794e-02
4.106735438108444214e-02 9.466817378997802734e-01 -3.394439443945884705e-02
-2.374970018863677979e-01 -7.429391890764236450e-02 2.218860238790512085e-01
-2.696884870529174805e-01 7.748244702816009521e-02 -9.666698426008224487e-02
-3.236985504627227783e-01 -3.644883036613464355e-01 -4.747417271137237549e-01
-2.206729203462600708e-01 1.514841318130493164e-01 1.621480584144592285e-01
8.398073166608810425e-02 1.203631311655044556e-01 -2.768321633338928223e-01
-3.907342553138732910e-01 -3.644883036613464355e-01 3.101762533187866211e-01
-1.703498214483261108e-01 -3.053797781467437744e-01 4.009071290493011475e-01
-2.180176526308059692e-01 -3.270475268363952637e-01 -3.127743303775787354e-01
-7.674669474363327026e-02 -2.383122295141220093e-01 -3.664064109325408936e-01
2.243922352790832520e-01 8.385752327740192413e-03 2.054206579923629761e-01
1.644372195005416870e-01 5.513269901275634766e-01 3.663690388202667236e-02
-1.361627131700515747e-01 -3.644883036613464355e-01 4.138590097427368164e-01
3.816760480403900146e-01 -3.455227315425872803e-01 -1.378448400646448135e-02
3.130780756473541260e-01 -2.572256326675415039e-02 -3.693833202123641968e-02
3.131551742553710938e-01 -3.270263969898223877e-02 -9.883023798465728760e-02
4.203849732875823975e-01 -3.053797781467437744e-01 -2.904285490512847900e-01
-2.780647203326225281e-02 5.792363882064819336e-01 -1.503585577011108398e-01
-3.257771432399749756e-01 -3.644883036613464355e-01 2.599311172962188721e-01
2.007724791765213013e-01 1.372875422239303589e-01 -1.862194389104843140e-01
-2.223064452409744263e-01 -4.364964365959167480e-02 -2.309353202581405640e-01
-2.783733606338500977e-01 9.769565612077713013e-02 -2.831918001174926758e-02
-1.555967926979064941e-01 2.799751982092857361e-02 -2.706734836101531982e-01
-2.269001305103302002e-02 8.810920268297195435e-02 -2.863484621047973633e-01
1.825327724218368530e-01 1.017711386084556580e-01 -2.158386707305908203e-01
1.325525045394897461e-01 3.495477437973022461e-01 -1.837351769208908081e-01
3.750949501991271973e-01 -2.247745096683502197e-01 -6.672458350658416748e-02
-3.416197896003723145e-01 -2.092084735631942749e-01 1.481426507234573364e-01
1.441138684749603271e-01 4.455254077911376953e-01 -1.228841543197631836e-01
2.047855257987976074e-01 4.238258302211761475e-01 -2.104788552969694138e-03
-8.701472729444503784e-02 2.519842684268951416e-01 2.188586443662643433e-01
-1.853258013725280762e-01 -1.322851777076721191e-01 -3.033317923545837402e-01
2.136281505227088928e-02 9.433140754699707031e-01 -6.220069900155067444e-02
-2.965424396097660065e-02 3.213793635368347168e-01 -2.318522632122039795e-01
2.612664401531219482e-01 -3.053797781467437744e-01 4.577894806861877441e-01
-1.396779119968414307e-01 4.000199735164642334e-01 -1.440263837575912476e-01
-2.247905172407627106e-02 1.271283775568008423e-01 2.693979740142822266e-01
-2.162156403064727783e-01 3.722421824932098389e-01 -1.053906790912151337e-02
-2.057237476110458374e-01 -2.661872804164886475e-01 -3.207995891571044922e-01
-4.991053789854049683e-02 -7.595092803239822388e-02 -3.267001211643218994e-01
5.116549506783485413e-02 1.367829740047454834e-01 2.726625204086303711e-01
-5.639191344380378723e-02 9.103833436965942383e-01 3.839331865310668945e-02
1.226556748151779175e-01 2.880153059959411621e-01 1.905586719512939453e-01
-2.983899414539337158e-01 -3.053797781467437744e-01 2.990163266658782959e-01
-4.166983067989349365e-01 -3.644883036613464355e-01 -4.267654716968536377e-01
-3.571782708168029785e-01 -3.957066535949707031e-01 3.431648015975952148e-01
-2.390349805355072021e-01 -1.586314290761947632e-01 2.513242065906524658e-01
2.160300761461257935e-01 -7.009313255548477173e-02 -2.626188993453979492e-01
-6.453935801982879639e-02 -8.151690475642681122e-03 -3.161319494247436523e-01
-2.377727329730987549e-01 -1.368103176355361938e-01 -2.653713524341583252e-01
1.628816127777099609e-01 3.755897581577301025e-01 -1.471157819032669067e-01
-1.039536297321319580e-01 6.059321761131286621e-01 1.093817949295043945e-01
-1.790925115346908569e-01 -3.053797781467437744e-01 -3.932605981826782227e-01
2.447206079959869385e-01 -3.053797781467437744e-01 -3.272608220577239990e-01
-4.768008589744567871e-01 -3.644883036613464355e-01 1.684972271323204041e-02
-3.924549520015716553e-01 -3.644883036613464355e-01 9.142704308032989502e-02
1.310036033391952515e-01 6.337124705314636230e-01 -4.116560146212577820e-02
2.335196435451507568e-01 -3.161155581474304199e-01 3.249275982379913330e-01
-2.331000864505767822e-01 -3.644883036613464355e-01 3.635191619396209717e-01
1.730516701936721802e-01 4.860028028488159180e-01 3.223697468638420105e-02
-3.264585733413696289e-01 -3.512571007013320923e-02 -1.438300404697656631e-02
-1.633697450160980225e-01 -6.091544032096862793e-02 -2.816481292247772217e-01
-4.254250824451446533e-01 -3.644883036613464355e-01 4.014552831649780273e-01
-1.275197565555572510e-01 -1.698812004178762436e-03 2.766772508621215820e-01
3.531682193279266357e-01 -3.085680305957794189e-01 -1.406386047601699829e-01
-4.547970294952392578e-01 -3.053797781467437744e-01 -4.204676151275634766e-01
-1.540546119213104248e-01 3.569007813930511475e-01 1.402808576822280884e-01
3.553599715232849121e-01 -3.053797781467437744e-01 -3.142360448837280273e-01
9.912055730819702148e-02 1.101018860936164856e-01 2.675322592258453369e-01
-9.114594012498855591e-02 3.901659250259399414e-01 -1.828274577856063843e-01
3.081673681735992432e-01 -1.320764869451522827e-01 1.725687235593795776e-01
6.040931493043899536e-02 -2.592088282108306885e-01 3.800482153892517090e-01
-4.812698364257812500e-01 -3.209097683429718018e-01 2.674894928932189941e-01
-1.907341741025447845e-02 -3.066259436309337616e-02 -3.184401988983154297e-01
-2.141027003526687622e-01 3.533504009246826172e-01 5.100866034626960754e-02
-2.833720445632934570e-01 -1.326698809862136841e-01 -2.131004333496093750e-01
-3.934749662876129150e-01 -3.644883036613464355e-01 4.399914741516113281e-01
1.192368865013122559e-01 7.258279919624328613e-01 2.278764545917510986e-02
-2.630034089088439941e-01 4.227197170257568359e-02 1.530198305845260620e-01
4.293724000453948975e-01 -3.644883036613464355e-01 -2.089155763387680054e-01
-2.951806783676147461e-01 -3.644883036613464355e-01 2.477034181356430054e-01
-5.349713191390037537e-02 -2.673958539962768555e-01 -3.787640035152435303e-01
-2.733402848243713379e-01 -3.644883036613464355e-01 -2.929262220859527588e-01
-3.419432938098907471e-01 -9.471448510885238647e-02 -2.186252735555171967e-02
5.782900005578994751e-02 6.875917911529541016e-01 1.036069691181182861e-01
4.823876023292541504e-01 -3.395031690597534180e-01 4.159878492355346680e-01
-3.839637339115142822e-01 -2.492827177047729492e-01 1.485594268888235092e-02
-2.728732302784919739e-02 2.370037734508514404e-01 2.383178472518920898e-01
2.865306735038757324e-01 4.245803505182266235e-02 -7.865642011165618896e-02
2.124964445829391479e-01 3.441911339759826660e-01 -8.016055822372436523e-02
3.447274491190910339e-02 7.152916789054870605e-01 -1.226570233702659607e-01
2.469827830791473389e-01 -3.644883036613464355e-01 4.637227356433868408e-01
2.847722172737121582e-01 -2.308401614427566528e-01 2.515555322170257568e-01
8.116296678781509399e-02 -3.644883036613464355e-01 3.729206323623657227e-01
4.632284343242645264e-01 -3.644883036613464355e-01 -1.131767705082893372e-01
1.695834249258041382e-01 -3.053797781467437744e-01 -3.628015518188476562e-01
1.380431950092315674e-01 9.179779887199401855e-02 -2.499997764825820923e-01
1.452421955764293671e-02 -3.644883036613464355e-01 -4.626271724700927734e-01
2.608046233654022217e-01 5.545766279101371765e-02 -1.363959014415740967e-01
-4.821021258831024170e-01 -3.251725733280181885e-01 2.130486220121383667e-01
-3.076388537883758545e-01 -1.541775315999984741e-01 1.827840358018875122e-01
1.290046274662017822e-01 6.659919619560241699e-01 4.848593100905418396e-02
2.564052045345306396e-01 1.473724395036697388e-01 7.490200549364089966e-02
-1.968762874603271484e-01 1.385616064071655273e-01 -1.874892413616180420e-01
4.854644238948822021e-01 -3.596463203430175781e-01 3.682465106248855591e-02
2.612614035606384277e-01 -3.644883036613464355e-01 4.363858103752136230e-01
3.089937865734100342e-01 -3.644883036613464355e-01 3.506787717342376709e-01
3.238683640956878662e-01 -6.172509863972663879e-02 1.957704685628414154e-02
2.775348424911499023e-01 1.246790736913681030e-01 6.141481921076774597e-02
-1.268785893917083740e-01 -3.201529085636138916e-01 -3.717789351940155029e-01
3.705287277698516846e-01 -3.342706561088562012e-01 -1.280194818973541260e-01
3.817598819732666016e-01 -2.897047400474548340e-01 6.277898699045181274e-02
1.649384200572967529e-01 -2.449947446584701538e-01 -3.398615121841430664e-01
3.064793646335601807e-01 -3.053797781467437744e-01 -4.337933361530303955e-01
-4.346823692321777344e-01 -3.644883036613464355e-01 -2.428557258099317551e-03
-4.325375854969024658e-01 -3.053797781467437744e-01 1.699368003755807877e-03
3.085573017597198486e-02 8.813440799713134766e-01 5.863695964217185974e-02
1.956237703561782837e-01 -1.494788974523544312e-01 -3.036695718765258789e-01
-4.398744925856590271e-02 -2.728513479232788086e-01 3.756378889083862305e-01
1.094860956072807312e-02 -2.442345470190048218e-01 3.697390258312225342e-01
-1.578765362501144409e-01 -2.243638187646865845e-01 -3.358451426029205322e-01
-3.893504738807678223e-01 -3.053797781467437744e-01 -4.463705420494079590e-01
-4.323783218860626221e-01 -3.053797781467437744e-01 2.505841255187988281e-01
-2.790254056453704834e-01 -1.759089529514312744e-01 2.318607866764068604e-01
-1.479579359292984009e-01 4.655092954635620117e-01 9.977245330810546875e-02
5.005763471126556396e-02 4.810451865196228027e-01 1.779110580682754517e-01
-1.577407717704772949e-01 3.094240427017211914e-01 1.687635481357574463e-01
-7.643608003854751587e-02 3.498980700969696045e-01 -2.009917497634887695e-01
1.136120855808258057e-01 4.908363819122314453e-01 1.299934685230255127e-01
-1.425158530473709106e-01 5.722646713256835938e-01 -5.471605807542800903e-02
-2.740501761436462402e-01 -2.383155822753906250e-01 2.485415488481521606e-01
-1.094133183360099792e-01 7.157484292984008789e-01 -2.797411568462848663e-02
-1.993781477212905884e-01 -1.554647693410515785e-03 2.300386726856231689e-01
5.730692297220230103e-02 6.634850502014160156e-01 -1.180170476436614990e-01
-2.589317262172698975e-01 1.022422611713409424e-01 -1.077782809734344482e-01
2.960972487926483154e-01 -2.511274516582489014e-01 2.279365807771682739e-01
4.854644238948822021e-01 -3.384236395359039307e-01 1.370816528797149658e-01
-3.462664484977722168e-01 -3.053797781467437744e-01 2.089567929506301880e-01
-3.641935586929321289e-01 -3.685784041881561279e-01 4.046804606914520264e-01
1.988514512777328491e-01 1.703689396381378174e-01 -1.903573572635650635e-01
2.967509925365447998e-01 -1.067929938435554504e-01 -1.862202733755111694e-01
-4.964090883731842041e-02 2.667325176298618317e-02 2.920756638050079346e-01
2.874668538570404053e-01 -3.644883036613464355e-01 -4.572446048259735107e-01
-1.849142760038375854e-01 4.207557141780853271e-01 4.866068437695503235e-02
-1.104995533823966980e-01 1.946146637201309204e-01 2.263851910829544067e-01
-1.628903299570083618e-01 1.228165403008460999e-01 2.295424938201904297e-01
-1.513825953006744385e-01 4.957034587860107422e-01 -1.057223081588745117e-01
-1.062258556485176086e-01 -3.053797781467437744e-01 -4.643219113349914551e-01
-2.355089187622070312e-01 7.232031226158142090e-02 -1.844501197338104248e-01
6.282805465161800385e-03 3.572636842727661133e-01 -2.243324220180511475e-01
8.165671676397323608e-02 -3.098169267177581787e-01 -4.780926406383514404e-01
-5.743421148508787155e-03 2.335000038146972656e-02 -3.145444989204406738e-01
2.770503759384155273e-01 -1.035443469882011414e-01 2.046319693326950073e-01
-3.333196341991424561e-01 -7.733052223920822144e-02 -6.396205723285675049e-02
-2.235033214092254639e-01 -1.535019874572753906e-01 -2.844827473163604736e-01
-4.213650822639465332e-01 -3.053797781467437744e-01 -2.386764436960220337e-01
-1.034993603825569153e-01 3.051344156265258789e-01 -2.147683501243591309e-01
-4.536278545856475830e-01 -3.629091978073120117e-01 -4.681974947452545166e-01
-1.376261264085769653e-01 2.181946039199829102e-01 -2.086959779262542725e-01
4.509891942143440247e-02 7.726534605026245117e-01 -9.082762897014617920e-02
-4.832470417022705078e-01 -3.644883036613464355e-01 4.889293387532234192e-02
2.251641750335693359e-01 -2.606655359268188477e-01 -3.208029270172119141e-01
-2.504547238349914551e-01 -1.006141975522041321e-01 2.181705236434936523e-01
-1.525350511074066162e-01 6.044210195541381836e-01 1.109032519161701202e-02
-7.253987342119216919e-02 8.860276937484741211e-01 -2.959207259118556976e-02
-7.434976100921630859e-02 7.638747692108154297e-01 -6.971970200538635254e-02
3.221836686134338379e-01 -2.922091484069824219e-01 -2.182407975196838379e-01
-3.039644360542297363e-01 -8.325956016778945923e-02 -1.538083702325820923e-01
-2.876046597957611084e-01 -2.025366947054862976e-02 -1.484609991312026978e-01
3.455528318881988525e-01 -1.082932651042938232e-01 3.784106671810150146e-02
-2.364694327116012573e-01 9.383331984281539917e-02 1.494048982858657837e-01
6.677628308534622192e-02 6.462410688400268555e-01 1.110731661319732666e-01
7.601113617420196533e-02 5.013215541839599609e-01 -1.580518931150436401e-01
2.373805269598960876e-03 -1.553760915994644165e-01 3.457295298576354980e-01
-3.085413575172424316e-02 7.716326117515563965e-01 -9.644319862127304077e-02
2.247174382209777832e-01 -3.097490370273590088e-01 -4.780004322528839111e-01
1.374908536672592163e-01 -3.644883036613464355e-01 4.564107656478881836e-01
-8.510543406009674072e-02 6.429328918457031250e-01 -1.049512028694152832e-01
1.045173779129981995e-01 4.161819517612457275e-01 1.734571456909179688e-01
-5.903442203998565674e-02 5.517939850687980652e-02 -2.888746261596679688e-01
1.271481364965438843e-01 5.477414131164550781e-01 -9.946723282337188721e-02
1.770823001861572266e-01 3.687320351600646973e-01 -1.132924333214759827e-01
2.087742537260055542e-01 3.679064512252807617e-01 2.859612461179494858e-03
-3.184886574745178223e-01 -2.459393441677093506e-01 2.110429406166076660e-01
-1.696441024541854858e-01 1.751551181077957153e-01 2.070055902004241943e-01
3.705800697207450867e-02 5.569234862923622131e-02 -2.932145595550537109e-01
-1.027106717228889465e-01 -2.057896703481674194e-01 3.568944633007049561e-01
4.577924311161041260e-02 -3.061230108141899109e-02 -3.262014091014862061e-01
-5.590478703379631042e-02 2.210451476275920868e-02 -3.094091713428497314e-01
-3.243531286716461182e-01 -7.419837266206741333e-02 2.933950908482074738e-02
3.389172255992889404e-01 -1.310321539640426636e-01 -6.592826545238494873e-02
2.651646435260772705e-01 -8.850970864295959473e-02 -2.200293838977813721e-01
-8.402589708566665649e-02 8.037813305854797363e-01 2.511140517890453339e-02
-2.183780670166015625e-01 -1.162657067179679871e-01 2.691339254379272461e-01
1.926024258136749268e-02 4.283551573753356934e-01 1.982855349779129028e-01
-2.873054444789886475e-01 -3.644883036613464355e-01 -4.528971612453460693e-01
9.429117292165756226e-02 4.336530566215515137e-01 -1.682127267122268677e-01
-3.697759937494993210e-03 4.983512163162231445e-01 1.798086166381835938e-01
4.887602105736732483e-02 9.149042367935180664e-01 3.140587359666824341e-02
3.086962401866912842e-01 -6.704026018269360065e-04 4.425577819347381592e-03
-3.061477839946746826e-01 -1.957118213176727295e-01 1.870334297418594360e-01
2.687133848667144775e-01 1.110424548387527466e-01 -7.341901957988739014e-02
3.576590120792388916e-01 -3.562660813331604004e-01 1.267020553350448608e-01
9.659858047962188721e-02 3.497455418109893799e-01 1.871474236249923706e-01
2.803291976451873779e-01 -8.388061076402664185e-02 1.737421154975891113e-01
2.530693709850311279e-01 -3.096936941146850586e-01 2.798479795455932617e-01
-1.825934499502182007e-01 1.095094755291938782e-01 -2.256097495555877686e-01
3.373080193996429443e-01 -3.644883036613464355e-01 -3.266054093837738037e-01
-9.632567316293716431e-02 -3.644883036613464355e-01 -4.072877764701843262e-01
-3.164544701576232910e-01 -3.282627761363983154e-01 -2.115054428577423096e-01
3.800636529922485352e-02 9.499967098236083984e-01 4.427726939320564270e-02
1.673197746276855469e-02 3.879926204681396484e-01 -2.160305827856063843e-01
1.642092317342758179e-01 5.220245718955993652e-01 -3.335065022110939026e-02
4.692957699298858643e-01 -3.061785399913787842e-01 -3.730394840240478516e-01
-1.774992048740386963e-01 4.764026403427124023e-01 9.396901004947721958e-04
-3.188371285796165466e-02 -1.828898787498474121e-01 -3.702635467052459717e-01
3.343325853347778320e-01 -7.970664650201797485e-02 6.408247351646423340e-02
3.654009401798248291e-01 -2.097658216953277588e-01 -9.002216905355453491e-02
1.048209704458713531e-02 -2.756951749324798584e-01 3.889300227165222168e-01
-1.375096142292022705e-01 3.118404150009155273e-01 -1.914352178573608398e-01
2.044536322355270386e-01 2.206910252571105957e-01 1.551998406648635864e-01
-2.947488054633140564e-02 -3.369870781898498535e-01 -3.921676278114318848e-01
-3.675343990325927734e-01 -2.244761139154434204e-01 3.646262688562273979e-03
3.158850371837615967e-01 -6.186840310692787170e-02 -7.870762795209884644e-02
1.740398406982421875e-01 5.046272277832031250e-01 -5.677873641252517700e-02
-7.852146774530410767e-02 -3.053797781467437744e-01 4.457838833332061768e-01
-5.214058980345726013e-02 7.045793533325195312e-01 -1.068990528583526611e-01
-3.814501166343688965e-01 -3.229548037052154541e-01 -8.215198665857315063e-02
2.655602693557739258e-01 -6.526527460664510727e-03 1.576556116342544556e-01
-3.731859922409057617e-01 -2.266242802143096924e-01 6.478877365589141846e-02
-2.850365936756134033e-01 -3.644883036613464355e-01 2.934786975383758545e-01
2.304579168558120728e-01 -2.071826756000518799e-01 2.787164449691772461e-01
1.421450674533843994e-01 6.142432093620300293e-01 -6.569579243659973145e-03
-2.394850850105285645e-01 1.952980756759643555e-01 1.079929843544960022e-01
1.543124169111251831e-01 2.292442601174116135e-03 2.745559215545654297e-01
3.938084095716476440e-02 -2.221259772777557373e-01 -3.693063855171203613e-01
2.313044369220733643e-01 -7.489570230245590210e-02 -2.359784394502639771e-01
6.603804975748062134e-02 -3.644883036613464355e-01 4.014779329299926758e-01
-1.196085140109062195e-01 1.762278527021408081e-01 -2.333030849695205688e-01
-2.032160013914108276e-01 -5.014191567897796631e-02 -2.507130503654479980e-01
2.357256412506103516e-01 2.060267627239227295e-01 -1.194586679339408875e-01
-2.417220920324325562e-01 -1.855082362890243530e-01 2.587023973464965820e-01
1.375721544027328491e-01 4.716981649398803711e-01 1.296364217996597290e-01
3.892486989498138428e-01 -3.053797781467437744e-01 2.542023956775665283e-01
3.013775646686553955e-01 -3.053663372993469238e-01 2.630263864994049072e-01
-4.012295007705688477e-01 -3.163259327411651611e-01 4.769084155559539795e-01
-6.832366436719894409e-02 7.815001010894775391e-01 6.317350268363952637e-02
2.299449443817138672e-01 -3.053797781467437744e-01 4.047064483165740967e-01
-4.409483671188354492e-01 -3.644883036613464355e-01 -1.833672225475311279e-01
-2.759192585945129395e-01 -2.057846486568450928e-01 -2.380654364824295044e-01
-2.013335376977920532e-01 -1.152767017483711243e-01 -2.880012691020965576e-01
-5.623685941100120544e-02 -3.199223875999450684e-01 -3.889382779598236084e-01
6.428783386945724487e-02 -3.053797781467437744e-01 4.280211031436920166e-01
7.726952433586120605e-02 -3.053797781467437744e-01 -4.297870099544525146e-01
-3.142434358596801758e-01 -1.263259649276733398e-01 1.288854330778121948e-01
3.744858130812644958e-02 -5.893825367093086243e-02 3.291568756103515625e-01
-2.938847057521343231e-02 -3.332598209381103516e-01 3.747754395008087158e-01
-1.706687733530998230e-03 2.162166982889175415e-01 -2.517338991165161133e-01
4.442628920078277588e-01 -3.644883036613464355e-01 4.117410182952880859e-01
-2.148936875164508820e-02 5.259152650833129883e-01 -1.662271618843078613e-01
1.685885488986968994e-01 5.190030932426452637e-01 5.532435700297355652e-02
2.277682870626449585e-01 2.301017343997955322e-01 -9.684634953737258911e-02
-4.121991395950317383e-01 -3.644883036613464355e-01 -1.815937161445617676e-01
9.020772576332092285e-02 -1.776489466428756714e-01 -3.475531935691833496e-01
5.695532262325286865e-02 -3.351171910762786865e-01 -3.900714218616485596e-01
2.419061362743377686e-01 2.836043573915958405e-02 -1.806457787752151489e-01
-4.818297028541564941e-01 -3.237770497798919678e-01 -2.352844625711441040e-01
-3.385404348373413086e-01 -3.644883036613464355e-01 3.352946043014526367e-01
1.580706685781478882e-01 1.713280528783798218e-01 2.057374715805053711e-01
-2.240514755249023438e-01 2.229563593864440918e-01 9.822523593902587891e-02
2.492769807577133179e-02 -2.819753885269165039e-01 -3.863433599472045898e-01
