1.827998086810112000e-02 -2.717840373516082764e-01 -4.707231745123863220e-02
5.037233829498291016e-01 6.508016586303710938e-02 -2.962730824947357178e-01
-2.782450057566165924e-02 -2.727955579757690430e-01 -8.135205507278442383e-01
5.037233829498291016e-01 -2.821836471557617188e-01 2.647480964660644531e-01
-4.267651736736297607e-01 -1.345039904117584229e-01 8.021489977836608887e-01
3.899284824728965759e-02 -2.717840373516082764e-01 -5.149794816970825195e-01
5.037233829498291016e-01 -2.547560073435306549e-02 2.615683674812316895e-01
2.697206139564514160e-01 -1.168715059757232666e-01 7.421547770500183105e-01
-4.434417784214019775e-01 3.286327719688415527e-01 2.654525935649871826e-01
4.673724174499511719e-01 -2.827013432979583740e-01 -1.018338799476623535e-01
-1.370081156492233276e-01 -2.250701040029525757e-01 6.757942438125610352e-01
-4.787802696228027344e-01 2.314369678497314453e-01 6.373792141675949097e-02
-8.312682807445526123e-02 2.540426850318908691e-01 8.021489977836608887e-01
3.592870831489562988e-01 -2.827013432979583740e-01 1.081165447831153870e-01
5.020788908004760742e-01 3.286327719688415527e-01 5.222162604331970215e-01
-4.153311252593994141e-01 -1.303276568651199341e-01 -7.317178882658481598e-03
-1.286952663213014603e-02 3.049578368663787842e-01 -7.589378952980041504e-01
2.238264381885528564e-01 2.527698278427124023e-01 -7.589378952980041504e-01
-4.787802696228027344e-01 1.104081422090530396e-01 4.471203982830047607e-01
3.841067254543304443e-01 -1.629514843225479126e-01 -8.135205507278442383e-01
1.451782733201980591e-01 1.939710378646850586e-01 8.021489977836608887e-01
5.037233829498291016e-01 -2.497380226850509644e-02 -3.001423776149749756e-01
1.983072757720947266e-01 3.220878716092556715e-04 7.475652694702148438e-01
-1.508836913853883743e-02 -2.827013432979583740e-01 7.741516232490539551e-01
-3.205191195011138916e-01 -2.194241285324096680e-01 6.818556189537048340e-01
1.985606551170349121e-01 -2.638556063175201416e-01 -3.913993388414382935e-02
5.037233829498291016e-01 1.426286399364471436e-01 2.379610091447830200e-01
-2.872514128684997559e-01 3.150862157344818115e-01 8.021489977836608887e-01
-4.787802696228027344e-01 8.903332799673080444e-02 -6.349311470985412598e-01
-4.787802696228027344e-01 6.043073534965515137e-02 -1.188402622938156128e-01
5.037233829498291016e-01 -1.376737654209136963e-01 -5.116380751132965088e-02
-2.447535991668701172e-01 -2.717840373516082764e-01 2.810123264789581299e-01
-4.787802696228027344e-01 -2.245643287897109985e-01 -7.214599847793579102e-01
3.399733304977416992e-01 -3.163211047649383545e-02 2.921810448169708252e-01
-4.787802696228027344e-01 -1.583518236875534058e-01 5.898655652999877930e-01
-4.787802696228027344e-01 2.716116309165954590e-01 -1.046630293130874634e-01
2.366833835840225220e-01 -2.470051348209381104e-01 1.560079455375671387e-01
5.305729806423187256e-02 -3.381289914250373840e-02 -8.135205507278442383e-01
-4.787802696228027344e-01 2.696332335472106934e-01 -6.012082695960998535e-01
-3.877749741077423096e-01 2.390742450952529907e-01 -8.135205507278442383e-01
3.399733304977416992e-01 1.586722731590270996e-01 1.724857985973358154e-01
-4.787802696228027344e-01 -1.684215664863586426e-01 -4.895631689578294754e-03
-4.787802696228027344e-01 2.785302512347698212e-02 -8.722093887627124786e-03
5.037233829498291016e-01 9.338009357452392578e-02 6.198303699493408203e-01
4.746827781200408936e-01 3.286327719688415527e-01 -4.563635587692260742e-01
-5.028905346989631653e-02 -2.717840373516082764e-01 5.319687351584434509e-02
4.199182093143463135e-01 3.286327719688415527e-01 4.063763916492462158e-01
2.295111715793609619e-01 1.984584033489227295e-01 7.475652694702148438e-01
2.974745035171508789e-01 -1.941911280155181885e-01 4.317465126514434814e-01
3.218539357185363770e-01 -1.539866775274276733e-01 -5.533804893493652344e-01
3.944566845893859863e-01 3.286327719688415527e-01 -5.562501549720764160e-01
-4.787802696228027344e-01 2.129916697740554810e-01 -4.327691197395324707e-01
5.037233829498291016e-01 7.684112340211868286e-02 -5.898818001151084900e-02
-7.114747073501348495e-03 1.821981519460678101e-01 -8.135205507278442383e-01
2.731745541095733643e-01 1.046553477644920349e-01 -8.135205507278442383e-01
3.460535109043121338e-01 3.286327719688415527e-01 -6.083092465996742249e-02
1.564096212387084961e-01 3.066838383674621582e-01 -8.135205507278442383e-01
3.443055599927902222e-02 -2.792603075504302979e-01 -7.589378952980041504e-01
-4.241965711116790771e-01 1.921875029802322388e-02 5.203064084053039551e-01
-2.653302848339080811e-01 1.989333778619766235e-01 -8.135205507278442383e-01
5.037233829498291016e-01 8.863954246044158936e-02 -4.728006720542907715e-01
-4.241965711116790771e-01 8.903330191969871521e-03 3.402881026268005371e-01
3.399733304977416992e-01 2.393435090780258179e-01 5.021997168660163879e-02
3.581940531730651855e-01 3.209981322288513184e-02 -8.135205507278442383e-01
-4.787802696228027344e-01 -2.576452493667602539e-01 -7.715265154838562012e-01
5.037233829498291016e-01 2.339976131916046143e-01 -4.257926046848297119e-01
-4.787802696228027344e-01 2.541579902172088623e-01 -7.436345219612121582e-01
3.399733304977416992e-01 1.870570145547389984e-02 -1.692685037851333618e-01
3.874215483665466309e-01 3.286327719688415527e-01 7.306422591209411621e-01
4.031084477901458740e-01 -2.827013432979583740e-01 7.365992665290832520e-01
3.072799444198608398e-01 -3.861336782574653625e-02 -8.135205507278442383e-01
5.037233829498291016e-01 2.103942334651947021e-01 -1.113997474312782288e-01
4.683869481086730957e-01 -2.827013432979583740e-01 6.099503636360168457e-01
-4.787802696228027344e-01 -4.848249256610870361e-02 -3.043972253799438477e-01
-4.241965711116790771e-01 2.553364336490631104e-01 1.131732761859893799e-01
-4.787802696228027344e-01 -5.590910441242158413e-04 3.490929007530212402e-01
-4.787802696228027344e-01 -9.063094854354858398e-02 5.639459490776062012e-01
-7.961174845695495605e-02 -2.717840373516082764e-01 -4.096536040306091309e-01
-9.038162231445312500e-02 -1.522954702377319336e-01 -8.135205507278442383e-01
-4.787802696228027344e-01 -2.501607232261449099e-04 -2.170585542917251587e-01
1.080215796828269958e-01 -2.567916810512542725e-01 -8.135205507278442383e-01
5.037233829498291016e-01 1.688036322593688965e-01 7.076112031936645508e-01
-1.498561203479766846e-01 -2.717840373516082764e-01 -2.095923945307731628e-02
5.037233829498291016e-01 1.277446150779724121e-01 -5.813271999359130859e-01
-4.787802696228027344e-01 -1.109625492244958878e-02 1.198228523135185242e-01
5.037233829498291016e-01 -2.337377965450286865e-01 7.928662300109863281e-01
3.667564392089843750e-01 2.674752846360206604e-02 8.021489977836608887e-01
-4.219965934753417969e-01 -1.011935546994209290e-01 5.248066782951354980e-01
-4.787802696228027344e-01 -1.723326146602630615e-01 2.112106978893280029e-01
-5.158131197094917297e-02 -2.717840373516082764e-01 5.294122695922851562e-01
5.037233829498291016e-01 7.914452999830245972e-02 5.558327436447143555e-01
4.551473855972290039e-01 3.286327719688415527e-01 2.800713181495666504e-01
5.037233829498291016e-01 -9.589038789272308350e-02 5.136290192604064941e-01
-4.241965711116790771e-01 1.928591281175613403e-01 3.101394772529602051e-01
5.037233829498291016e-01 -1.500378698110580444e-01 -6.566615104675292969e-01
-4.716179966926574707e-01 -2.827013432979583740e-01 2.285122871398925781e-01
3.399733304977416992e-01 -3.851519897580146790e-02 -1.435893625020980835e-01
3.518107831478118896e-01 -2.827013432979583740e-01 4.991444051265716553e-01
3.399733304977416992e-01 -1.542324386537075043e-02 -2.679478228092193604e-01
-4.787802696228027344e-01 -1.534669995307922363e-01 -3.717067539691925049e-01
-9.504784643650054932e-02 -2.717840373516082764e-01 -9.126631915569305420e-02
5.037233829498291016e-01 1.343932002782821655e-01 -8.092766404151916504e-01
-4.347979128360748291e-01 3.286327719688415527e-01 6.924288719892501831e-02
9.021897614002227783e-02 -2.717840373516082764e-01 2.018315494060516357e-01
-1.096009910106658936e-01 -2.717840373516082764e-01 5.485432147979736328e-01
5.037233829498291016e-01 3.164405822753906250e-01 7.295551896095275879e-01
4.011171758174896240e-01 3.286327719688415527e-01 -2.403588742017745972e-01
5.037233829498291016e-01 -2.756304740905761719e-01 -5.021454095840454102e-01
5.037233829498291016e-01 -1.840876191854476929e-01 -9.659551084041595459e-02
2.505598664283752441e-01 3.016499280929565430e-01 7.475652694702148438e-01
-2.731642723083496094e-01 -3.669074177742004395e-02 8.021489977836608887e-01
-3.523758649826049805e-01 2.190932072699069977e-02 -8.135205507278442383e-01
3.399733304977416992e-01 1.020034076645970345e-03 4.109303355216979980e-01
2.491031587123870850e-01 -8.697030693292617798e-02 8.021489977836608887e-01
3.298201262950897217e-01 -1.337388753890991211e-01 5.218127965927124023e-01
3.154627382755279541e-01 -1.665206998586654663e-01 -2.645644247531890869e-01
-3.879289925098419189e-01 -1.855860501527786255e-01 6.578923016786575317e-02
-3.078779019415378571e-02 3.050353229045867920e-01 7.475652694702148438e-01
3.986707627773284912e-01 3.286327719688415527e-01 6.226146221160888672e-01
-2.353476136922836304e-01 5.439773201942443848e-02 8.021489977836608887e-01
5.037233829498291016e-01 -2.109198831021785736e-03 -8.053755164146423340e-01
-4.787802696228027344e-01 1.332832723855972290e-01 3.804915547370910645e-01
3.399733304977416992e-01 -1.808915520086884499e-03 5.857428908348083496e-01
-3.793785572052001953e-01 -1.911217272281646729e-01 -7.189877629280090332e-01
4.494656622409820557e-01 -2.827013432979583740e-01 1.860174536705017090e-01
-3.064360022544860840e-01 -2.544506192207336426e-01 5.460302233695983887e-01
1.937871128320693970e-01 -2.654633522033691406e-01 -4.362359642982482910e-01
-4.787802696228027344e-01 -1.055795550346374512e-01 5.075955390930175781e-01
-4.241965711116790771e-01 4.070977866649627686e-02 4.075300395488739014e-01
5.037233829498291016e-01 2.951076924800872803e-01 -8.072953224182128906e-01
5.037233829498291016e-01 -2.186202555894851685e-01 -4.454859495162963867e-01
1.968942880630493164e-01 -2.847039140760898590e-02 -8.135205507278442383e-01
-4.787802696228027344e-01 1.365047097206115723e-01 -2.872456610202789307e-01
5.037233829498291016e-01 3.233713507652282715e-01 3.626702427864074707e-01
-4.787802696228027344e-01 2.821255326271057129e-01 7.152667967602610588e-04
2.386458665132522583e-01 -1.698733121156692505e-01 8.021489977836608887e-01
1.194742918014526367e-01 1.885933429002761841e-01 -8.135205507278442383e-01
-3.435829579830169678e-01 1.610640138387680054e-01 -8.135205507278442383e-01
-4.787802696228027344e-01 -4.330373927950859070e-02 -1.085807308554649353e-01
-4.787802696228027344e-01 -2.390389740467071533e-01 -6.350582838058471680e-01
-5.300730839371681213e-02 6.118651479482650757e-02 8.021489977836608887e-01
3.815311491489410400e-01 2.788136601448059082e-01 8.021489977836608887e-01
-4.787802696228027344e-01 -2.384238988161087036e-01 -2.183512896299362183e-01
5.037233829498291016e-01 -1.406269222497940063e-01 4.373527169227600098e-01
4.985096752643585205e-01 -2.827013432979583740e-01 -1.457714289426803589e-01
4.381886124610900879e-01 3.286327719688415527e-01 -3.748775124549865723e-01
-4.241965711116790771e-01 1.981533467769622803e-01 -4.435771405696868896e-01
-4.241965711116790771e-01 -1.393891498446464539e-02 -1.380695700645446777e-01
5.037233829498291016e-01 2.522649429738521576e-02 7.254811525344848633e-01
-4.268198311328887939e-01 3.286327719688415527e-01 -8.310758508741855621e-03
-4.787802696228027344e-01 -1.122072637081146240e-01 -8.018133044242858887e-01
5.037233829498291016e-01 3.342078998684883118e-02 -6.940181255340576172e-01
3.399733304977416992e-01 6.149105262011289597e-03 1.436955034732818604e-01
-4.095709025859832764e-01 -1.455902606248855591e-01 3.996224701404571533e-01
-1.464965641498565674e-01 -6.231443583965301514e-02 -8.135205507278442383e-01
9.473992884159088135e-02 -1.441047340631484985e-01 -7.448725700378417969e-01
-4.214699864387512207e-01 -1.049436256289482117e-01 -3.960881531238555908e-01
-4.787802696228027344e-01 2.636981010437011719e-01 1.806069761514663696e-01
2.807253599166870117e-01 2.452230006456375122e-01 -8.135205507278442383e-01
3.399733304977416992e-01 2.360455691814422607e-01 -3.530756235122680664e-01
3.052667975425720215e-01 -2.646942734718322754e-01 8.021489977836608887e-01
-3.123871423304080963e-02 6.526906043291091919e-02 -8.135205507278442383e-01
-4.241965711116790771e-01 1.193142086267471313e-01 -2.343909591436386108e-01
-2.038903385400772095e-01 -2.518790364265441895e-01 -8.135205507278442383e-01
-4.787802696228027344e-01 -1.345864683389663696e-01 -4.353118836879730225e-01
-4.787802696228027344e-01 -1.361806131899356842e-02 5.748761892318725586e-01
-2.819651365280151367e-01 3.128047585487365723e-01 -7.589378952980041504e-01
5.037233829498291016e-01 1.750626713037490845e-01 2.873250246047973633e-01
4.587424695491790771e-01 -2.827013432979583740e-01 -2.789039015769958496e-01
5.037233829498291016e-01 2.682599723339080811e-01 -1.602510362863540649e-01
5.037233829498291016e-01 -1.599943488836288452e-01 5.661389827728271484e-01
3.399733304977416992e-01 1.264339834451675415e-01 3.009540438652038574e-01
2.716561220586299896e-02 -2.717840373516082764e-01 -1.035655289888381958e-01
3.399733304977416992e-01 1.400083601474761963e-01 -2.724610269069671631e-01
1.960637792944908142e-02 2.420819178223609924e-02 -7.589378952980041504e-01
-3.834724128246307373e-01 2.101348936557769775e-01 7.475652694702148438e-01
3.973263502120971680e-01 -2.827013432979583740e-01 -1.334689259529113770e-01
-4.787802696228027344e-01 3.093537986278533936e-01 -7.115988731384277344e-01
8.990724571049213409e-03 1.800647675991058350e-01 7.475652694702148438e-01
5.037233829498291016e-01 -1.067759245634078979e-01 -7.812534570693969727e-01
3.399733304977416992e-01 2.275219410657882690e-01 -6.457282304763793945e-01
4.722065627574920654e-01 1.030848696827888489e-01 8.021489977836608887e-01
-4.241965711116790771e-01 1.084673255681991577e-01 -3.439100980758666992e-01
-4.787802696228027344e-01 2.062685638666152954e-01 -2.175851911306381226e-01
-4.787802696228027344e-01 2.356391549110412598e-01 -3.818738758563995361e-01
-4.787802696228027344e-01 -5.246082786470651627e-03 6.649027466773986816e-01
3.218370378017425537e-01 -1.540194600820541382e-01 -1.704936772584915161e-01
-4.787802696228027344e-01 2.436321526765823364e-01 5.948249101638793945e-01
2.040702849626541138e-02 9.919836372137069702e-02 -7.589378952980041504e-01
1.287689954042434692e-01 -2.793527245521545410e-01 7.475652694702148438e-01
-4.787802696228027344e-01 -1.484960410743951797e-02 -6.059052944183349609e-01
3.695724606513977051e-01 3.286327719688415527e-01 -6.256542801856994629e-01
-9.038969874382019043e-03 -1.537094414234161377e-01 8.021489977836608887e-01
1.171352267265319824e-01 3.094174526631832123e-02 7.475652694702148438e-01
-4.787802696228027344e-01 2.447887808084487915e-01 4.897016882896423340e-01
3.739167153835296631e-01 -2.827013432979583740e-01 -4.334000945091247559e-01
-1.346155884675681591e-03 2.021717131137847900e-01 -7.589378952980041504e-01
5.037233829498291016e-01 8.273600786924362183e-02 -1.688600927591323853e-01
-4.787802696228027344e-01 -9.322340041399002075e-02 -5.349650382995605469e-01
-3.145979046821594238e-01 2.991628050804138184e-01 -8.135205507278442383e-01
-4.787802696228027344e-01 4.906715080142021179e-02 4.567827284336090088e-01
1.658573299646377563e-01 -2.717840373516082764e-01 -2.420719414949417114e-01
4.503738582134246826e-01 3.286327719688415527e-01 2.249003499746322632e-01
-4.140194952487945557e-01 3.024299442768096924e-01 8.021489977836608887e-01
5.037233829498291016e-01 -1.522219330072402954e-01 -5.355751514434814453e-01
-4.787802696228027344e-01 1.746607199311256409e-02 -3.179219365119934082e-01
5.037233829498291016e-01 2.666224539279937744e-01 5.990407243371009827e-02
1.343911290168762207e-01 -9.395803324878215790e-03 8.021489977836608887e-01
9.897439926862716675e-02 3.286327719688415527e-01 -8.124533891677856445e-01
-2.195583730936050415e-01 -2.717840373516082764e-01 4.024682939052581787e-01
-7.898912578821182251e-02 -2.633170485496520996e-01 -8.135205507278442383e-01
-4.234662055969238281e-01 -9.074323624372482300e-02 1.406787484884262085e-01
7.234264165163040161e-02 -2.331992387771606445e-01 6.652514934539794922e-01
-4.787802696228027344e-01 1.478215008974075317e-01 -4.140318930149078369e-02
-1.145871728658676147e-01 3.286327719688415527e-01 -8.012965917587280273e-01
3.399733304977416992e-01 1.210392042994499207e-01 -9.992327541112899780e-02
2.221262753009796143e-01 2.717208862304687500e-02 8.021489977836608887e-01
3.289655745029449463e-01 -2.827013432979583740e-01 -7.948626279830932617e-01
-4.787802696228027344e-01 -5.190565064549446106e-02 -1.491827704012393951e-02
-9.447451680898666382e-02 1.397211756557226181e-02 8.021489977836608887e-01
-4.241965711116790771e-01 2.481145411729812622e-01 3.533368110656738281e-01
-3.889276087284088135e-01 -1.840677261352539062e-01 6.119367480278015137e-01
3.296343088150024414e-01 2.137120664119720459e-01 7.475652694702148438e-01
-4.241965711116790771e-01 3.074607253074645996e-02 6.181152462959289551e-01
-2.677766680717468262e-01 -2.728204131126403809e-01 7.475652694702148438e-01
-1.993741691112518311e-01 1.857564449310302734e-01 -7.589378952980041504e-01
-4.787802696228027344e-01 3.043338358402252197e-01 3.797373473644256592e-01
5.037233829498291016e-01 -1.971860378980636597e-01 3.496662378311157227e-01
4.234735071659088135e-01 3.286327719688415527e-01 -7.202486991882324219e-01
1.413546800613403320e-01 -8.960747718811035156e-02 -8.135205507278442383e-01
-4.296696484088897705e-01 3.286327719688415527e-01 -5.752906799316406250e-01
5.037233829498291016e-01 -6.836552172899246216e-02 -6.394354104995727539e-01
-4.787802696228027344e-01 1.293980628252029419e-01 -4.098433852195739746e-01
4.069628715515136719e-01 -2.827013432979583740e-01 -5.203055143356323242e-01
2.015098333358764648e-01 1.044756993651390076e-01 -8.135205507278442383e-01
3.399733304977416992e-01 2.856321632862091064e-01 -7.587043642997741699e-01
-4.759602546691894531e-01 -2.827013432979583740e-01 6.642229110002517700e-02
-4.241965711116790771e-01 2.926821447908878326e-02 -5.905008688569068909e-02
-4.787802696228027344e-01 -1.672222316265106201e-01 7.011154294013977051e-02
3.557059466838836670e-01 -2.827013432979583740e-01 2.327532321214675903e-01
5.037233829498291016e-01 -4.023055359721183777e-02 6.101679801940917969e-01
7.787116616964340210e-02 -2.717840373516082764e-01 5.644288659095764160e-01
-4.787802696228027344e-01 -1.668754369020462036e-01 4.308412671089172363e-01
5.037233829498291016e-01 1.713046729564666748e-01 -3.265141248703002930e-01
-4.787802696228027344e-01 -5.362010747194290161e-02 -7.473140358924865723e-01
3.749888837337493896e-01 3.286327719688415527e-01 3.109423518180847168e-01
4.312448203563690186e-02 -1.794134229421615601e-01 -7.267323136329650879e-01
5.037233829498291016e-01 2.045038193464279175e-01 -7.155059576034545898e-01
3.399733304977416992e-01 1.032970100641250610e-01 6.048847436904907227e-01
-1.499853134155273438e-01 2.809709012508392334e-01 7.475652694702148438e-01
4.139681756496429443e-01 -2.827013432979583740e-01 6.175240874290466309e-01
-4.241965711116790771e-01 -3.715229406952857971e-02 7.326743006706237793e-01
3.151198923587799072e-01 -1.414238363504409790e-01 -7.458841204643249512e-01
-4.787802696228027344e-01 8.530095219612121582e-02 2.857431173324584961e-01
3.373470604419708252e-01 -1.042182445526123047e-01 -4.115117490291595459e-01
1.813047528266906738e-01 -2.687006890773773193e-01 4.546473622322082520e-01
1.117801964282989502e-01 8.232344686985015869e-02 -8.135205507278442383e-01
-2.020878493785858154e-01 -1.520222127437591553e-01 8.021489977836608887e-01
-3.291192650794982910e-01 -2.858654968440532684e-02 -7.589378952980041504e-01
-1.455535888671875000e-01 4.663039743900299072e-02 -8.135205507278442383e-01
-4.787802696228027344e-01 2.966637611389160156e-01 1.041796579957008362e-01
3.027935624122619629e-01 4.939167946577072144e-02 7.475652694702148438e-01
-3.225988447666168213e-01 -1.083399504423141479e-01 7.443348765373229980e-01
2.127451449632644653e-01 -2.800373733043670654e-01 -7.589378952980041504e-01
-3.105608001351356506e-02 -2.717840373516082764e-01 4.540123939514160156e-01
5.037233829498291016e-01 1.343405246734619141e-01 4.695055484771728516e-01
3.399733304977416992e-01 1.235046759247779846e-01 4.386116862297058105e-01
-3.432600200176239014e-01 9.431920200586318970e-02 7.475652694702148438e-01
3.416873812675476074e-01 1.744883507490158081e-01 8.021489977836608887e-01
5.037233829498291016e-01 -1.082743704319000244e-01 -2.827076315879821777e-01
5.037233829498291016e-01 -4.996205121278762817e-02 -7.415040731430053711e-01
-4.229445457458496094e-01 -9.444957971572875977e-02 7.027781009674072266e-01
-2.070909142494201660e-01 -5.220285803079605103e-02 7.475652694702148438e-01
3.191540390253067017e-02 2.481801211833953857e-01 -7.589378952980041504e-01
-7.073767483234405518e-02 -3.256992995738983154e-02 7.475652694702148438e-01
1.697167158126831055e-01 2.428471595048904419e-01 8.021489977836608887e-01
-4.787802696228027344e-01 3.265182673931121826e-01 -1.545553803443908691e-01
5.037233829498291016e-01 3.258077800273895264e-01 -6.782457232475280762e-01
-4.787802696228027344e-01 7.879655063152313232e-02 3.493562042713165283e-01
-4.163396954536437988e-01 7.167369872331619263e-02 7.475652694702148438e-01
4.850125871598720551e-03 -1.322338264435529709e-02 7.475652694702148438e-01
-3.593771755695343018e-01 -2.185656130313873291e-01 -4.349969029426574707e-01
9.400977939367294312e-02 1.039978414773941040e-01 8.021489977836608887e-01
5.037233829498291016e-01 2.477141022682189941e-01 -6.301158666610717773e-01
-2.856774330139160156e-01 2.570008337497711182e-01 -7.589378952980041504e-01
-2.741669118404388428e-01 -2.667590975761413574e-01 -2.854709923267364502e-01
-3.219977021217346191e-01 3.286327719688415527e-01 7.653696537017822266e-01
3.084782958030700684e-01 -1.783323287963867188e-01 1.341633349657058716e-01
-4.241965711116790771e-01 -1.985904015600681305e-02 4.369930028915405273e-01
3.990672528743743896e-01 -2.827013432979583740e-01 5.588176250457763672e-01
-5.499642342329025269e-02 8.174155652523040771e-02 7.475652694702148438e-01
3.399733304977416992e-01 -2.619828842580318451e-02 -3.887648880481719971e-01
-4.787802696228027344e-01 2.288315892219543457e-01 -5.851169824600219727e-01
5.037233829498291016e-01 2.749294340610504150e-01 -3.747692108154296875e-01
4.770596027374267578e-01 -2.827013432979583740e-01 -4.188101589679718018e-01
-4.787802696228027344e-01 -2.946653403341770172e-02 4.607374966144561768e-01
3.399733304977416992e-01 -5.067431181669235229e-02 6.192689538002014160e-01
-1.096526682376861572e-01 -1.975477188825607300e-01 8.021489977836608887e-01
3.384927809238433838e-01 -9.607421606779098511e-02 2.144090645015239716e-02
-4.787802696228027344e-01 -9.989085793495178223e-02 2.274172753095626831e-01
-2.133986651897430420e-01 1.432496756315231323e-01 7.475652694702148438e-01
2.796075046062469482e-01 -2.142670303583145142e-01 -2.804689109325408936e-01
-2.595332860946655273e-01 7.192519307136535645e-02 -8.135205507278442383e-01
2.076029479503631592e-01 -2.608090639114379883e-01 2.445936799049377441e-01
1.677273958921432495e-01 -2.361802160739898682e-01 8.021489977836608887e-01
-4.787802696228027344e-01 -2.346311062574386597e-01 4.263052344322204590e-01
2.333327680826187134e-01 -2.222014069557189941e-01 -6.903485059738159180e-01
-4.241965711116790771e-01 1.004882380366325378e-01 -7.228252887725830078e-01
4.516944587230682373e-01 9.080949425697326660e-02 -8.135205507278442383e-01
-9.898771345615386963e-02 1.348780989646911621e-01 -8.135205507278442383e-01
-4.787802696228027344e-01 3.242040276527404785e-01 4.351299107074737549e-01
-4.787802696228027344e-01 -6.237087026238441467e-02 -1.552668362855911255e-01
3.017591536045074463e-01 -1.885401904582977295e-01 2.426908314228057861e-01
2.595345973968505859e-01 -2.317524552345275879e-01 3.444365859031677246e-01
1.318811327219009399e-01 -2.717840373516082764e-01 -2.907175123691558838e-01
3.399733304977416992e-01 3.278725966811180115e-02 9.639235585927963257e-02
-4.787802696228027344e-01 -2.056182175874710083e-01 3.526611030101776123e-01
-4.787802696228027344e-01 1.612249761819839478e-01 -5.153719782829284668e-01
5.037233829498291016e-01 1.293940842151641846e-01 5.848594903945922852e-01
-4.787802696228027344e-01 1.104086413979530334e-01 -7.035194635391235352e-01
3.399733304977416992e-01 2.764666378498077393e-01 -7.430265843868255615e-02
1.713612079620361328e-01 1.304294764995574951e-01 -7.589378952980041504e-01
-4.787802696228027344e-01 4.478974267840385437e-02 -6.011002510786056519e-02
5.037233829498291016e-01 8.815662562847137451e-02 2.035128176212310791e-01
2.768023908138275146e-01 -2.169737517833709717e-01 6.173143982887268066e-01
3.399733304977416992e-01 1.864261627197265625e-01 3.734475076198577881e-01
3.241949975490570068e-01 -1.486407965421676636e-01 5.915368795394897461e-01
-2.770037949085235596e-01 2.016133442521095276e-02 8.021489977836608887e-01
4.758582413196563721e-01 3.286327719688415527e-01 -4.450549557805061340e-02
3.399733304977416992e-01 2.273609638214111328e-01 -4.282032251358032227e-01
-4.787802696228027344e-01 6.695560365915298462e-02 5.931783914566040039e-01
-2.624466717243194580e-01 -1.865498870611190796e-01 7.106646895408630371e-01
3.399733304977416992e-01 4.600359499454498291e-02 -6.043941900134086609e-02
-7.497414946556091309e-02 2.971476614475250244e-01 -8.135205507278442383e-01
-4.787802696228027344e-01 1.329265534877777100e-01 9.119939059019088745e-02
5.037233829498291016e-01 2.702473104000091553e-01 1.901908218860626221e-01
-4.787802696228027344e-01 -2.496572285890579224e-01 -5.728095173835754395e-01
-3.872542977333068848e-01 -1.866105049848556519e-01 5.170163512229919434e-01
-4.273753166198730469e-01 -6.721894443035125732e-02 -8.135205507278442383e-01
1.371892541646957397e-01 -1.485911160707473755e-01 -8.135205507278442383e-01
5.397703126072883606e-02 -2.813718318939208984e-01 8.021489977836608887e-01
3.256059885025024414e-01 -1.449016481637954712e-01 3.793528378009796143e-01
-4.241965711116790771e-01 2.586552798748016357e-01 -2.020681947469711304e-01
3.399733304977416992e-01 1.852009892463684082e-01 4.387386515736579895e-02
3.527885377407073975e-01 -2.827013432979583740e-01 6.428881883621215820e-01
-4.318368136882781982e-01 3.286327719688415527e-01 -2.501950860023498535e-01
-4.217800199985504150e-01 1.060636639595031738e-01 -8.135205507278442383e-01
-4.191458225250244141e-01 -1.154624968767166138e-01 -1.879681795835494995e-01
-4.787802696228027344e-01 2.087964266538619995e-01 -1.256657242774963379e-01
3.856498599052429199e-01 -2.827013432979583740e-01 -7.703788280487060547e-01
-4.241965711116790771e-01 2.742974758148193359e-01 1.692822426557540894e-01
-3.985124528408050537e-01 -1.688230037689208984e-01 2.837577760219573975e-01
-4.059758186340332031e-01 1.120653469115495682e-02 8.021489977836608887e-01
-6.832844763994216919e-02 1.144766807556152344e-01 -7.589378952980041504e-01
-4.787802696228027344e-01 2.781946063041687012e-01 -2.068606168031692505e-01
3.399733304977416992e-01 3.511616960167884827e-02 -2.197622954845428467e-01
4.011847376823425293e-01 -1.929361522197723389e-01 -8.135205507278442383e-01
-4.196326732635498047e-01 -1.135586425662040710e-01 -3.353974223136901855e-01
-2.530009448528289795e-01 -2.714293003082275391e-01 -5.732973814010620117e-01
4.211682379245758057e-01 -2.827013432979583740e-01 3.950774967670440674e-01
-4.241965711116790771e-01 1.984574049711227417e-01 9.565307199954986572e-02
3.940731287002563477e-01 -9.960667788982391357e-02 8.021489977836608887e-01
-4.787802696228027344e-01 -1.949088834226131439e-02 2.349810153245925903e-01
5.037233829498291016e-01 2.488289624452590942e-01 -1.239575352519750595e-02
-4.241965711116790771e-01 1.308020949363708496e-01 -1.203168481588363647e-01
3.376054465770721436e-01 -1.023809760808944702e-01 4.803434014320373535e-01
3.331041634082794189e-01 2.495563328266143799e-01 -8.135205507278442383e-01
-4.787802696228027344e-01 1.825936287641525269e-01 1.491606384515762329e-01
1.520213019102811813e-02 1.630016416311264038e-01 8.021489977836608887e-01
-2.023531496524810791e-01 2.329980134963989258e-01 7.475652694702148438e-01
-1.692742258310317993e-01 -1.189711019396781921e-01 7.416182160377502441e-01
4.091588556766510010e-01 2.518725693225860596e-01 -8.135205507278442383e-01
-3.848347365856170654e-01 -1.902860552072525024e-01 3.831366598606109619e-01
-1.802670806646347046e-01 -2.717840373516082764e-01 -3.858206868171691895e-01
-4.241965711116790771e-01 1.517822295427322388e-01 2.504163235425949097e-02
1.467840373516082764e-01 -2.717840373516082764e-01 9.877116978168487549e-02
4.028004109859466553e-01 3.286327719688415527e-01 -1.072074919939041138e-01
-4.787802696228027344e-01 -1.637265384197235107e-01 -7.044465541839599609e-01
3.399733304977416992e-01 5.711281299591064453e-02 2.725532948970794678e-01
3.765796124935150146e-02 -2.091308087110519409e-01 -8.135205507278442383e-01
3.393343985080718994e-01 -9.009139239788055420e-02 7.185732722282409668e-01
2.922945320606231689e-01 1.136232241988182068e-01 7.475652694702148438e-01
-4.241965711116790771e-01 1.161231696605682373e-01 6.786847710609436035e-01
3.399733304977416992e-01 4.656640440225601196e-02 -5.798068642616271973e-01
2.481193095445632935e-02 -3.151079267263412476e-02 -7.589378952980041504e-01
-3.753065466880798340e-01 -1.424145251512527466e-01 8.021489977836608887e-01
-2.395796030759811401e-01 -2.827013432979583740e-01 -8.032769560813903809e-01
-2.011756598949432373e-01 -1.655260473489761353e-01 -7.349349856376647949e-01
3.399733304977416992e-01 1.402408778667449951e-01 7.158188819885253906e-01
5.037233829498291016e-01 2.074838131666183472e-01 5.916600823402404785e-01
-3.843249976634979248e-01 -1.910273283720016479e-01 -6.672687530517578125e-01
-4.619716852903366089e-02 -2.717840373516082764e-01 1.458626687526702881e-01
5.037233829498291016e-01 3.191627934575080872e-02 -4.975438117980957031e-01
-1.942240148782730103e-01 -5.200938507914543152e-02 8.021489977836608887e-01
5.037233829498291016e-01 -8.115044236183166504e-02 -5.453904867172241211e-01
-3.688855171203613281e-01 -8.864363282918930054e-02 -8.135205507278442383e-01
-2.945408821105957031e-01 2.907951772212982178e-01 7.475652694702148438e-01
-4.241965711116790771e-01 2.538171708583831787e-01 -5.000616908073425293e-01
5.037233829498291016e-01 4.383105784654617310e-02 -3.901103138923645020e-01
-4.487091600894927979e-01 -1.273032743483781815e-02 -8.135205507278442383e-01
3.399733304977416992e-01 1.546419858932495117e-01 -4.698554575443267822e-01
-4.241965711116790771e-01 1.842783577740192413e-02 2.491595745086669922e-01
3.617632985115051270e-01 3.286327719688415527e-01 -4.992757737636566162e-01
-4.241965711116790771e-01 1.213034167885780334e-01 5.965826511383056641e-01
-4.310289621353149414e-01 3.286327719688415527e-01 -7.103478908538818359e-01
3.399733304977416992e-01 3.008778691291809082e-01 5.910639166831970215e-01
-1.223637955263257027e-03 2.982804477214813232e-01 8.021489977836608887e-01
2.150901854038238525e-01 8.433470875024795532e-02 8.021489977836608887e-01
5.017957687377929688e-01 -1.749757528305053711e-01 -8.135205507278442383e-01
-2.187694013118743896e-01 -2.817335426807403564e-01 8.021489977836608887e-01
-3.074495494365692139e-01 -2.539786398410797119e-01 2.496802359819412231e-01
-1.642582267522811890e-01 -2.717840373516082764e-01 -2.116262167692184448e-01
-4.787802696228027344e-01 7.440526783466339111e-02 6.514088511466979980e-01
-4.787802696228027344e-01 -2.399452030658721924e-01 -2.762279808521270752e-01
5.037233829498291016e-01 -8.342095464468002319e-02 3.506161570549011230e-01
-4.241965711116790771e-01 -8.519066125154495239e-02 -6.238627433776855469e-01
1.446276810020208359e-02 -2.475486695766448975e-01 -6.547556519508361816e-01
-1.100193262100219727e-01 -1.321221888065338135e-01 8.021489977836608887e-01
-7.256193459033966064e-02 2.610957026481628418e-01 7.475652694702148438e-01
3.399733304977416992e-01 2.630631625652313232e-01 5.065690875053405762e-01
-4.787802696228027344e-01 -2.295604497194290161e-01 -3.917140662670135498e-01
4.059821367263793945e-01 3.286327719688415527e-01 -4.606661200523376465e-01
-4.787802696228027344e-01 2.797813713550567627e-02 7.481287121772766113e-01
4.559165239334106445e-01 3.286327719688415527e-01 -2.130451649427413940e-01
-3.822909593582153320e-01 -2.735855281352996826e-01 8.021489977836608887e-01
-1.922774463891983032e-01 3.101308345794677734e-01 -7.589378952980041504e-01
-1.531898677349090576e-01 -7.323683798313140869e-02 8.021489977836608887e-01
-4.787802696228027344e-01 -2.106083780527114868e-01 5.557581782341003418e-01
7.016076147556304932e-02 -2.717840373516082764e-01 3.967199921607971191e-01
3.399733304977416992e-01 2.218610793352127075e-01 1.819365024566650391e-01
8.023459464311599731e-02 -2.717840373516082764e-01 2.806446552276611328e-01
-3.336066007614135742e-01 -2.827013432979583740e-01 -8.091713190078735352e-01
3.399733304977416992e-01 2.908419072628021240e-01 -2.815937697887420654e-01
2.729648947715759277e-01 -1.336832344532012939e-01 -8.135205507278442383e-01
-3.665553927421569824e-01 -2.116407901048660278e-01 -3.789564669132232666e-01
-4.787802696228027344e-01 1.622742861509323120e-01 2.764126658439636230e-01
8.564168214797973633e-02 -2.717840373516082764e-01 -1.318572163581848145e-01
3.399733304977416992e-01 2.939302027225494385e-01 3.891185224056243896e-01
3.811694681644439697e-01 3.286327719688415527e-01 1.170157566666603088e-01
-2.145701944828033447e-01 -1.946611404418945312e-01 -8.135205507278442383e-01
2.211564630270004272e-01 -1.348517686128616333e-01 7.369937300682067871e-01
-4.752160012722015381e-01 8.155157417058944702e-02 -8.135205507278442383e-01
5.037233829498291016e-01 2.792101204395294189e-01 6.728361248970031738e-01
2.227850854396820068e-01 -2.541833221912384033e-01 -3.347674608230590820e-01
3.399733304977416992e-01 1.740898936986923218e-01 -1.672533452510833740e-01
4.118516743183135986e-01 1.160986274480819702e-01 8.021489977836608887e-01
4.206285625696182251e-02 9.357962012290954590e-02 -8.135205507278442383e-01
5.864673480391502380e-02 -2.717840373516082764e-01 -2.363325655460357666e-01
3.399733304977416992e-01 4.336273297667503357e-03 2.542172968387603760e-01
5.447902902960777283e-02 -2.717840373516082764e-01 4.963115453720092773e-01
2.755801975727081299e-01 -2.181522548198699951e-01 4.765923321247100830e-01
1.445532739162445068e-01 2.460198998451232910e-01 -7.589378952980041504e-01
-4.787802696228027344e-01 2.500183880329132080e-01 -3.803687170147895813e-02
-2.888581454753875732e-01 -2.618096470832824707e-01 -1.361418813467025757e-01
4.351687803864479065e-02 6.289680302143096924e-02 8.021489977836608887e-01
-4.787802696228027344e-01 -1.937459856271743774e-01 -6.097557544708251953e-01
-4.241965711116790771e-01 1.821852326393127441e-01 -6.260796189308166504e-01
-2.680012583732604980e-01 -2.681631147861480713e-01 -4.210339784622192383e-01
3.373461067676544189e-01 -1.042301654815673828e-01 1.887540072202682495e-01
5.037233829498291016e-01 1.790144592523574829e-01 -2.115437537431716919e-01
-2.614291906356811523e-01 9.963378310203552246e-02 8.021489977836608887e-01
3.407871425151824951e-01 1.708793789148330688e-01 -8.135205507278442383e-01
3.137804567813873291e-01 3.286327719688415527e-01 -7.705228924751281738e-01
-4.217144250869750977e-01 -8.352528512477874756e-02 8.021489977836608887e-01
4.558250904083251953e-01 -2.827013432979583740e-01 7.349070310592651367e-01
1.839409470558166504e-01 -2.681273519992828369e-01 1.613955646753311157e-01
3.399733304977416992e-01 -7.609440386295318604e-02 3.151544630527496338e-01
3.399733304977416992e-01 2.542752325534820557e-01 2.646705806255340576e-01
-6.169636547565460205e-02 -2.814523279666900635e-01 8.021489977836608887e-01
1.736466288566589355e-01 -1.582415252923965454e-01 -7.386493086814880371e-01
3.399733304977416992e-01 2.570197284221649170e-01 6.391292214393615723e-01
-4.241965711116790771e-01 1.145892404019832611e-02 1.102459579706192017e-01
9.978115558624267578e-02 2.177075743675231934e-01 8.021489977836608887e-01
-4.241965711116790771e-01 7.111247628927230835e-02 -3.849422931671142578e-01
-1.611073315143585205e-01 -6.620112806558609009e-02 -7.589378952980041504e-01
4.145325720310211182e-01 2.117962837219238281e-01 8.021489977836608887e-01
-4.241965711116790771e-01 -4.100987315177917480e-02 -2.914955317974090576e-01
-4.241965711116790771e-01 -1.681625284254550934e-02 6.549641489982604980e-01
-1.305841058492660522e-01 -2.639887630939483643e-01 -6.171317100524902344e-01
-4.787802696228027344e-01 -9.765015542507171631e-02 -2.692236602306365967e-01
-2.017301321029663086e-01 3.204002976417541504e-01 8.021489977836608887e-01
5.037233829498291016e-01 1.379643976688385010e-01 -6.297451853752136230e-01
5.037233829498291016e-01 -2.399561256170272827e-01 2.379043698310852051e-01
2.949923574924468994e-01 -1.971810609102249146e-01 -3.692871928215026855e-01
-1.587106436491012573e-01 -2.717840373516082764e-01 5.527563095092773438e-01
3.385025635361671448e-02 -1.815090626478195190e-01 8.021489977836608887e-01
-1.676555573940277100e-01 1.362155526876449585e-01 8.021489977836608887e-01
5.037233829498291016e-01 -1.326150447130203247e-01 3.186133801937103271e-01
-4.241965711116790771e-01 -4.563704878091812134e-02 5.374191999435424805e-01
-3.521444275975227356e-02 -3.097492968663573265e-03 -7.589378952980041504e-01
-2.376886755228042603e-01 1.699741482734680176e-01 8.021489977836608887e-01
7.499685743823647499e-04 -2.361364811658859253e-01 6.614428162574768066e-01
-6.188466772437095642e-02 1.671074479818344116e-01 -8.135205507278442383e-01
-4.241965711116790771e-01 2.906431853771209717e-01 -8.314185589551925659e-02
5.037233829498291016e-01 2.078057527542114258e-01 3.949284255504608154e-01
-4.787802696228027344e-01 -2.581361234188079834e-01 -9.169746190309524536e-02
4.485415816307067871e-01 3.286327719688415527e-01 5.094199180603027344e-01
5.037233829498291016e-01 1.407377123832702637e-01 -4.906179904937744141e-01
-5.034251138567924500e-02 -6.276644766330718994e-02 -8.135205507278442383e-01
-3.451708257198333740e-01 -2.306644022464752197e-01 1.953658014535903931e-01
-4.751086831092834473e-01 -2.827013432979583740e-01 3.108926415443420410e-01
5.037233829498291016e-01 -5.023321881890296936e-02 -4.444903135299682617e-01
5.037233829498291016e-01 -2.739243805408477783e-01 3.495728373527526855e-01
-2.843022346496582031e-01 -2.633448839187622070e-01 -3.389040529727935791e-01
3.399733304977416992e-01 1.023147776722908020e-01 3.107066079974174500e-02
3.399733304977416992e-01 1.026588901877403259e-01 1.866504102945327759e-01
5.037233829498291016e-01 6.150577589869499207e-02 3.081580996513366699e-01
4.464648067951202393e-01 3.286327719688415527e-01 -1.409064829349517822e-01
-1.390918195247650146e-01 -2.717840373516082764e-01 -1.121837422251701355e-01
-4.241965711116790771e-01 1.500403434038162231e-01 -5.325335264205932617e-01
-2.182616442441940308e-01 2.194345593452453613e-01 -8.135205507278442383e-01
-4.241965711116790771e-01 1.298432201147079468e-01 3.262307643890380859e-01
-4.241965711116790771e-01 1.092623472213745117e-01 2.689254283905029297e-01
-4.787802696228027344e-01 5.318765714764595032e-02 -7.039189338684082031e-01
-4.685396254062652588e-01 3.286327719688415527e-01 1.051164697855710983e-02
-2.372723370790481567e-01 -2.702746689319610596e-01 5.816738009452819824e-01
2.533719241619110107e-01 -2.365041524171829224e-01 5.231669172644615173e-02
-4.241965711116790771e-01 3.964636102318763733e-02 2.959301173686981201e-01
-4.787802696228027344e-01 2.103445529937744141e-01 -4.812428057193756104e-01
3.857591748237609863e-01 -2.577737532556056976e-02 8.021489977836608887e-01
3.399733304977416992e-01 -8.535958081483840942e-02 -6.611686944961547852e-01
-3.780401051044464111e-01 -3.787478059530258179e-02 7.475652694702148438e-01
-3.795385360717773438e-01 -1.967945247888565063e-01 -3.326976597309112549e-01
-4.250411689281463623e-01 6.277249753475189209e-02 8.021489977836608887e-01
4.609811902046203613e-01 3.286327719688415527e-01 8.712140470743179321e-02
-4.787802696228027344e-01 3.438004059717059135e-03 -5.050469040870666504e-01
-1.020422279834747314e-01 -5.777888931334018707e-03 -7.589378952980041504e-01
3.032506704330444336e-01 -8.045487850904464722e-02 -8.135205507278442383e-01
4.548503160476684570e-01 3.286327719688415527e-01 6.066762804985046387e-01
3.639712035655975342e-01 3.286327719688415527e-01 2.167871147394180298e-01
-8.597514033317565918e-02 1.537178903818130493e-01 7.475652694702148438e-01
5.037233829498291016e-01 2.006235867738723755e-01 1.544200778007507324e-01
2.709884941577911377e-01 3.272108435630798340e-01 -8.135205507278442383e-01
-4.787802696228027344e-01 -2.026034593582153320e-01 7.233468294143676758e-01
2.790033519268035889e-01 -2.148503214120864868e-01 -9.272202849388122559e-02
3.628135919570922852e-01 -2.827013432979583740e-01 -6.959875226020812988e-01
-4.241965711116790771e-01 8.210761845111846924e-02 -1.461907625198364258e-01
-3.480385243892669678e-01 1.717289537191390991e-01 -7.589378952980041504e-01
-4.159660935401916504e-01 1.938388794660568237e-01 8.021489977836608887e-01
5.037233829498291016e-01 2.668728232383728027e-01 4.266192018985748291e-01
3.399733304977416992e-01 1.370124816894531250e-01 -5.430893972516059875e-02
-4.787802696228027344e-01 1.103220880031585693e-01 6.977561116218566895e-01
-4.365199506282806396e-01 2.748797535896301270e-01 8.021489977836608887e-01
4.149181246757507324e-01 3.286327719688415527e-01 -7.674644589424133301e-01
5.419643223285675049e-02 -2.717840373516082764e-01 -2.926382720470428467e-01
4.179994463920593262e-01 -1.689611226320266724e-01 8.021489977836608887e-01
-3.324052691459655762e-01 -2.400167435407638550e-01 1.780212856829166412e-02
-4.787802696228027344e-01 -1.904658973217010498e-01 -4.905931353569030762e-01
-4.241965711116790771e-01 1.966270804405212402e-01 5.339761972427368164e-01
2.917132675647735596e-01 1.685989201068878174e-01 -7.589378952980041504e-01
-4.787802696228027344e-01 -2.825155556201934814e-01 -3.056939542293548584e-01
5.037233829498291016e-01 3.011533804237842560e-02 -5.799956321716308594e-01
-4.241965711116790771e-01 2.894100546836853027e-01 -2.847764194011688232e-01
5.037233829498291016e-01 -2.215287089347839355e-01 -2.398958355188369751e-01
-4.787802696228027344e-01 7.914540357887744904e-03 7.343812286853790283e-02
-4.787802696228027344e-01 -1.158102750778198242e-01 9.075740724802017212e-02
5.037233829498291016e-01 2.811726033687591553e-01 -5.208719372749328613e-01
2.581792473793029785e-01 -2.466931343078613281e-01 -8.135205507278442383e-01
3.381042480468750000e-01 -9.883360564708709717e-02 -7.143831253051757812e-01
-4.787802696228027344e-01 2.179341167211532593e-01 -6.305520534515380859e-01
-4.787802696228027344e-01 1.995434761047363281e-01 5.730498433113098145e-01
-4.618036150932312012e-01 3.286327719688415527e-01 -5.115265846252441406e-01
-4.671206772327423096e-01 3.286327719688415527e-01 2.243289947509765625e-01
-3.413561582565307617e-01 1.136705204844474792e-01 -8.135205507278442383e-01
5.037233829498291016e-01 -6.313399970531463623e-02 2.110924571752548218e-01
-6.313031166791915894e-02 1.574818640947341919e-01 8.021489977836608887e-01
-4.787802696228027344e-01 2.170557230710983276e-01 -6.960173845291137695e-01
3.590019047260284424e-01 -2.047527581453323364e-01 -8.135205507278442383e-01
5.037233829498291016e-01 1.879951506853103638e-01 -6.616796553134918213e-02
5.037233829498291016e-01 1.003448516130447388e-01 3.451997339725494385e-01
-4.241965711116790771e-01 1.735910773277282715e-01 -3.279956579208374023e-01
-3.360808193683624268e-01 1.984911859035491943e-01 8.021489977836608887e-01
-4.787802696228027344e-01 -3.142284974455833435e-02 -4.166817665100097656e-01
-4.241965711116790771e-01 9.348432719707489014e-02 1.675940155982971191e-01
4.203484654426574707e-01 -2.827013432979583740e-01 2.775253169238567352e-02
4.400745928287506104e-01 -2.302719056606292725e-01 8.021489977836608887e-01
-1.334130465984344482e-01 2.359819710254669189e-01 8.021489977836608887e-01
5.037233829498291016e-01 -1.717632412910461426e-01 -4.450845122337341309e-01
5.037233829498291016e-01 2.482546418905258179e-01 -8.038263916969299316e-01
-4.787802696228027344e-01 3.260581791400909424e-01 3.257011771202087402e-01
-4.787802696228027344e-01 1.609715968370437622e-01 -7.902392745018005371e-02
7.807793095707893372e-03 -2.717840373516082764e-01 -1.992074549198150635e-01
-4.463006556034088135e-02 -1.280730366706848145e-01 7.392920851707458496e-01
2.593249082565307617e-01 -2.742502987384796143e-01 8.021489977836608887e-01
-2.270684540271759033e-01 -2.717840373516082764e-01 -4.648483991622924805e-01
-3.927859961986541748e-01 -1.782061308622360229e-01 -5.917735099792480469e-01
4.757380187511444092e-01 -2.827013432979583740e-01 5.097398161888122559e-01
-3.807775974273681641e-01 -2.372285276651382446e-01 -8.135205507278442383e-01
3.399733304977416992e-01 2.629489004611968994e-01 -5.666319727897644043e-01
-9.243452548980712891e-02 -1.756454855203628540e-01 7.178409099578857422e-01
5.037233829498291016e-01 2.343066483736038208e-01 -2.255513519048690796e-01
5.037233829498291016e-01 -2.911179885268211365e-02 4.540223479270935059e-01
-3.044844269752502441e-01 -2.827013432979583740e-01 -7.662163972854614258e-01
-4.787802696228027344e-01 -2.736570835113525391e-01 -5.275155305862426758e-01
-1.950110048055648804e-01 -2.332906574010848999e-01 6.651343107223510742e-01
3.894625306129455566e-01 3.286327719688415527e-01 5.599136948585510254e-01
5.151841789484024048e-02 3.260273933410644531e-01 8.021489977836608887e-01
-4.241965711116790771e-01 -2.792116403579711914e-01 4.575617611408233643e-01
-4.241965711116790771e-01 -8.165621757507324219e-02 -4.388532936573028564e-01
-3.515998125076293945e-01 -2.257080376148223877e-01 -4.804478585720062256e-01
-4.787802696228027344e-01 2.242090851068496704e-01 -3.366275727748870850e-01
-4.118225276470184326e-01 -1.396253108978271484e-01 6.995496153831481934e-01
-4.787802696228027344e-01 1.963081210851669312e-01 6.676591038703918457e-01
3.852383792400360107e-02 -1.202400103211402893e-01 7.412942647933959961e-01
-4.787802696228027344e-01 -4.641160741448402405e-02 3.591378033161163330e-01
5.037233829498291016e-01 2.982059121131896973e-01 -6.586420536041259766e-02
5.037233829498291016e-01 7.276006788015365601e-02 7.758647203445434570e-01
-4.787802696228027344e-01 -2.079433798789978027e-01 -9.780409187078475952e-02
-1.608610153198242188e-02 -2.717840373516082764e-01 -5.434627532958984375e-01
5.037233829498291016e-01 5.898953601717948914e-02 1.013884767889976501e-01
2.085111588239669800e-01 -2.356128245592117310e-01 6.621224880218505859e-01
-4.787802696228027344e-01 1.504338383674621582e-01 1.881965398788452148e-01
3.726955354213714600e-01 3.286327719688415527e-01 4.761936515569686890e-02
2.203188091516494751e-01 -2.787913382053375244e-01 7.475652694702148438e-01
-4.241965711116790771e-01 -7.028993964195251465e-02 4.452831149101257324e-01
-4.787802696228027344e-01 2.739775180816650391e-01 5.597835183143615723e-01
3.399733304977416992e-01 -5.876040831208229065e-02 1.972875297069549561e-01
-3.505217134952545166e-01 -2.190505117177963257e-01 -6.936146616935729980e-01
4.620990455150604248e-01 -2.827013432979583740e-01 2.315926402807235718e-01
5.037233829498291016e-01 5.994592327624559402e-03 -5.774372443556785583e-02
5.253354087471961975e-02 2.074778527021408081e-01 7.475652694702148438e-01
4.925070106983184814e-01 3.286327719688415527e-01 -6.163794994354248047e-01
4.318916797637939453e-02 -2.717840373516082764e-01 -8.124209009110927582e-03
1.645745187997817993e-01 2.016440778970718384e-01 -8.135205507278442383e-01
3.345270752906799316e-01 -1.170086264610290527e-01 6.813269257545471191e-01
4.569211006164550781e-01 -2.827013432979583740e-01 -7.887118458747863770e-01
-1.397307366132736206e-01 -2.717840373516082764e-01 -4.804786741733551025e-01
