9.615344405174255371e-01 -1.237057670950889587e-01 -1.609902679920196533e-01
-7.485296726226806641e-01 9.302944689989089966e-02 -8.263678103685379028e-02
-2.131499350070953369e-01 3.973605856299400330e-02 6.217543035745620728e-02
7.966430783271789551e-01 -1.492264419794082642e-01 -1.674828082323074341e-01
-1.299749463796615601e-01 3.673981130123138428e-02 -6.367963738739490509e-03
-2.655408978462219238e-01 6.197220087051391602e-02 9.257148206233978271e-02
1.052799150347709656e-01 7.132390141487121582e-02 -7.460579276084899902e-02
-5.876238346099853516e-01 7.670688629150390625e-02 -2.901241369545459747e-02
-6.305329203605651855e-01 3.391695441678166389e-03 -1.674828082323074341e-01
-6.145476698875427246e-01 2.624110504984855652e-02 6.966880708932876587e-02
-7.737617194652557373e-02 6.154613941907882690e-02 -1.381389889866113663e-02
6.622024774551391602e-01 6.080053374171257019e-02 -1.202006489038467407e-01
7.536758184432983398e-01 9.302944689989089966e-02 4.677788820117712021e-03
-6.752892732620239258e-01 -4.700534418225288391e-02 -1.674828082323074341e-01
-9.522785544395446777e-01 -7.921282947063446045e-02 -1.596302241086959839e-01
-6.708363294601440430e-01 7.361003756523132324e-02 -3.491970151662826538e-02
-6.445150971412658691e-01 6.934447586536407471e-02 -8.980430662631988525e-02
2.115855813026428223e-01 5.792461335659027100e-02 -1.202006489038467407e-01
-6.288139224052429199e-01 -2.447034269571304321e-01 3.341104462742805481e-02
-9.470642209053039551e-01 -2.447034269571304321e-01 -9.690752252936363220e-03
9.615344405174255371e-01 6.378594040870666504e-02 5.331666767597198486e-02
-5.914534926414489746e-01 8.848181366920471191e-02 4.697700962424278259e-02
5.308665633201599121e-01 5.192126333713531494e-02 1.383556751534342766e-03
-6.145476698875427246e-01 -5.424102023243904114e-02 -4.494204744696617126e-02
6.800922155380249023e-01 3.785625100135803223e-02 -9.582383185625076294e-02
-8.879331946372985840e-01 -2.447034269571304321e-01 -1.137537788599729538e-02
-8.999132513999938965e-01 9.302944689989089966e-02 -6.824926286935806274e-02
5.103396177291870117e-01 9.302944689989089966e-02 1.176092866808176041e-02
6.403627991676330566e-01 8.038169145584106445e-02 6.217543035745620728e-02
-3.870230913162231445e-01 7.536162436008453369e-02 1.685605943202972412e-01
2.772249579429626465e-01 6.053424999117851257e-02 -1.381389889866113663e-02
8.019560575485229492e-01 -2.392594330012798309e-02 -1.674828082323074341e-01
-2.120749205350875854e-01 6.426821649074554443e-02 1.658106409013271332e-02
1.515791658312082291e-02 8.686237782239913940e-02 1.229669302701950073e-01
7.598468065261840820e-01 -2.447034269571304321e-01 -1.474844664335250854e-01
-6.145476698875427246e-01 2.778163738548755646e-02 1.671354621648788452e-01
-2.408154159784317017e-01 3.673981130123138428e-02 1.274097245186567307e-02
-6.145476698875427246e-01 -1.197058036923408508e-01 -9.316340088844299316e-02
-1.565890759229660034e-01 6.189725175499916077e-02 -2.901241369545459747e-02
2.454645186662673950e-01 9.262999892234802246e-02 1.533633768558502197e-01
2.172185108065605164e-02 3.673981130123138428e-02 -1.133895590901374817e-01
4.033958315849304199e-01 8.319054543972015381e-02 1.077687144279479980e-01
-5.198670029640197754e-01 7.087121158838272095e-02 6.217543035745620728e-02
7.645877599716186523e-01 4.198063630610704422e-03 1.702500581741333008e-01
-3.014228940010070801e-01 3.673981130123138428e-02 1.595422774553298950e-01
6.531022191047668457e-01 -1.505821011960506439e-02 1.702500581741333008e-01
5.542694330215454102e-01 8.931321650743484497e-02 1.685605943202972412e-01
-6.145476698875427246e-01 -1.596711128950119019e-01 -5.302471667528152466e-02
-6.633891463279724121e-01 -2.447034269571304321e-01 -1.510882526636123657e-01
5.923222303390502930e-01 5.704585835337638855e-02 9.257148206233978271e-02
-7.843495607376098633e-01 -1.484111100435256958e-01 1.702500581741333008e-01
5.437164902687072754e-01 3.735819086432456970e-02 1.077687144279479980e-01
4.655822813510894775e-01 9.302944689989089966e-02 -6.440819054841995239e-02
5.766150951385498047e-01 7.693274319171905518e-02 7.737296074628829956e-02
6.238035559654235840e-01 -5.654116719961166382e-02 -2.187082916498184204e-02
4.775978326797485352e-01 4.429848119616508484e-02 -5.940836295485496521e-02
8.742023110389709473e-01 -1.728144586086273193e-01 -1.674828082323074341e-01
-6.145476698875427246e-01 3.270601853728294373e-02 -9.706769883632659912e-02
4.506631791591644287e-01 3.673981130123138428e-02 -9.405202418565750122e-02
6.447644829750061035e-01 3.673981130123138428e-02 -3.982001915574073792e-02
-6.145476698875427246e-01 -1.462554335594177246e-01 -1.498426198959350586e-01
-2.814359776675701141e-02 5.351604148745536804e-02 -7.460579276084899902e-02
8.332480192184448242e-01 -2.447034269571304321e-01 1.121279671788215637e-01
6.848518252372741699e-01 -2.447034269571304321e-01 1.679441928863525391e-01
-1.857260763645172119e-01 8.994738012552261353e-02 1.685605943202972412e-01
-4.821446239948272705e-01 6.965219229459762573e-02 4.697700962424278259e-02
-3.792385756969451904e-01 9.302944689989089966e-02 -3.228215500712394714e-02
5.125201940536499023e-01 9.302944689989089966e-02 -1.561211347579956055e-01
-7.857722789049148560e-02 3.921827673912048340e-02 -1.505961120128631592e-01
7.364971637725830078e-01 -5.746085196733474731e-02 1.702500581741333008e-01
-8.607578277587890625e-01 9.625529870390892029e-03 -1.674828082323074341e-01
-6.410493850708007812e-01 3.673981130123138428e-02 5.853200331330299377e-03
-5.942570045590400696e-02 6.056580320000648499e-02 9.257148206233978271e-02
-3.917876780033111572e-01 6.178974732756614685e-02 -8.980430662631988525e-02
-7.880377769470214844e-02 5.718589946627616882e-02 -1.202006489038467407e-01
-8.989052772521972656e-01 -1.606968045234680176e-01 1.702500581741333008e-01
6.238035559654235840e-01 3.023347072303295135e-02 1.563132554292678833e-01
8.940630406141281128e-02 5.545403808355331421e-02 9.257148206233978271e-02
4.335111975669860840e-01 8.968405425548553467e-02 7.737296074628829956e-02
2.106460928916931152e-02 6.063386052846908569e-02 6.217543035745620728e-02
7.809073925018310547e-01 -2.447034269571304321e-01 1.024498268961906433e-01
8.492244482040405273e-01 -1.015308573842048645e-01 -1.674828082323074341e-01
6.549820899963378906e-01 1.916263997554779053e-02 -1.674828082323074341e-01
7.609021663665771484e-01 8.845518529415130615e-02 -1.674828082323074341e-01
-6.994733214378356934e-01 -2.447034269571304321e-01 1.190011873841285706e-01
6.238035559654235840e-01 -1.531866639852523804e-01 -1.125818118453025818e-01
-5.610570311546325684e-01 8.071997016668319702e-02 1.229669302701950073e-01
1.752834618091583252e-01 5.545206740498542786e-02 -1.353978961706161499e-01
-4.877189397811889648e-01 3.911273926496505737e-02 1.685605943202972412e-01
9.615344405174255371e-01 -7.399330846965312958e-03 1.286161988973617554e-01
6.238035559654235840e-01 -1.228972300887107849e-01 -7.911732047796249390e-02
7.641439437866210938e-01 9.302944689989089966e-02 -5.892973393201828003e-02
6.484126448631286621e-01 5.158495157957077026e-02 4.697700962424278259e-02
-9.173778891563415527e-01 -1.430508331395685673e-03 1.702500581741333008e-01
-7.602493762969970703e-01 -2.447034269571304321e-01 -3.254666924476623535e-02
5.632167458534240723e-01 6.862451881170272827e-02 -1.381389889866113663e-02
-2.417671531438827515e-01 6.879217177629470825e-02 4.697700962424278259e-02
-5.845772624015808105e-01 3.673981130123138428e-02 7.481470704078674316e-02
2.381602823734283447e-01 6.821916252374649048e-02 -1.505961120128631592e-01
6.672570109367370605e-01 9.302944689989089966e-02 -5.604108795523643494e-02
7.450736761093139648e-01 -1.821007430553436279e-01 1.702500581741333008e-01
9.615344405174255371e-01 -2.078824937343597412e-01 7.279831171035766602e-02
2.684742957353591919e-02 8.561871200799942017e-02 -1.202006489038467407e-01
-2.056938409805297852e-01 9.038430452346801758e-02 9.257148206233978271e-02
6.238035559654235840e-01 -2.048992365598678589e-02 -1.529858261346817017e-01
-6.317440867424011230e-01 9.302944689989089966e-02 1.245626956224441528e-01
2.854375243186950684e-01 8.225852996110916138e-02 1.533633768558502197e-01
9.615344405174255371e-01 -5.717030167579650879e-02 1.072676926851272583e-01
-4.772695600986480713e-01 7.358834892511367798e-02 1.658106409013271332e-02
8.081142306327819824e-01 -2.182914614677429199e-01 -1.674828082323074341e-01
8.809128403663635254e-01 -5.492301657795906067e-02 1.702500581741333008e-01
-6.567358374595642090e-01 5.625981092453002930e-02 1.533633768558502197e-01
3.333932757377624512e-01 6.311528384685516357e-02 -1.353978961706161499e-01
1.822237223386764526e-01 3.673981130123138428e-02 9.976829588413238525e-02
3.319621980190277100e-01 7.110594213008880615e-02 -5.940836295485496521e-02
-1.372850686311721802e-01 5.529031902551651001e-02 1.658106409013271332e-02
-6.145476698875427246e-01 -1.043109036982059479e-02 2.472951821982860565e-02
2.386810332536697388e-01 8.487506210803985596e-02 -8.980430662631988525e-02
-6.145476698875427246e-01 -4.843926429748535156e-02 -1.476689130067825317e-01
-9.176787137985229492e-01 9.302944689989089966e-02 8.225158788263797760e-03
-5.495700836181640625e-01 5.818597599864006042e-02 -1.050014421343803406e-01
6.206277608871459961e-01 6.157869100570678711e-02 1.685605943202972412e-01
-4.309598505496978760e-01 3.754459321498870850e-02 -1.505961120128631592e-01
7.412667274475097656e-01 2.715142071247100830e-02 1.702500581741333008e-01
9.615344405174255371e-01 -1.584075242280960083e-01 1.697756648063659668e-01
-6.894568204879760742e-01 -2.447034269571304321e-01 7.885402441024780273e-02
5.368545651435852051e-02 3.673981130123138428e-02 -9.245537221431732178e-02
-9.522785544395446777e-01 1.589635573327541351e-02 1.270096004009246826e-01
3.755804300308227539e-01 3.673981130123138428e-02 -3.465469554066658020e-02
7.441801428794860840e-01 -2.447034269571304321e-01 5.988731235265731812e-02
-3.652869760990142822e-01 3.673981130123138428e-02 1.543821692466735840e-01
1.543235182762145996e-01 7.259321212768554688e-02 -4.420984908938407898e-02
2.136567533016204834e-01 3.673981130123138428e-02 -9.807721711695194244e-03
4.125709831714630127e-01 3.673981130123138428e-02 6.679782271385192871e-02
6.618129014968872070e-01 9.302944689989089966e-02 1.739176223054528236e-03
-6.145476698875427246e-01 -9.156054817140102386e-03 -9.617187827825546265e-02
8.932834267616271973e-01 5.271422117948532104e-02 1.702500581741333008e-01
9.519085288047790527e-01 2.407823875546455383e-02 1.702500581741333008e-01
-6.275514960289001465e-01 -2.447034269571304321e-01 -3.194120898842811584e-02
-2.528536915779113770e-01 6.540142744779586792e-02 1.685605943202972412e-01
-5.620423555374145508e-01 4.174407571554183960e-02 -1.657933443784713745e-01
-2.710629403591156006e-01 4.950197413563728333e-02 -5.940836295485496521e-02
7.758952379226684570e-01 -4.483183100819587708e-02 -1.674828082323074341e-01
-7.760265469551086426e-01 -2.161996066570281982e-01 -1.674828082323074341e-01
2.437089830636978149e-01 7.297489047050476074e-02 4.697700962424278259e-02
1.216468438506126404e-01 7.586561143398284912e-02 -4.420984908938407898e-02
-7.393575310707092285e-01 7.499475032091140747e-02 1.702500581741333008e-01
6.663851737976074219e-01 1.052223704755306244e-02 1.702500581741333008e-01
-9.014241695404052734e-01 9.302944689989089966e-02 -1.487468928098678589e-01
-2.292416989803314209e-01 4.443656280636787415e-02 1.381651461124420166e-01
5.260300822556018829e-03 6.657508015632629395e-02 -1.657933443784713745e-01
9.000333547592163086e-01 -7.905798405408859253e-02 -1.674828082323074341e-01
6.689642071723937988e-01 -2.447034269571304321e-01 -1.126281693577766418e-01
-6.145476698875427246e-01 3.038930334150791168e-02 2.500143088400363922e-02
-6.699280142784118652e-01 -1.462242901325225830e-01 -1.674828082323074341e-01
7.225160598754882812e-01 -1.166016533970832825e-01 1.702500581741333008e-01
9.436772465705871582e-01 -2.447034269571304321e-01 -8.520342409610748291e-02
6.351879239082336426e-01 -8.763460069894790649e-02 -1.674828082323074341e-01
3.257625997066497803e-01 3.941848501563072205e-02 -1.381389889866113663e-02
-5.802259445190429688e-01 6.452266871929168701e-02 1.229669302701950073e-01
-3.958698213100433350e-01 3.882377222180366516e-02 6.217543035745620728e-02
-3.670276999473571777e-01 5.914757400751113892e-02 -5.940836295485496521e-02
-6.292980909347534180e-01 3.673981130123138428e-02 4.915584996342658997e-02
-7.465916872024536133e-01 -2.432962134480476379e-02 -1.674828082323074341e-01
-2.921106517314910889e-01 5.157607421278953552e-02 1.229669302701950073e-01
7.843040227890014648e-01 9.302944689989089966e-02 4.984178766608238220e-02
2.496442645788192749e-01 9.302944689989089966e-02 1.054845377802848816e-01
8.758602738380432129e-01 -2.415327541530132294e-02 -1.674828082323074341e-01
-1.825246810913085938e-01 6.915216147899627686e-02 1.381651461124420166e-01
8.702055551111698151e-03 6.999343633651733398e-02 7.737296074628829956e-02
-9.522785544395446777e-01 1.530430465936660767e-02 -9.557963907718658447e-02
-5.955355763435363770e-01 3.673981130123138428e-02 -3.109697066247463226e-02
-9.522785544395446777e-01 -1.027299370616674423e-02 -7.917640358209609985e-02
6.238035559654235840e-01 -8.027581870555877686e-02 1.305394023656845093e-01
9.615344405174255371e-01 7.949290797114372253e-03 -4.452633857727050781e-02
-3.409441709518432617e-01 7.695344835519790649e-02 -1.353978961706161499e-01
4.693817347288131714e-02 9.217336773872375488e-02 1.383556751534342766e-03
9.329575896263122559e-01 -1.128831729292869568e-01 -1.674828082323074341e-01
-5.608597993850708008e-01 3.950725123286247253e-02 3.177947923541069031e-02
6.800922155380249023e-01 6.457592546939849854e-02 9.136873483657836914e-02
-4.350054860115051270e-01 8.240745216608047485e-02 7.737296074628829956e-02
-6.237080097198486328e-01 4.332898929715156555e-02 -1.381389889866113663e-02
7.306516766548156738e-01 -2.447034269571304321e-01 -5.185018479824066162e-02
-9.211739897727966309e-01 -2.447034269571304321e-01 1.403201222419738770e-01
8.040567636489868164e-01 9.302944689989089966e-02 -1.036413982510566711e-01
1.292005926370620728e-01 3.673981130123138428e-02 3.284069150686264038e-02
4.166629314422607422e-01 3.673981130123138428e-02 1.658917963504791260e-01
3.202455043792724609e-01 3.673981130123138428e-02 -4.249010980129241943e-02
3.284373581409454346e-01 6.489842385053634644e-02 3.177947923541069031e-02
2.689512372016906738e-01 3.673981130123138428e-02 1.012495458126068115e-01
-3.380100727081298828e-01 5.319452658295631409e-02 9.257148206233978271e-02
6.627932190895080566e-01 -2.447034269571304321e-01 1.375339329242706299e-01
8.899913430213928223e-01 9.302944689989089966e-02 -1.159853935241699219e-01
-6.145476698875427246e-01 -1.174744963645935059e-01 5.759840458631515503e-02
9.615344405174255371e-01 -1.142925322055816650e-01 1.346027851104736328e-01
-9.021332859992980957e-01 -4.820286110043525696e-02 -1.674828082323074341e-01
-6.682139039039611816e-01 3.836515918374061584e-02 1.077687144279479980e-01
5.477858185768127441e-01 9.302944689989089966e-02 -3.981834277510643005e-02
6.443127393722534180e-01 8.252087980508804321e-02 -7.460579276084899902e-02
-6.701104044914245605e-01 7.735386490821838379e-02 1.533633768558502197e-01
-6.145476698875427246e-01 -1.062800809741020203e-01 1.090261861681938171e-01
4.061474800109863281e-01 6.031628698110580444e-02 -4.420984908938407898e-02
7.391157150268554688e-01 -2.447034269571304321e-01 -9.089244902133941650e-02
2.388664335012435913e-01 6.729602068662643433e-02 1.229669302701950073e-01
-8.205511569976806641e-01 5.647974088788032532e-02 -1.674828082323074341e-01
9.615344405174255371e-01 -2.178525775671005249e-01 -5.761229246854782104e-02
9.372014999389648438e-01 6.676147133111953735e-02 1.702500581741333008e-01
-7.293528914451599121e-01 9.302944689989089966e-02 -6.308689713478088379e-02
9.615344405174255371e-01 -1.764615066349506378e-02 -1.318644173443317413e-02
3.652148544788360596e-01 5.490468442440032959e-02 1.658106409013271332e-02
-3.458182513713836670e-01 4.014634341001510620e-02 4.697700962424278259e-02
-4.258919507265090942e-03 3.991456702351570129e-02 -1.202006489038467407e-01
8.554762601852416992e-01 -1.355185657739639282e-01 -1.674828082323074341e-01
6.377097368240356445e-01 4.105665907263755798e-02 -8.980430662631988525e-02
2.432404905557632446e-01 3.976071253418922424e-02 -5.940836295485496521e-02
1.408216655254364014e-01 3.673981130123138428e-02 -1.613906919956207275e-01
2.506029009819030762e-01 4.306369274854660034e-02 1.658106409013271332e-02
6.907782554626464844e-01 -2.447034269571304321e-01 2.838734909892082214e-02
-5.847222805023193359e-01 8.156914263963699341e-02 9.257148206233978271e-02
-2.948435842990875244e-01 5.219051614403724670e-02 9.257148206233978271e-02
-7.804528474807739258e-01 9.302944689989089966e-02 -4.773630946874618530e-02
7.975613474845886230e-01 -5.229336023330688477e-02 1.702500581741333008e-01
3.598614633083343506e-01 6.246632337570190430e-02 1.381651461124420166e-01
-2.310761213302612305e-01 8.258596807718276978e-02 -8.980430662631988525e-02
9.331937879323959351e-02 4.060790687799453735e-02 1.533633768558502197e-01
7.701122015714645386e-02 5.530610308051109314e-02 -5.940836295485496521e-02
-2.965063750743865967e-01 6.698437035083770752e-02 -7.460579276084899902e-02
-6.145476698875427246e-01 -1.308267414569854736e-01 -3.967218101024627686e-02
-4.010170996189117432e-01 5.324678868055343628e-02 3.177947923541069031e-02
9.388978481292724609e-01 9.302944689989089966e-02 -5.474800243973731995e-02
-9.522785544395446777e-01 -1.209057793021202087e-01 -1.254761517047882080e-01
7.953599691390991211e-01 -2.447034269571304321e-01 -9.819853119552135468e-03
-6.342560052871704102e-01 7.532415539026260376e-02 -1.381389889866113663e-02
1.496328711509704590e-01 5.030379444360733032e-02 -1.381389889866113663e-02
-8.801847696304321289e-02 3.673981130123138428e-02 -9.253456443548202515e-02
3.990918099880218506e-01 7.520383596420288086e-02 4.697700962424278259e-02
4.031798541545867920e-01 9.302944689989089966e-02 -9.209242463111877441e-02
-9.522785544395446777e-01 -1.280770599842071533e-01 4.317991808056831360e-02
-2.669107913970947266e-01 8.976000547409057617e-02 1.658106409013271332e-02
9.615344405174255371e-01 -2.423442900180816650e-01 5.645109340548515320e-02
6.238035559654235840e-01 1.151302922517061234e-02 1.774415746331214905e-02
-8.814406394958496094e-01 9.302944689989089966e-02 1.062084510922431946e-01
-3.168065249919891357e-01 6.788678467273712158e-02 -1.050014421343803406e-01
-1.617550849914550781e-01 7.372839003801345825e-02 -5.940836295485496521e-02
5.027759671211242676e-01 9.302944689989089966e-02 -9.714285284280776978e-02
3.672607615590095520e-02 9.302944689989089966e-02 6.844348460435867310e-02
-3.403031229972839355e-01 7.896738499402999878e-02 -1.381389889866113663e-02
9.610896706581115723e-01 -3.289220109581947327e-02 1.702500581741333008e-01
9.085931181907653809e-01 -2.447034269571304321e-01 -1.666316688060760498e-01
8.176780343055725098e-01 9.302944689989089966e-02 1.530928537249565125e-02
9.615344405174255371e-01 -5.093804746866226196e-02 -1.451273113489151001e-01
4.732859432697296143e-01 6.841838359832763672e-02 1.533633768558502197e-01
-9.309586882591247559e-01 -3.826266899704933167e-02 -1.674828082323074341e-01
-4.949570894241333008e-01 9.302944689989089966e-02 -9.550556540489196777e-02
-7.619141936302185059e-01 -2.447034269571304321e-01 -1.096565797924995422e-01
-3.545225411653518677e-02 9.057070314884185791e-02 -2.901241369545459747e-02
-1.810531914234161377e-01 8.944636583328247070e-02 -1.381389889866113663e-02
7.103307843208312988e-01 6.733153015375137329e-02 1.702500581741333008e-01
-6.145476698875427246e-01 -6.373157352209091187e-02 -1.006806492805480957e-01
6.633780598640441895e-01 -2.135544568300247192e-01 -1.674828082323074341e-01
7.504645586013793945e-01 9.302944689989089966e-02 -9.117391705513000488e-02
-4.326354861259460449e-01 9.302944689989089966e-02 -1.562384963035583496e-01
-4.471147358417510986e-01 7.098363339900970459e-02 -4.420984908938407898e-02
1.062543317675590515e-01 3.673981130123138428e-02 7.261673361063003540e-02
7.205317020416259766e-01 9.302944689989089966e-02 1.684678941965103149e-01
-5.538840293884277344e-01 6.764417886734008789e-02 1.685605943202972412e-01
3.349397182464599609e-01 9.292292594909667969e-02 -1.381389889866113663e-02
6.469820439815521240e-02 8.526661992073059082e-02 1.229669302701950073e-01
-3.685356974601745605e-01 3.673981130123138428e-02 -6.210932508111000061e-02
-7.737256288528442383e-01 -6.363324820995330811e-02 -1.674828082323074341e-01
7.060291618108749390e-02 6.858900934457778931e-02 1.383556751534342766e-03
-8.920000493526458740e-02 7.159018516540527344e-02 1.383556751534342766e-03
7.493816614151000977e-01 3.819552436470985413e-02 -1.674828082323074341e-01
1.960421651601791382e-01 9.302944689989089966e-02 1.352251023054122925e-01
6.814088225364685059e-01 -2.447034269571304321e-01 5.744514241814613342e-02
8.060297369956970215e-02 8.888914436101913452e-02 -5.940836295485496521e-02
6.692226529121398926e-01 7.881846278905868530e-02 1.533633768558502197e-01
7.723771929740905762e-01 -2.447034269571304321e-01 -5.416305363178253174e-02
9.445609450340270996e-01 -2.174413055181503296e-01 1.702500581741333008e-01
9.615344405174255371e-01 -1.751210093498229980e-01 1.048671454191207886e-01
-1.831055730581283569e-01 5.779640376567840576e-02 4.697700962424278259e-02
-3.240022361278533936e-01 7.102506607770919800e-02 -7.460579276084899902e-02
-9.522785544395446777e-01 -1.960405111312866211e-01 -1.078892052173614502e-01
-6.145476698875427246e-01 -1.982724070549011230e-01 2.591924183070659637e-02
6.323800086975097656e-01 9.179365634918212891e-02 1.658106409013271332e-02
-1.621831357479095459e-01 9.302944689989089966e-02 -1.308591365814208984e-01
6.500694751739501953e-01 -2.797097712755203247e-02 -1.674828082323074341e-01
1.551006883382797241e-01 6.082716211676597595e-02 9.257148206233978271e-02
6.238035559654235840e-01 -2.141363620758056641e-01 -4.573016241192817688e-02
4.971858859062194824e-01 7.189790159463882446e-02 -1.657933443784713745e-01
4.322822988033294678e-01 3.956247866153717041e-02 -1.353978961706161499e-01
-6.877368688583374023e-01 -2.072236835956573486e-01 -1.674828082323074341e-01
-8.694931268692016602e-01 -9.007804840803146362e-02 -1.674828082323074341e-01
3.876531720161437988e-01 6.622298061847686768e-02 -1.202006489038467407e-01
1.033734753727912903e-01 9.302944689989089966e-02 -1.566112935543060303e-01
-5.675801634788513184e-01 4.392567649483680725e-02 -1.381389889866113663e-02
1.709113717079162598e-01 8.333848416805267334e-02 4.697700962424278259e-02
-9.522785544395446777e-01 -5.331473052501678467e-02 -1.653288155794143677e-01
-4.252036660909652710e-02 6.085280701518058777e-02 -8.980430662631988525e-02
-6.145476698875427246e-01 -8.078911900520324707e-02 1.211255863308906555e-01
1.754146367311477661e-01 8.760207891464233398e-02 -2.901241369545459747e-02
-8.254075050354003906e-01 -1.123920083045959473e-01 -1.674828082323074341e-01
1.671655625104904175e-01 7.115820050239562988e-02 -7.460579276084899902e-02
1.840857863426208496e-01 3.673981130123138428e-02 4.214454814791679382e-02
6.894981265068054199e-01 -1.893260776996612549e-01 1.702500581741333008e-01
-1.789011806249618530e-01 5.858342349529266357e-02 7.737296074628829956e-02
1.545651555061340332e-01 3.673981130123138428e-02 1.023955792188644409e-01
9.615344405174255371e-01 4.847824200987815857e-02 -1.180170774459838867e-01
-1.502375751733779907e-01 5.635646730661392212e-02 7.737296074628829956e-02
1.470587402582168579e-01 5.822640284895896912e-02 3.177947923541069031e-02
6.238035559654235840e-01 -6.926351785659790039e-02 -1.200191751122474670e-01
-5.211600065231323242e-01 4.455984011292457581e-02 -5.940836295485496521e-02
-9.123331904411315918e-01 4.535374755505472422e-04 -1.674828082323074341e-01
8.420602083206176758e-01 -2.447034269571304321e-01 -1.392965614795684814e-01
-1.509950160980224609e-01 9.302944689989089966e-02 -1.045024022459983826e-01
5.783519148826599121e-01 3.673981130123138428e-02 6.495352089405059814e-02
-7.338976263999938965e-01 -2.447034269571304321e-01 -1.077521145343780518e-01
8.479126691818237305e-01 9.302944689989089966e-02 -1.095244139432907104e-01
6.295780539512634277e-01 -2.447034269571304321e-01 -1.015554592013359070e-01
-6.041742563247680664e-01 9.302944689989089966e-02 1.266601681709289551e-02
4.755296707153320312e-01 9.197414666414260864e-02 1.077687144279479980e-01
-8.130245655775070190e-02 8.400618284940719604e-02 -1.505961120128631592e-01
9.615344405174255371e-01 3.865610808134078979e-02 -3.151365555822849274e-03
9.615344405174255371e-01 7.708561420440673828e-02 1.443391144275665283e-01
-8.342571258544921875e-01 -1.782928109169006348e-01 -1.674828082323074341e-01
2.861762046813964844e-01 9.302944689989089966e-02 1.465594832552596927e-04
5.117686986923217773e-01 9.302944689989089966e-02 6.756098568439483643e-02
-2.037652954459190369e-02 3.937903046607971191e-02 6.217543035745620728e-02
-2.300484627485275269e-01 4.502141103148460388e-02 -1.505961120128631592e-01
1.944582611322402954e-01 3.673981130123138428e-02 -9.790828078985214233e-02
-8.052621483802795410e-01 -2.093648463487625122e-01 -1.674828082323074341e-01
-9.522785544395446777e-01 -6.350088864564895630e-02 -9.437590837478637695e-02
-6.351047754287719727e-02 8.533959835767745972e-02 -8.980430662631988525e-02
-7.336766719818115234e-01 -2.447034269571304321e-01 5.335069447755813599e-02
-9.522785544395446777e-01 -2.111381441354751587e-01 6.808990985155105591e-02
-6.605023145675659180e-01 8.853704482316970825e-02 4.697700962424278259e-02
-8.684457540512084961e-01 -2.447034269571304321e-01 -1.658466011285781860e-01
9.521634131669998169e-02 4.038600623607635498e-02 1.658106409013271332e-02
-9.522785544395446777e-01 -7.306540757417678833e-02 3.236147016286849976e-02
-6.258255243301391602e-01 -1.729865521192550659e-01 1.702500581741333008e-01
-5.940226912498474121e-01 7.843875139951705933e-02 -1.050014421343803406e-01
-8.420347571372985840e-01 9.302944689989089966e-02 -8.125326782464981079e-02
-5.686616152524948120e-02 6.604150682687759399e-02 1.533633768558502197e-01
4.177497923374176025e-01 3.673981130123138428e-02 -1.566793471574783325e-01
-9.078131914138793945e-01 -1.014651730656623840e-01 -1.674828082323074341e-01
3.972642719745635986e-01 4.274117946624755859e-02 4.697700962424278259e-02
6.238035559654235840e-01 1.515739946626126766e-03 -1.400273740291595459e-01
6.650951504707336426e-01 6.295648962259292603e-02 -1.505961120128631592e-01
2.163038551807403564e-01 8.879938721656799316e-02 1.077687144279479980e-01
-9.522785544395446777e-01 -1.498118694871664047e-02 -1.503179818391799927e-01
7.980080842971801758e-01 -2.251538336277008057e-01 1.702500581741333008e-01
2.987849153578281403e-02 9.302944689989089966e-02 -1.437110602855682373e-01
-5.173283815383911133e-01 7.041456550359725952e-02 1.383556751534342766e-03
-7.179882526397705078e-01 9.302944689989089966e-02 1.008284240961074829e-01
-6.520146131515502930e-01 9.302944689989089966e-02 -1.611651293933391571e-02
8.257228732109069824e-01 -2.376211136579513550e-01 1.702500581741333008e-01
-5.362187325954437256e-02 5.920870974659919739e-02 6.217543035745620728e-02
-2.681554555892944336e-01 5.396379530429840088e-02 6.217543035745620728e-02
-9.522785544395446777e-01 6.076108664274215698e-02 1.590017974376678467e-01
-8.458111882209777832e-01 2.470155619084835052e-02 1.702500581741333008e-01
-9.522785544395446777e-01 -3.839561715722084045e-02 -1.030476689338684082e-01
-9.522785544395446777e-01 -7.152865175157785416e-03 7.586034387350082397e-02
-1.896480098366737366e-02 8.294495940208435059e-02 9.257148206233978271e-02
-9.522785544395446777e-01 2.453685365617275238e-02 7.704216986894607544e-02
6.069089770317077637e-01 5.387504398822784424e-02 1.383556751534342766e-03
-8.042857646942138672e-01 9.302944689989089966e-02 -1.033474951982498169e-01
-6.250700354576110840e-01 -2.447034269571304321e-01 8.961595594882965088e-02
2.356680035591125488e-01 9.302944689989089966e-02 9.857068769633769989e-03
-8.262694478034973145e-01 -2.379692494869232178e-01 1.702500581741333008e-01
-3.437431752681732178e-01 7.263661175966262817e-02 1.685605943202972412e-01
-8.961930871009826660e-01 9.302944689989089966e-02 -1.200162246823310852e-01
-8.212385177612304688e-01 -2.447034269571304321e-01 1.751209050416946411e-02
-4.365558624267578125e-01 3.673981130123138428e-02 1.329810917377471924e-02
7.301979660987854004e-01 -1.429159790277481079e-01 -1.674828082323074341e-01
-2.583273947238922119e-01 9.302944689989089966e-02 -9.759860485792160034e-02
9.615344405174255371e-01 -1.023706570267677307e-01 -6.156609952449798584e-02
-3.466029465198516846e-02 6.207872182130813599e-02 -1.353978961706161499e-01
-7.445600032806396484e-01 9.302944689989089966e-02 4.238224122673273087e-03
-7.377449870109558105e-01 9.302944689989089966e-02 -3.139994665980339050e-02
-6.623170375823974609e-01 7.699881494045257568e-02 -1.353978961706161499e-01
-4.678744673728942871e-01 5.999082326889038086e-02 1.077687144279479980e-01
1.172954812645912170e-01 8.700340241193771362e-02 1.658106409013271332e-02
-3.889699578285217285e-01 3.673981130123138428e-02 -2.914703823626041412e-02
8.539288640022277832e-01 7.900782674551010132e-02 1.702500581741333008e-01
8.320369124412536621e-01 5.350617691874504089e-02 1.702500581741333008e-01
6.238035559654235840e-01 -5.469124391674995422e-02 1.404650956392288208e-01
6.238035559654235840e-01 -1.492432057857513428e-01 9.267622232437133789e-02
-1.802237331867218018e-01 5.206525698304176331e-02 -4.420984908938407898e-02
2.994492650032043457e-01 3.989188373088836670e-02 1.381651461124420166e-01
4.528674483299255371e-01 6.753765791654586792e-02 1.077687144279479980e-01
1.190224289894104004e-02 7.021337002515792847e-02 -1.353978961706161499e-01
6.063389182090759277e-01 6.961668282747268677e-02 1.229669302701950073e-01
-1.887193471193313599e-01 4.064341261982917786e-02 1.077687144279479980e-01
-7.152553796768188477e-01 -1.353799179196357727e-02 -1.674828082323074341e-01
-8.355314135551452637e-01 -2.447034269571304321e-01 7.715736329555511475e-02
-6.389930248260498047e-01 -2.447034269571304321e-01 -1.567197889089584351e-01
-4.881489574909210205e-01 9.302944689989089966e-02 -4.257877916097640991e-02
5.945097208023071289e-01 7.305082678794860840e-02 3.177947923541069031e-02
1.460369974374771118e-01 6.987410783767700195e-02 1.685605943202972412e-01
-9.522785544395446777e-01 7.125092297792434692e-02 -1.523782759904861450e-01
3.479425609111785889e-01 4.682428762316703796e-02 -4.420984908938407898e-02
9.537725448608398438e-01 -2.447034269571304321e-01 1.699689775705337524e-01
-5.429760217666625977e-01 3.673981130123138428e-02 -1.227471679449081421e-01
2.978318333625793457e-01 6.465680152177810669e-02 1.383556751534342766e-03
6.238035559654235840e-01 1.753511838614940643e-02 -9.252036362886428833e-02
-3.303079167380928993e-03 4.527487978339195251e-02 -5.940836295485496521e-02
3.267015218734741211e-01 9.302944689989089966e-02 7.285008579492568970e-02
-6.537346243858337402e-01 -2.447034269571304321e-01 1.577640324831008911e-01
6.238035559654235840e-01 -4.110565409064292908e-02 -1.131282001733779907e-01
-1.225730776786804199e-01 6.087056174874305725e-02 1.381651461124420166e-01
6.238035559654235840e-01 -1.842093914747238159e-01 -1.653150022029876709e-01
-7.790701389312744141e-01 9.302944689989089966e-02 -1.420935839414596558e-01
6.238035559654235840e-01 -1.964914053678512573e-02 3.062191233038902283e-02
-8.389506936073303223e-01 -2.447034269571304321e-01 -9.336676448583602905e-02
2.724139988422393799e-01 6.050565093755722046e-02 1.077687144279479980e-01
-2.888214588165283203e-01 5.870867893099784851e-02 -1.202006489038467407e-01
-5.685446858406066895e-01 5.884478241205215454e-02 -7.460579276084899902e-02
-4.454351663589477539e-01 4.682330414652824402e-02 1.685605943202972412e-01
-9.479982256889343262e-01 -6.995286047458648682e-02 1.702500581741333008e-01
-7.015000581741333008e-01 -2.447034269571304321e-01 1.053275261074304581e-02
-7.032664418220520020e-01 -1.357624679803848267e-01 -1.674828082323074341e-01
-5.171646475791931152e-01 8.366098254919052124e-02 -4.420984908938407898e-02
5.585290789604187012e-01 6.959400326013565063e-02 6.217543035745620728e-02
7.208886742591857910e-01 -7.930825464427471161e-03 1.702500581741333008e-01
6.238035559654235840e-01 -8.514259755611419678e-02 -1.940913125872612000e-02
-1.188716515898704529e-01 9.302944689989089966e-02 -1.150191482156515121e-02
4.975962042808532715e-01 5.279114097356796265e-02 1.077687144279479980e-01
-1.478794515132904053e-01 5.983696505427360535e-02 1.685605943202972412e-01
-4.159233570098876953e-01 5.922547727823257446e-02 1.685605943202972412e-01
6.800922155380249023e-01 7.434086501598358154e-02 1.207192540168762207e-01
-9.395741671323776245e-02 5.371920391917228699e-02 -2.901241369545459747e-02
9.709466993808746338e-02 9.302944689989089966e-02 9.849020093679428101e-02
-4.951149225234985352e-01 8.836049586534500122e-02 1.658106409013271332e-02
3.521361052989959717e-01 8.049312978982925415e-02 3.177947923541069031e-02
-8.973568677902221680e-01 -2.447034269571304321e-01 1.462386399507522583e-01
-9.522785544395446777e-01 7.274805754423141479e-02 6.975432485342025757e-02
-7.549473047256469727e-01 -2.447034269571304321e-01 -7.728436589241027832e-02
-6.630606651306152344e-01 3.673981130123138428e-02 -4.069285467267036438e-02
-7.661551237106323242e-01 -2.447034269571304321e-01 1.504181232303380966e-02
-6.215294003486633301e-01 6.338058412075042725e-02 1.077687144279479980e-01
9.615344405174255371e-01 9.080625139176845551e-03 -1.248755231499671936e-01
9.615344405174255371e-01 6.088620051741600037e-03 1.556416153907775879e-01
4.477103352546691895e-01 3.673981130123138428e-02 9.759774431586265564e-03
1.846213191747665405e-01 6.426526606082916260e-02 -1.202006489038467407e-01
9.615344405174255371e-01 -1.440522521734237671e-01 -4.414948821067810059e-02
-4.362353384494781494e-01 8.542638272047042847e-02 -1.381389889866113663e-02
-2.826761007308959961e-01 8.797881752252578735e-02 -1.353978961706161499e-01
5.183292627334594727e-01 6.403348594903945923e-02 -1.202006489038467407e-01
-8.473379015922546387e-01 9.302944689989089966e-02 1.162909567356109619e-01
-6.145476698875427246e-01 -1.641365736722946167e-01 -1.128195077180862427e-01
9.615344405174255371e-01 -3.953642025589942932e-02 2.679858729243278503e-02
-2.656460180878639221e-02 7.657571136951446533e-02 1.658106409013271332e-02
6.238035559654235840e-01 -2.153533995151519775e-01 1.897342689335346222e-02
-9.522785544395446777e-01 -1.733650714159011841e-01 1.307504773139953613e-01
6.800922155380249023e-01 5.288483202457427979e-02 3.711207211017608643e-02
-5.037008225917816162e-02 3.972816467285156250e-02 -1.381389889866113663e-02
7.331252098083496094e-01 -2.447034269571304321e-01 -1.548971682786941528e-01
-6.850098371505737305e-01 9.302944689989089966e-02 -2.408379316329956055e-02
2.124377191066741943e-01 6.893715262413024902e-02 7.737296074628829956e-02
6.719880700111389160e-01 -1.171555370092391968e-01 1.702500581741333008e-01
8.095028996467590332e-01 -2.447034269571304321e-01 7.222726941108703613e-02
-4.346711337566375732e-01 3.793121129274368286e-02 -1.202006489038467407e-01
4.026344418525695801e-01 5.680520460009574890e-02 -1.657933443784713745e-01
-2.007250487804412842e-01 5.600830912590026855e-02 -8.980430662631988525e-02
4.562799036502838135e-01 3.673981130123138428e-02 7.256782054901123047e-02
-5.190667137503623962e-02 9.302944689989089966e-02 1.298381835222244263e-01
9.615344405174255371e-01 -8.087595552206039429e-02 -2.223761938512325287e-02
-2.627931535243988037e-01 8.861396461725234985e-02 1.229669302701950073e-01
3.655343949794769287e-01 5.564438551664352417e-02 -5.940836295485496521e-02
-1.636625081300735474e-01 6.782267987728118896e-02 1.229669302701950073e-01
4.581449329853057861e-01 8.736634999513626099e-02 1.685605943202972412e-01
-8.015025258064270020e-01 -2.447034269571304321e-01 8.319069445133209229e-02
-6.145476698875427246e-01 -9.649759531021118164e-02 2.584694698452949524e-02
-3.693079352378845215e-01 4.607965797185897827e-02 -8.980430662631988525e-02
2.631001733243465424e-02 8.738409727811813354e-02 -8.980430662631988525e-02
9.615344405174255371e-01 -8.239719271659851074e-02 -1.203278750181198120e-01
-6.565286517143249512e-01 1.793652027845382690e-02 -1.674828082323074341e-01
-7.937574982643127441e-01 7.289993762969970703e-02 1.702500581741333008e-01
8.763987421989440918e-01 6.988593190908432007e-02 1.702500581741333008e-01
2.026747614145278931e-01 6.331844627857208252e-02 -1.381389889866113663e-02
4.987303614616394043e-01 7.297390699386596680e-02 1.533633768558502197e-01
2.054840326309204102e-02 4.785590618848800659e-02 -4.420984908938407898e-02
-1.040314435958862305e-01 6.817576289176940918e-02 7.737296074628829956e-02
9.019842147827148438e-01 -1.081403642892837524e-01 -1.674828082323074341e-01
-1.569840591400861740e-03 7.663489133119583130e-02 -2.901241369545459747e-02
-6.509662270545959473e-01 -2.447034269571304321e-01 1.569215022027492523e-02
2.262374311685562134e-01 6.435204297304153442e-02 -8.980430662631988525e-02
6.587318181991577148e-01 3.673981130123138428e-02 1.123084500432014465e-01
9.615344405174255371e-01 -1.796272397041320801e-01 4.008928686380386353e-02
-3.112371265888214111e-01 6.367054581642150879e-02 6.217543035745620728e-02
-3.747215270996093750e-01 8.003353327512741089e-02 3.177947923541069031e-02
4.071672558784484863e-01 7.647117227315902710e-02 1.685605943202972412e-01
6.238035559654235840e-01 -4.174041002988815308e-02 7.401081174612045288e-02
-1.047208309173583984e-01 4.492574557662010193e-02 3.177947923541069031e-02
-6.591452360153198242e-01 -1.625200957059860229e-01 1.702500581741333008e-01
-3.115152716636657715e-01 6.558585166931152344e-02 1.229669302701950073e-01
2.184868231415748596e-02 4.829578474164009094e-02 -1.657933443784713745e-01
-4.853262901306152344e-01 3.673981130123138428e-02 3.836679086089134216e-02
3.074103295803070068e-01 7.062365114688873291e-02 -1.505961120128631592e-01
2.801403105258941650e-01 7.527187466621398926e-02 -7.460579276084899902e-02
8.167647123336791992e-01 7.587645947933197021e-02 1.702500581741333008e-01
-6.163111329078674316e-01 4.585972800850868225e-02 1.229669302701950073e-01
-9.555160254240036011e-02 8.933689445257186890e-02 9.257148206233978271e-02
-2.022123336791992188e-01 6.375338882207870483e-02 7.737296074628829956e-02
5.504723191261291504e-01 4.850684106349945068e-02 -1.202006489038467407e-01
6.142145767807960510e-02 4.043925553560256958e-02 -1.505961120128631592e-01
5.266640782356262207e-01 4.056155309081077576e-02 -1.050014421343803406e-01
-7.210915535688400269e-02 7.507167011499404907e-02 1.229669302701950073e-01
8.716173768043518066e-01 1.429989561438560486e-02 -1.674828082323074341e-01
9.615344405174255371e-01 5.621148645877838135e-02 1.657635718584060669e-01
-4.018583595752716064e-01 5.732299014925956726e-02 -1.202006489038467407e-01
3.207632899284362793e-01 5.054938420653343201e-02 1.381651461124420166e-01
1.181485950946807861e-01 5.948880687355995178e-02 1.685605943202972412e-01
-5.680851340293884277e-01 9.302944689989089966e-02 1.565036028623580933e-01
3.113829791545867920e-01 8.592542260885238647e-02 -8.980430662631988525e-02
-1.379843205213546753e-01 9.302944689989089966e-02 1.231116242706775665e-02
6.584684848785400391e-01 3.673981130123138428e-02 7.420609146356582642e-02
6.238035559654235840e-01 -2.274251878261566162e-01 -1.540726572275161743e-01
5.816055536270141602e-01 9.216646105051040649e-02 -5.940836295485496521e-02
9.615344405174255371e-01 -1.966727077960968018e-01 -3.453288972377777100e-02
8.508438467979431152e-01 5.038960650563240051e-02 -1.674828082323074341e-01
-8.506743907928466797e-01 -9.510904550552368164e-02 1.702500581741333008e-01
-1.377841234207153320e-01 3.673981130123138428e-02 -1.238655894994735718e-01
5.807967782020568848e-01 9.302944689989089966e-02 -9.484615176916122437e-02
-3.447945117950439453e-01 8.949864655733108521e-02 6.217543035745620728e-02
5.915904045104980469e-01 5.736638605594635010e-02 1.685605943202972412e-01
-7.598973512649536133e-01 9.302944689989089966e-02 2.618395164608955383e-02
-2.216830253601074219e-01 4.958975687623023987e-02 -2.901241369545459747e-02
-1.139271445572376251e-02 7.029227167367935181e-02 1.383556751534342766e-03
5.596908926963806152e-01 3.673981130123138428e-02 -6.986988335847854614e-02
-6.337382197380065918e-01 9.302944689989089966e-02 -1.005198955535888672e-01
2.015524059534072876e-01 3.673981130123138428e-02 -3.445537015795707703e-02
-4.046228528022766113e-01 9.302944689989089966e-02 9.426606446504592896e-02
2.703882157802581787e-01 3.895593062043190002e-02 -2.901241369545459747e-02
3.902421295642852783e-01 3.729901835322380066e-02 1.381651461124420166e-01
1.776149421930313110e-01 6.516177207231521606e-02 1.381651461124420166e-01
-9.321767091751098633e-01 -2.447034269571304321e-01 -2.795554138720035553e-02
2.060960829257965088e-01 6.500592827796936035e-02 1.229669302701950073e-01
-6.459925174713134766e-01 3.673981130123138428e-02 -5.990454927086830139e-02
6.269704103469848633e-01 -2.447034269571304321e-01 -7.378424704074859619e-02
-3.319879770278930664e-01 5.179699137806892395e-02 -5.940836295485496521e-02
6.952075362205505371e-01 8.695016056299209595e-02 -1.674828082323074341e-01
6.238035559654235840e-01 -3.866461804136633873e-03 1.589258611202239990e-01
6.721232533454895020e-01 3.673981130123138428e-02 -1.441295165568590164e-02
-1.892588287591934204e-01 8.344301581382751465e-02 1.077687144279479980e-01
8.644423484802246094e-01 -2.447034269571304321e-01 -7.056657224893569946e-02
-4.519493877887725830e-01 4.228257387876510620e-02 -1.050014421343803406e-01
-7.819569706916809082e-01 -2.447034269571304321e-01 5.029882118105888367e-02
1.138297691941261292e-01 7.752350717782974243e-02 -1.353978961706161499e-01
-6.708363294601440430e-01 5.717800930142402649e-02 -4.981681238859891891e-03
-2.315179854631423950e-01 9.160923212766647339e-02 7.737296074628829956e-02
-8.102673888206481934e-01 -2.766464650630950928e-02 -1.674828082323074341e-01
9.615344405174255371e-01 -1.395107358694076538e-01 1.472761929035186768e-01
3.642112389206886292e-02 6.042969971895217896e-02 7.737296074628829956e-02
5.637764185667037964e-02 7.121639698743820190e-02 -7.460579276084899902e-02
2.821227312088012695e-01 3.673981130123138428e-02 -1.268371790647506714e-01
-3.596974536776542664e-02 7.525905966758728027e-02 -5.940836295485496521e-02
5.581641793251037598e-01 3.673981130123138428e-02 -3.621051460504531860e-02
-6.796110272407531738e-01 -6.992430239915847778e-02 -1.674828082323074341e-01
-9.480228424072265625e-01 9.302944689989089966e-02 1.126161664724349976e-01
1.746029257774353027e-01 7.628378272056579590e-02 1.077687144279479980e-01
8.991171717643737793e-01 9.302944689989089966e-02 -6.891262531280517578e-02
5.877503380179405212e-02 6.735520809888839722e-02 -1.353978961706161499e-01
3.119658529758453369e-01 4.095803201198577881e-02 -1.657933443784713745e-01
6.654353737831115723e-01 -2.447034269571304321e-01 1.496465265518054366e-04
3.743426799774169922e-01 3.673981130123138428e-02 -9.556917473673820496e-03
-8.091559410095214844e-01 -2.322943359613418579e-01 -1.674828082323074341e-01
9.615344405174255371e-01 3.043171018362045288e-02 7.428330928087234497e-02
-8.569045662879943848e-01 -1.863830834627151489e-01 -1.674828082323074341e-01
-3.934741914272308350e-01 5.549151077866554260e-02 9.257148206233978271e-02
4.720915853977203369e-01 6.745086610317230225e-02 -1.050014421343803406e-01
2.210368812084197998e-01 4.171744361519813538e-02 -8.980430662631988525e-02
7.454642653465270996e-01 -2.447034269571304321e-01 -9.449513629078865051e-03
9.615344405174255371e-01 -9.216822683811187744e-02 1.416821330785751343e-01
-4.765426814556121826e-01 4.639526456594467163e-02 -2.901241369545459747e-02
-2.265097498893737793e-01 6.317248195409774780e-02 1.077687144279479980e-01
-6.384614109992980957e-01 -1.006845533847808838e-01 -1.674828082323074341e-01
5.529745221138000488e-01 8.621538430452346802e-02 1.077687144279479980e-01
-3.997704684734344482e-01 5.491159483790397644e-02 -1.505961120128631592e-01
-3.098751306533813477e-01 4.386650398373603821e-02 1.383556751534342766e-03
5.737490057945251465e-01 3.673981130123138428e-02 1.348444074392318726e-01
4.427701830863952637e-01 8.377243578433990479e-02 -5.940836295485496521e-02
-6.145476698875427246e-01 -1.867766082286834717e-01 -3.962552919983863831e-02
-2.639392018318176270e-01 9.302944689989089966e-02 -6.150148808956146240e-03
7.546936273574829102e-01 6.073150411248207092e-02 -1.674828082323074341e-01
7.723480463027954102e-02 3.673981130123138428e-02 4.371466860175132751e-02
1.609935760498046875e-01 9.184593707323074341e-02 1.229669302701950073e-01
-9.522785544395446777e-01 -8.989676833152770996e-03 1.118409708142280579e-01
-5.081512331962585449e-01 7.270465791225433350e-02 9.257148206233978271e-02
-2.737919092178344727e-01 7.052305340766906738e-02 -2.901241369545459747e-02
6.238035559654235840e-01 2.750943042337894440e-02 3.440942987799644470e-02
-1.275349408388137817e-01 7.210993766784667969e-02 3.177947923541069031e-02
5.023134350776672363e-01 6.065161526203155518e-02 4.697700962424278259e-02
-6.643339395523071289e-01 5.682888254523277283e-02 1.381651461124420166e-01
8.113008141517639160e-01 -2.447034269571304321e-01 1.335119754076004028e-01
9.100133180618286133e-01 -1.439369618892669678e-01 1.702500581741333008e-01
5.299976468086242676e-01 8.605068176984786987e-02 -7.460579276084899902e-02
-6.328989863395690918e-01 3.673981130123138428e-02 -8.416785299777984619e-02
-1.644041687250137329e-01 4.299563914537429810e-02 1.685605943202972412e-01
7.770047187805175781e-01 8.293214440345764160e-02 1.702500581741333008e-01
-9.522785544395446777e-01 -1.960000842809677124e-01 -2.765789069235324860e-02
8.526950478553771973e-01 -1.832083314657211304e-01 -1.674828082323074341e-01
4.601736366748809814e-01 7.104083150625228882e-02 -1.353978961706161499e-01
-8.140566349029541016e-01 -9.084664285182952881e-02 1.702500581741333008e-01
5.179465413093566895e-01 6.345750391483306885e-02 1.077687144279479980e-01
-7.436442654579877853e-03 4.484388604760169983e-02 9.257148206233978271e-02
-9.232954382896423340e-01 5.313140526413917542e-02 -1.674828082323074341e-01
5.586316585540771484e-01 8.632190525531768799e-02 1.383556751534342766e-03
3.508727252483367920e-01 8.463245630264282227e-02 1.229669302701950073e-01
-4.501494467258453369e-01 7.681636512279510498e-02 -8.980430662631988525e-02
-9.156765937805175781e-01 -7.013965398073196411e-02 1.702500581741333008e-01
-1.536362171173095703e-01 9.302944689989089966e-02 9.981819242238998413e-02
-5.301941037178039551e-01 4.548396542668342590e-02 7.737296074628829956e-02
-6.498714685440063477e-01 6.971432268619537354e-02 1.077687144279479980e-01
-2.717276811599731445e-01 8.519461750984191895e-02 1.533633768558502197e-01
-9.120870381593704224e-03 9.061311185359954834e-02 -1.381389889866113663e-02
-4.195005297660827637e-01 4.065919667482376099e-02 1.533633768558502197e-01
2.966887354850769043e-01 7.707870751619338989e-02 -4.420984908938407898e-02
-5.638265013694763184e-01 7.078935205936431885e-02 7.737296074628829956e-02
6.238035559654235840e-01 -7.492934912443161011e-02 -6.783217936754226685e-02
-6.145476698875427246e-01 -1.138388514518737793e-01 -1.994585432112216949e-02
9.130924344062805176e-01 9.302944689989089966e-02 1.412629783153533936e-01
5.829153060913085938e-01 5.165793374180793762e-02 -4.420984908938407898e-02
-2.777103185653686523e-01 5.684465169906616211e-02 -1.505961120128631592e-01
-2.554228603839874268e-01 6.847164034843444824e-02 -1.381389889866113663e-02
6.744300723075866699e-01 9.302944689989089966e-02 1.375152021646499634e-01
4.012004137039184570e-01 5.699950829148292542e-02 1.229669302701950073e-01
-7.246751189231872559e-01 9.302944689989089966e-02 -1.426804214715957642e-01
9.615344405174255371e-01 7.330429553985595703e-02 -4.805319011211395264e-02
