8.051835745573043823e-02 8.712335228919982910e-01 -2.819607853889465332e-01
3.078348636627197266e-01 -2.868169248104095459e-01 2.257706522941589355e-01
-2.434018999338150024e-01 -9.381687641143798828e-01 2.072847932577133179e-01
-3.296232223510742188e-01 4.793950915336608887e-01 -3.305099904537200928e-01
-4.273164868354797363e-01 5.298640131950378418e-01 -9.145517833530902863e-03
-2.755753397941589355e-01 6.562523245811462402e-01 -1.570936590433120728e-01
3.175961673259735107e-01 1.858358979225158691e-01 2.411165237426757812e-01
3.299095928668975830e-01 -4.345933794975280762e-01 -8.153045922517776489e-02
3.207933902740478516e-01 -8.681046962738037109e-02 2.506953775882720947e-01
1.675596833229064941e-01 8.805528879165649414e-01 -9.325017780065536499e-02
8.831835538148880005e-02 -7.657102942466735840e-01 3.445817530155181885e-01
-3.267589258030056953e-03 4.819343388080596924e-01 -4.933580756187438965e-01
1.608437858521938324e-02 3.924950659275054932e-01 -4.837082028388977051e-01
-3.876437544822692871e-01 5.069551616907119751e-02 -1.647882908582687378e-01
-2.829878330230712891e-01 -3.388207852840423584e-01 2.459769845008850098e-01
2.968591451644897461e-01 2.631827592849731445e-01 -3.425659239292144775e-01
-2.037903070449829102e-01 -2.542341053485870361e-01 3.298011720180511475e-01
-1.690174639225006104e-01 -9.228356480598449707e-01 1.503079980611801147e-01
-5.224141478538513184e-02 6.244330406188964844e-01 3.269827663898468018e-01
-1.565156430006027222e-01 6.579787135124206543e-01 2.939540147781372070e-01
-1.333409994840621948e-01 -7.454516887664794922e-01 -1.480702161788940430e-01
1.811140775680541992e-01 -2.539608180522918701e-01 3.484231531620025635e-01
-1.463291347026824951e-01 3.005540370941162109e-01 3.649863600730895996e-01
-2.925696074962615967e-01 -6.220405697822570801e-01 1.267042160034179688e-01
5.941355600953102112e-02 -9.545908570289611816e-01 -1.863066479563713074e-02
-3.277183175086975098e-01 4.719879478216171265e-02 -2.479524910449981689e-01
-1.317428648471832275e-01 -5.855058431625366211e-01 -2.121951282024383545e-01
-1.599515825510025024e-01 6.662691831588745117e-01 -2.290384769439697266e-01
-2.309119254350662231e-01 -7.230178713798522949e-01 2.563262581825256348e-01
-1.247338429093360901e-01 -8.248386383056640625e-01 3.313144147396087646e-01
2.391710728406906128e-01 -7.984706759452819824e-01 -3.840863704681396484e-02
1.917227953672409058e-01 -9.374032616615295410e-01 2.840782403945922852e-01
-2.405903786420822144e-01 -8.942008018493652344e-01 9.157958626747131348e-02
1.942344158887863159e-01 -9.315542578697204590e-01 9.050657600164413452e-02
1.513970047235488892e-01 3.030261695384979248e-01 -4.593862295150756836e-01
-2.657656371593475342e-01 -6.593985855579376221e-02 -3.088012337684631348e-01
-4.643196612596511841e-02 6.272031068801879883e-01 -3.727150559425354004e-01
3.373832404613494873e-01 6.116244196891784668e-01 -2.777780592441558838e-01
-2.581292092800140381e-01 -5.430157184600830078e-01 -1.200222745537757874e-01
2.931025922298431396e-01 -2.581149339675903320e-01 -2.248005121946334839e-01
-1.429459545761346817e-03 -8.644649982452392578e-01 -1.511697620153427124e-01
2.363556325435638428e-01 1.600233465433120728e-01 -3.877057731151580811e-01
-1.178747713565826416e-01 -4.994433522224426270e-01 -2.655228972434997559e-01
-2.081713080406188965e-01 -4.160197079181671143e-01 -2.432982325553894043e-01
3.977032303810119629e-01 -3.989144787192344666e-02 -1.482971291989088058e-02
1.994253247976303101e-01 -5.311264991760253906e-01 3.131037950515747070e-01
3.119328804314136505e-02 -5.772854685783386230e-01 -2.589518725872039795e-01
1.913104355335235596e-01 -9.195753335952758789e-01 1.744602769613265991e-01
-4.155553877353668213e-02 2.839789986610412598e-01 -4.654827713966369629e-01
-4.128278791904449463e-01 4.392567276954650879e-01 -1.974934488534927368e-01
3.887735009193420410e-01 2.995823323726654053e-01 1.210220232605934143e-01
-3.258074820041656494e-01 2.385007292032241821e-01 2.209407985210418701e-01
-7.906115800142288208e-02 2.203739583492279053e-01 3.893250823020935059e-01
-3.126901090145111084e-01 -2.603246867656707764e-01 2.149271517992019653e-01
3.311180472373962402e-01 6.654838919639587402e-01 1.520856283605098724e-02
3.487377464771270752e-01 -3.753397464752197266e-01 7.613754272460937500e-02
-3.620865568518638611e-02 -6.932474970817565918e-01 -2.021920979022979736e-01
-2.937819957733154297e-01 -6.142621040344238281e-01 1.781172007322311401e-01
3.636505603790283203e-01 -1.861730515956878662e-01 1.658926010131835938e-01
3.087759613990783691e-01 -5.036862492561340332e-01 1.994471102952957153e-01
-6.669145077466964722e-02 -3.812182545661926270e-01 -3.042584657669067383e-01
-1.995000690221786499e-01 2.486645728349685669e-01 -4.249182343482971191e-01
3.634443581104278564e-01 2.116898745298385620e-01 -2.458571791648864746e-01
3.526077568531036377e-01 -2.996580898761749268e-01 -5.684360116720199585e-02
-3.834156095981597900e-01 5.625277161598205566e-01 -2.559765875339508057e-01
4.095885157585144043e-01 1.489006727933883667e-01 4.291418194770812988e-02
8.770682662725448608e-02 -5.627845600247383118e-02 3.986188173294067383e-01
-3.549158871173858643e-01 -4.166565090417861938e-02 -2.051584869623184204e-01
-3.042684197425842285e-01 3.772389292716979980e-01 2.377259582281112671e-01
1.568592041730880737e-01 -3.917865157127380371e-01 3.672414720058441162e-01
3.791680634021759033e-01 -1.815730822272598743e-03 1.269429475069046021e-01
2.937112450599670410e-01 -6.972556114196777344e-01 2.919405698776245117e-02
-4.163910746574401855e-01 4.818771183490753174e-01 -1.209772005677223206e-01
-1.828105896711349487e-01 9.547952413558959961e-01 2.376253344118595123e-02
9.507118910551071167e-02 -1.604907363653182983e-01 3.972239196300506592e-01
3.726956844329833984e-01 2.709859311580657959e-01 1.832222938537597656e-01
-1.507900357246398926e-01 8.065679669380187988e-01 -8.253855258226394653e-02
2.469091117382049561e-01 -1.129674836993217468e-01 3.088293373584747314e-01
-1.072394102811813354e-01 4.893675148487091064e-01 3.423039615154266357e-01
-3.280763924121856689e-01 -4.437825083732604980e-01 -1.349863968789577484e-02
1.676849573850631714e-01 -6.235085129737854004e-01 -1.971511244773864746e-01
-1.880538016557693481e-01 7.194973230361938477e-01 -6.304301321506500244e-02
1.050683930516242981e-01 2.189307212829589844e-01 3.838421404361724854e-01
3.822833895683288574e-01 4.622547924518585205e-01 1.532428115606307983e-01
8.439705520868301392e-02 -2.813142538070678711e-01 -3.303264975547790527e-01
-2.057070583105087280e-01 -1.635468900203704834e-01 3.326096832752227783e-01
-2.273595482110977173e-01 6.690343022346496582e-01 2.354442030191421509e-01
-2.722094058990478516e-01 -4.946341812610626221e-01 2.554512321949005127e-01
-2.927743480540812016e-04 -9.192547202110290527e-01 7.767035067081451416e-02
-3.389337062835693359e-01 2.090884894132614136e-01 -2.735006213188171387e-01
-3.994924724102020264e-01 2.585147023200988770e-01 -1.579390764236450195e-01
-9.552353620529174805e-02 5.889282226562500000e-01 3.429353237152099609e-01
-3.057836592197418213e-01 -4.136550724506378174e-01 -1.347298920154571533e-01
-3.637804985046386719e-01 -2.148730754852294922e-01 1.425591111183166504e-01
-2.988772392272949219e-01 -1.625002175569534302e-01 2.685202658176422119e-01
2.505551874637603760e-01 -3.786237835884094238e-01 -2.066382169723510742e-01
-1.251866519451141357e-01 -8.887770771980285645e-01 2.972844243049621582e-01
-3.196853101253509521e-01 -3.560774922370910645e-01 2.088345736265182495e-01
4.114115536212921143e-01 4.568754732608795166e-01 -1.727877408266067505e-01
8.365748077630996704e-02 -1.800735741853713989e-01 -3.586102128028869629e-01
3.473438322544097900e-01 6.001475453376770020e-01 1.476395428180694580e-01
2.552874088287353516e-01 -6.437680721282958984e-01 -7.893440872430801392e-02
5.160162970423698425e-02 7.940923422574996948e-02 -4.260428249835968018e-01
-3.620965778827667236e-01 -2.545557022094726562e-01 6.616855412721633911e-02
2.792443335056304932e-01 -6.391423940658569336e-01 1.812276095151901245e-01
1.922229528427124023e-01 -7.614555358886718750e-01 2.789386510848999023e-01
-1.332896947860717773e-01 -9.455476999282836914e-01 -2.698884112760424614e-03
2.693518102169036865e-01 -3.855948522686958313e-02 -3.176757395267486572e-01
4.032286107540130615e-01 -6.041254475712776184e-02 6.727983057498931885e-02
9.907101839780807495e-02 2.373051047325134277e-01 -4.483986794948577881e-01
7.284148782491683960e-02 6.907805204391479492e-01 1.684594452381134033e-01
3.004331886768341064e-01 5.123804211616516113e-01 2.293486595153808594e-01
2.303005605936050415e-01 6.599023938179016113e-01 -1.644262373447418213e-01
1.824773997068405151e-01 5.290422439575195312e-01 3.103159666061401367e-01
-1.168289594352245331e-02 -1.770213693380355835e-01 4.082331359386444092e-01
-2.539109885692596436e-01 4.934486746788024902e-01 -4.220544397830963135e-01
1.633305847644805908e-01 -7.652584910392761230e-01 -1.217811927199363708e-01
1.999077200889587402e-01 6.832368373870849609e-01 7.509254664182662964e-02
1.592267751693725586e-01 3.648949861526489258e-01 -4.502976834774017334e-01
-3.712304830551147461e-01 -4.778259247541427612e-02 1.598631590604782104e-01
-1.646186858415603638e-01 9.060793519020080566e-01 -5.367558449506759644e-02
4.081166684627532959e-01 1.442049592733383179e-01 -1.026965230703353882e-01
9.489617496728897095e-02 -9.158641695976257324e-01 1.983817070722579956e-01
-6.842076033353805542e-02 -2.517629265785217285e-01 -3.420480191707611084e-01
-1.312772631645202637e-01 -1.274107247591018677e-01 -3.578851222991943359e-01
-2.499511986970901489e-01 8.875722438097000122e-02 -3.593441247940063477e-01
-3.611860275268554688e-01 6.104090809822082520e-01 1.049925237894058228e-01
-3.371954336762428284e-02 8.645244240760803223e-01 -2.915504872798919678e-01
-5.371345579624176025e-02 7.146121859550476074e-01 9.900846332311630249e-02
-1.495281886309385300e-02 -9.269040226936340332e-01 3.268387317657470703e-01
-2.027831077575683594e-01 -4.274669587612152100e-01 3.183302283287048340e-01
7.626667618751525879e-02 6.015612483024597168e-01 -4.370067119598388672e-01
4.159937798976898193e-01 2.459665089845657349e-01 -1.069709956645965576e-01
3.043111264705657959e-01 1.183046177029609680e-01 -3.033814728260040283e-01
-5.287401378154754639e-03 -4.247826933860778809e-01 -2.975375056266784668e-01
2.249705344438552856e-01 7.729705423116683960e-02 3.396374583244323730e-01
1.529181748628616333e-01 7.235261201858520508e-01 4.047438874840736389e-02
2.282723337411880493e-01 -4.453254044055938721e-01 2.990778684616088867e-01
6.246891617774963379e-02 -6.030634641647338867e-01 3.835353553295135498e-01
-3.405791819095611572e-01 8.679805696010589600e-02 2.008400410413742065e-01
2.271368801593780518e-01 1.971139200031757355e-02 -3.624555468559265137e-01
-1.665309770032763481e-03 6.948280930519104004e-01 -2.867975533008575439e-01
1.473623886704444885e-02 -9.331554174423217773e-01 -4.384620580822229385e-03
-3.546357154846191406e-01 -2.907885313034057617e-01 -3.431361168622970581e-02
-1.314538270235061646e-01 -8.946506977081298828e-01 -7.996243238449096680e-02
3.321015536785125732e-01 -4.763712882995605469e-01 3.746312484145164490e-02
4.206667840480804443e-01 8.653564751148223877e-02 -5.753237009048461914e-02
1.246857643127441406e-01 1.618720442056655884e-01 -4.266603887081146240e-01
-3.112429380416870117e-01 5.034013986587524414e-01 -3.719100952148437500e-01
2.123712003231048584e-02 -7.417424917221069336e-01 3.737582564353942871e-01
-2.192604541778564453e-01 4.908423423767089844e-01 3.102696239948272705e-01
3.467016220092773438e-01 6.424089074134826660e-01 -1.515841037034988403e-01
1.397120058536529541e-01 -5.441487580537796021e-02 3.703873753547668457e-01
2.881464660167694092e-01 -3.889927864074707031e-01 2.598677873611450195e-01
4.724350199103355408e-02 6.039899587631225586e-01 3.346152305603027344e-01
3.889066874980926514e-01 -5.703707039356231689e-02 -1.320880502462387085e-01
-4.250819236040115356e-02 -1.158441007137298584e-01 4.058419167995452881e-01
-3.070424497127532959e-01 -5.703958272933959961e-01 4.180122166872024536e-02
1.566944569349288940e-01 -9.182701706886291504e-01 -5.162950232625007629e-02
8.687002584338188171e-03 3.867629915475845337e-02 -4.206871688365936279e-01
1.334014236927032471e-01 8.355176448822021484e-01 -4.902220144867897034e-02
-2.527992129325866699e-01 -3.036016225814819336e-02 3.178310692310333252e-01
1.011313050985336304e-01 8.083022832870483398e-01 -2.220925837755203247e-01
-2.104994505643844604e-01 -8.401055932044982910e-01 -4.777409136295318604e-02
-7.711599767208099365e-02 -6.414202451705932617e-01 -2.268681973218917847e-01
-1.306123584508895874e-01 8.242370486259460449e-01 -1.802022159099578857e-01
-4.092941433191299438e-02 7.838851213455200195e-02 3.881994783878326416e-01
3.621875941753387451e-01 7.486554980278015137e-02 1.710430681705474854e-01
2.958578765392303467e-01 3.686446249485015869e-01 2.707083225250244141e-01
-4.048570394515991211e-01 5.808035135269165039e-01 5.743188410997390747e-02
2.772102057933807373e-01 -5.451899170875549316e-01 -9.776820987462997437e-02
-8.223638683557510376e-02 -1.001353561878204346e-02 -4.138803780078887939e-01
-2.373872399330139160e-01 6.598204374313354492e-01 -1.976631283760070801e-01
-8.324783295392990112e-02 -2.222983837127685547e-01 3.842850923538208008e-01
1.556438505649566650e-01 8.825327754020690918e-01 -2.989275008440017700e-02
-1.678632646799087524e-01 -9.138803482055664062e-01 2.179241031408309937e-01
4.016797840595245361e-01 -6.804848462343215942e-02 -7.389067113399505615e-02
2.580633759498596191e-01 4.090000391006469727e-01 -3.990987539291381836e-01
3.150018304586410522e-02 2.641011774539947510e-01 3.918948769569396973e-01
1.836404949426651001e-01 -8.630592226982116699e-01 2.813476622104644775e-01
2.292282283306121826e-01 -2.336548715829849243e-01 3.167558014392852783e-01
8.065897971391677856e-03 4.643865823745727539e-01 3.748591542243957520e-01
3.800322413444519043e-01 -1.935974061489105225e-01 1.951183751225471497e-02
2.166228294372558594e-01 -5.410062074661254883e-01 -1.948378086090087891e-01
1.991796940565109253e-01 6.102581620216369629e-01 -3.350123167037963867e-01
-1.353149563074111938e-01 2.929955422878265381e-01 -4.606647193431854248e-01
-5.049690231680870056e-02 4.311448037624359131e-01 -4.846335053443908691e-01
-1.301487237215042114e-01 -2.897694706916809082e-01 -3.275929093360900879e-01
-1.558773964643478394e-01 -4.126626551151275635e-01 -2.616646885871887207e-01
-3.800329566001892090e-01 1.938097178936004639e-01 1.594626456499099731e-01
-2.758554816246032715e-01 4.002128168940544128e-02 2.978802323341369629e-01
-2.060621976852416992e-01 -1.722723990678787231e-01 -3.227334618568420410e-01
4.349049925804138184e-02 -2.161436676979064941e-01 4.053772687911987305e-01
2.021490335464477539e-01 5.105692148208618164e-01 -4.569446742534637451e-01
7.997184991836547852e-02 -2.722385525703430176e-01 3.855892419815063477e-01
2.772585153579711914e-01 6.751870512962341309e-01 1.681713908910751343e-01
1.089798286557197571e-01 -6.779233813285827637e-01 3.473094105720520020e-01
-1.232116967439651489e-01 -7.567282319068908691e-01 3.428741395473480225e-01
-1.875546276569366455e-01 -6.953181624412536621e-01 -1.303468942642211914e-01
3.102971315383911133e-01 2.729539573192596436e-01 2.622008323669433594e-01
-4.349282681941986084e-01 4.409100711345672607e-01 -6.407281011343002319e-02
-1.759791225194931030e-01 -5.646958351135253906e-01 3.375786542892456055e-01
-7.089418917894363403e-02 -1.489734500646591187e-01 3.889245688915252686e-01
-1.116056144237518311e-01 -2.893452942371368408e-01 3.755240440368652344e-01
-2.271395772695541382e-01 -7.441918849945068359e-01 -8.091992139816284180e-02
6.519942730665206909e-02 -8.850175738334655762e-01 3.284673988819122314e-01
-2.502826452255249023e-01 -9.502552151679992676e-01 6.524538993835449219e-02
-2.064124196767807007e-01 -1.468469202518463135e-02 -3.487383723258972168e-01
2.415820658206939697e-01 -1.047682687640190125e-01 -3.035185933113098145e-01
3.410717248916625977e-01 -2.891647517681121826e-01 -1.358091086149215698e-01
2.621839642524719238e-01 1.618739683181047440e-03 3.151852786540985107e-01
2.255939841270446777e-01 -8.744995594024658203e-01 1.827162206172943115e-01
3.786471784114837646e-01 1.386954039335250854e-01 1.713765114545822144e-01
1.166428923606872559e-01 -7.578780502080917358e-02 -3.908487558364868164e-01
-2.660606205463409424e-01 -7.464115023612976074e-01 6.192643940448760986e-02
-2.449269890785217285e-01 3.505415320396423340e-01 -3.971109986305236816e-01
-1.701262742280960083e-01 6.986132264137268066e-01 2.904302440583705902e-02
3.705707788467407227e-01 6.253830194473266602e-01 7.136785238981246948e-02
3.665784299373626709e-01 -3.541686236858367920e-01 3.501827595755457878e-03
-3.791460990905761719e-01 2.964758872985839844e-01 1.612787693738937378e-01
-8.300012350082397461e-02 1.513530761003494263e-01 -4.483730494976043701e-01
-3.542952612042427063e-02 -6.020877957344055176e-01 3.865984082221984863e-01
-2.431286275386810303e-01 6.833196878433227539e-01 1.130107268691062927e-01
-1.903079152107238770e-01 -7.606258988380432129e-01 -1.149576306343078613e-01
1.364891231060028076e-01 -8.443326354026794434e-01 -1.222655624151229858e-01
3.748670592904090881e-02 -4.958989024162292480e-01 3.947695195674896240e-01
-4.049753844738006592e-01 5.902008414268493652e-01 -3.082192502915859222e-02
-3.930141925811767578e-01 -2.408908214420080185e-03 -6.445596367120742798e-02
-3.045101165771484375e-01 6.702940464019775391e-01 3.115934506058692932e-02
-4.081134200096130371e-01 1.437413096427917480e-01 -5.305537208914756775e-02
1.542242914438247681e-01 8.721302151679992676e-01 -2.410480231046676636e-01
-3.067326843738555908e-01 -2.432486042380332947e-03 2.670612633228302002e-01
4.004082083702087402e-01 5.289682745933532715e-01 6.893437355756759644e-02
3.340411186218261719e-02 8.207833766937255859e-01 2.593093924224376678e-02
-2.276002764701843262e-01 -5.764656662940979004e-01 2.932999730110168457e-01
4.268965125083923340e-01 3.782708048820495605e-01 -5.455069988965988159e-02
4.215871989727020264e-01 1.029498875141143799e-01 1.998594403266906738e-02
1.863691061735153198e-01 1.482752263545989990e-01 3.437205553054809570e-01
3.695517182350158691e-01 2.079554274678230286e-02 -2.060453444719314575e-01
2.739646434783935547e-01 3.321030139923095703e-01 -3.774808049201965332e-01
2.909865677356719971e-01 -4.948177039623260498e-01 -1.013677194714546204e-01
1.529232319444417953e-02 -9.209712147712707520e-01 -1.263516098260879517e-01
3.668872416019439697e-01 -3.075282871723175049e-01 1.118861213326454163e-01
2.742260694503784180e-01 -7.817476391792297363e-01 1.338197737932205200e-01
4.195649027824401855e-01 3.191543221473693848e-01 1.766265928745269775e-02
-2.796396613121032715e-01 2.968428432941436768e-01 2.678346633911132812e-01
1.884298771619796753e-01 7.208339571952819824e-01 -1.051844581961631775e-01
1.594240665435791016e-01 8.238705247640609741e-02 3.587596118450164795e-01
-4.042197465896606445e-01 1.018341556191444397e-01 -1.320032179355621338e-01
-2.310737073421478271e-01 -3.323504030704498291e-01 -2.549486756324768066e-01
-1.540849357843399048e-01 -5.003120377659797668e-02 -3.819949924945831299e-01
-4.107355475425720215e-01 2.544434070587158203e-01 2.688862569630146027e-02
-7.085543125867843628e-02 6.560165286064147949e-01 -2.936684787273406982e-01
-1.608226746320724487e-01 -8.208945989608764648e-01 2.899202704429626465e-01
-1.557116806507110596e-01 1.558199077844619751e-01 3.552753329277038574e-01
-4.313916862010955811e-01 3.444292247295379639e-01 -1.916396059095859528e-02
8.979720622301101685e-02 -9.208410382270812988e-01 3.666259050369262695e-01
1.305761039257049561e-01 6.814444065093994141e-01 -2.383608371019363403e-01
-3.312410712242126465e-01 -1.110532060265541077e-01 2.271428704261779785e-01
-2.082137316465377808e-01 6.219757199287414551e-01 -3.364368379116058350e-01
3.213912248611450195e-01 -5.794685482978820801e-01 1.109578311443328857e-01
2.609123587608337402e-01 -7.636110186576843262e-01 1.986687928438186646e-01
2.078953385353088379e-01 3.812825679779052734e-01 3.321855068206787109e-01
-2.378587871789932251e-01 -3.168003261089324951e-01 2.994764149188995361e-01
1.301617771387100220e-01 -4.819301664829254150e-01 3.730233013629913330e-01
2.110166251659393311e-01 9.315969347953796387e-01 -7.387617230415344238e-02
-2.638094425201416016e-01 -6.290821433067321777e-01 2.368716448545455933e-01
2.487272322177886963e-01 2.159919440746307373e-01 -3.904423117637634277e-01
-1.567859351634979248e-01 -4.576674103736877441e-01 3.608016669750213623e-01
1.322955489158630371e-01 6.712499856948852539e-01 2.926784753799438477e-01
3.894245922565460205e-01 1.432204395532608032e-01 -1.710081100463867188e-01
1.446997076272964478e-01 5.209382176399230957e-01 -4.676836133003234863e-01
3.681834638118743896e-01 -1.298305839300155640e-01 1.275111585855484009e-01
-1.059459894895553589e-02 -7.939801216125488281e-01 3.541783392429351807e-01
-2.525604963302612305e-01 -1.145843490958213806e-01 3.170339763164520264e-01
3.417306840419769287e-01 2.456360161304473877e-01 -2.856374382972717285e-01
-4.922107234597206116e-02 7.841016650199890137e-01 -2.438832074403762817e-01
1.576276868581771851e-01 -4.888681769371032715e-01 -2.371957749128341675e-01
3.122079670429229736e-01 4.184565544128417969e-01 -3.695681691169738770e-01
-2.462054938077926636e-01 -8.617541193962097168e-01 1.505181193351745605e-01
-4.610079899430274963e-02 1.459283679723739624e-01 3.977398574352264404e-01
4.303916394710540771e-01 2.312865257263183594e-01 1.845113351009786129e-03
-3.315143287181854248e-01 -2.787355780601501465e-01 -1.179309114813804626e-01
-1.983300745487213135e-01 5.203995704650878906e-01 -4.554806947708129883e-01
-3.877473175525665283e-01 -8.906508982181549072e-02 -9.584011882543563843e-02
-1.191779300570487976e-01 7.861530035734176636e-02 -4.101109802722930908e-01
-3.714938759803771973e-01 -1.902423352003097534e-01 6.036226078867912292e-02
-9.350754320621490479e-02 -3.396829962730407715e-01 3.917893469333648682e-01
1.758610010147094727e-01 -6.244807317852973938e-02 -3.711603283882141113e-01
1.061157882213592529e-02 -7.361855506896972656e-01 -1.882381737232208252e-01
1.127600669860839844e-01 3.482341170310974121e-01 -4.628004729747772217e-01
1.422492712736129761e-01 4.489351809024810791e-01 3.533753454685211182e-01
3.103761561214923859e-02 6.839727759361267090e-01 2.494168877601623535e-01
-2.731012105941772461e-01 6.065518856048583984e-01 -3.072169423103332520e-01
2.552942931652069092e-01 6.131367087364196777e-01 2.627335190773010254e-01
-4.229156300425529480e-02 8.180635571479797363e-01 2.285101264715194702e-02
-3.014144897460937500e-01 -8.041149377822875977e-02 -2.478143572807312012e-01
1.383279561996459961e-01 -5.553665757179260254e-01 3.623928725719451904e-01
-6.892792135477066040e-02 -1.472757011651992798e-01 -3.838377296924591064e-01
-4.306597113609313965e-01 3.405089080333709717e-01 -9.121977537870407104e-02
-2.739545404911041260e-01 -6.521137952804565430e-01 -2.377334423363208771e-02
3.892184495925903320e-01 4.548807740211486816e-01 -2.366315126419067383e-01
-5.845088884234428406e-02 2.659552544355392456e-02 4.021188914775848389e-01
3.532558977603912354e-01 -3.287773430347442627e-01 1.508328169584274292e-01
3.264963030815124512e-01 5.443555712699890137e-01 -3.355874717235565186e-01
2.189608067274093628e-01 -6.508155465126037598e-01 2.750992178916931152e-01
8.954259008169174194e-02 9.365905523300170898e-01 5.276982486248016357e-02
2.507753111422061920e-02 -8.182172775268554688e-01 -1.690035611391067505e-01
-4.247634410858154297e-01 2.102712839841842651e-01 -6.647442281246185303e-02
-3.477292954921722412e-01 1.539544463157653809e-01 -2.709525227546691895e-01
-1.728065609931945801e-01 5.966919064521789551e-01 -3.887534439563751221e-01
3.827598989009857178e-01 -1.461708247661590576e-01 4.936869814991950989e-02
1.379698663949966431e-01 6.945499181747436523e-01 1.917880028486251831e-01
-1.587076336145401001e-01 5.116297006607055664e-01 3.364727795124053955e-01
-1.144506633281707764e-01 5.459024310111999512e-01 -4.679006636142730713e-01
-8.168957382440567017e-02 -6.727590560913085938e-01 3.558021187782287598e-01
-2.788672447204589844e-01 3.548732101917266846e-01 2.652313411235809326e-01
-3.609216511249542236e-01 6.188209056854248047e-01 -1.664880067110061646e-01
-2.528376579284667969e-01 -7.964522838592529297e-01 1.238572001457214355e-01
4.335939511656761169e-02 -6.320347189903259277e-01 -2.383223474025726318e-01
-1.143193244934082031e-02 -1.224930509924888611e-01 -3.956667780876159668e-01
-1.437840014696121216e-01 8.782494068145751953e-01 -2.202646285295486450e-01
3.928102552890777588e-01 6.180997490882873535e-01 -7.222695648670196533e-02
2.393022924661636353e-01 -5.155922174453735352e-01 2.780951857566833496e-01
3.740491569042205811e-01 5.186131000518798828e-01 1.295364201068878174e-01
3.621096611022949219e-01 -1.677128374576568604e-01 -1.469732373952865601e-01
-3.386920392513275146e-01 5.207004547119140625e-01 1.996779590845108032e-01
-2.652743756771087646e-01 6.640574336051940918e-01 -6.348390132188796997e-03
-1.575357019901275635e-01 -5.196358561515808105e-01 -2.394262403249740601e-01
1.253496855497360229e-01 6.384925246238708496e-01 -3.321120440959930420e-01
2.740613222122192383e-01 6.501498818397521973e-01 -1.282239705324172974e-01
-2.396266013383865356e-01 -7.851589918136596680e-01 -2.455171197652816772e-03
2.612951397895812988e-01 6.814502477645874023e-01 1.144085824489593506e-01
-2.816333472728729248e-01 2.285253405570983887e-01 -3.452767729759216309e-01
3.195918500423431396e-01 -5.404379963874816895e-01 7.682660222053527832e-02
1.956738345324993134e-02 -8.609678745269775391e-01 3.448816537857055664e-01
1.425521224737167358e-01 -3.943070173263549805e-01 -2.920772731304168701e-01
-1.935692578554153442e-01 -5.699015259742736816e-01 -1.961971968412399292e-01
-2.266009449958801270e-01 -7.834612131118774414e-01 2.449599057435989380e-01
-3.821716606616973877e-01 -1.657438129186630249e-01 -6.989262253046035767e-02
4.179263412952423096e-01 3.265589177608489990e-01 8.026117086410522461e-02
-9.755896776914596558e-02 4.035595357418060303e-01 3.693920373916625977e-01
-2.903223931789398193e-01 6.466034650802612305e-01 -1.093622446060180664e-01
-1.327057033777236938e-01 7.626987695693969727e-01 -1.944905519485473633e-01
-2.648442387580871582e-01 -4.639750123023986816e-01 -1.483187973499298096e-01
3.895499110221862793e-01 6.384649276733398438e-01 1.030283886939287186e-02
1.702922731637954712e-01 5.109800398349761963e-02 -4.004611074924468994e-01
-1.834961920976638794e-01 4.635510444641113281e-01 -4.475868046283721924e-01
-2.606950700283050537e-01 5.928534269332885742e-01 2.454788088798522949e-01
3.702029585838317871e-02 8.970342278480529785e-01 5.392786860466003418e-02
-5.936980247497558594e-02 7.444140911102294922e-01 5.499396845698356628e-02
-4.098240137100219727e-01 3.569912314414978027e-01 4.044410586357116699e-02
2.425547540187835693e-01 -9.598972201347351074e-01 2.452824451029300690e-02
-1.758321523666381836e-01 6.341968476772308350e-02 3.639160096645355225e-01
1.792486160993576050e-01 -6.687993407249450684e-01 3.244277536869049072e-01
-1.120880171656608582e-01 7.087346315383911133e-01 1.224327087402343750e-01
-1.243214830756187439e-01 -9.408361911773681641e-01 -5.073850229382514954e-02
-3.672914206981658936e-01 -2.939226031303405762e-01 9.170605987310409546e-02
-7.819650322198867798e-02 -7.239441871643066406e-01 -1.804843544960021973e-01
-2.426482141017913818e-01 -6.171850562095642090e-01 -1.043153554201126099e-01
3.183784782886505127e-01 -2.023534923791885376e-01 -2.114049494266510010e-01
-1.978427469730377197e-01 -7.055914998054504395e-01 2.980696558952331543e-01
-2.697372436523437500e-01 -1.205131635069847107e-01 -2.685711383819580078e-01
-2.148398570716381073e-02 -5.171765089035034180e-01 3.809448480606079102e-01
3.742356002330780029e-01 -2.115219533443450928e-01 -9.244658797979354858e-02
9.214239567518234253e-02 -9.091155529022216797e-01 1.280537396669387817e-01
1.943281143903732300e-01 -9.255869984626770020e-01 6.650689058005809784e-03
1.331163346767425537e-01 2.474906444549560547e-01 3.605589568614959717e-01
3.043653666973114014e-01 1.329135745763778687e-01 2.736460864543914795e-01
3.925963118672370911e-02 6.270955801010131836e-01 -3.736975789070129395e-01
2.812153398990631104e-01 -7.126281857490539551e-01 9.430427104234695435e-02
2.244703769683837891e-01 6.007059216499328613e-01 -3.920275866985321045e-01
-3.042989969253540039e-01 3.168863952159881592e-01 -3.583862781524658203e-01
-2.094054222106933594e-01 1.838254332542419434e-01 3.437097072601318359e-01
2.929595410823822021e-01 -6.340609788894653320e-01 1.076136063784360886e-02
-3.936642706394195557e-01 3.191494047641754150e-01 -2.281772792339324951e-01
-1.174722835421562195e-01 3.376234173774719238e-01 -4.585753381252288818e-01
-3.771996125578880310e-02 9.254737496376037598e-01 7.442351430654525757e-02
4.360866546630859375e-01 4.431652128696441650e-01 -1.602198742330074310e-02
-3.944781422615051270e-01 3.365747630596160889e-01 9.725842624902725220e-02
-1.334158238023519516e-02 4.089270234107971191e-01 3.806429505348205566e-01
6.368210166692733765e-02 4.793408215045928955e-01 -5.016021728515625000e-01
4.114639386534690857e-02 -1.386675685644149780e-01 4.066685736179351807e-01
9.275243431329727173e-02 -9.414241313934326172e-01 -7.639419287443161011e-02
2.568835318088531494e-01 -2.182912677526473999e-01 -2.569443285465240479e-01
8.321614935994148254e-03 5.236461758613586426e-01 3.663763105869293213e-01
-3.941861391067504883e-01 5.052658319473266602e-01 1.086533889174461365e-01
-1.134681180119514465e-01 6.781978607177734375e-01 2.581216692924499512e-01
-1.917689293622970581e-01 3.246628642082214355e-01 3.275677561759948730e-01
3.682900071144104004e-01 3.498352169990539551e-01 -2.675865888595581055e-01
-3.549829721450805664e-01 6.404053568840026855e-01 -3.767025098204612732e-02
1.859123557806015015e-01 -2.245752066373825073e-01 -3.229031562805175781e-01
9.548610448837280273e-02 -8.235344290733337402e-01 3.325524628162384033e-01
4.009724855422973633e-01 2.634431719779968262e-01 -1.740356534719467163e-01
-3.595247566699981689e-01 4.394875431898981333e-04 -1.774153709411621094e-01
-5.520483478903770447e-02 5.111541748046875000e-01 3.635964095592498779e-01
-2.651036977767944336e-01 2.006845623254776001e-01 3.040556907653808594e-01
1.013216972351074219e-01 3.528272211551666260e-01 3.747062683105468750e-01
-4.044091403484344482e-01 5.903231501579284668e-01 -9.667823463678359985e-02
3.350896537303924561e-01 4.507996439933776855e-01 2.005707323551177979e-01
2.649686997756361961e-03 -5.158625245094299316e-01 -2.825921475887298584e-01
3.227831423282623291e-01 -4.234114587306976318e-01 1.945866793394088745e-01
3.346516489982604980e-01 1.666141003370285034e-01 -2.772078812122344971e-01
-4.182940423488616943e-01 4.456195831298828125e-01 5.111814290285110474e-02
2.071189731359481812e-01 -5.960515141487121582e-01 2.967556416988372803e-01
1.042466387152671814e-01 7.425151467323303223e-01 5.239042267203330994e-02
2.291335314512252808e-01 -7.447482943534851074e-01 -6.029168516397476196e-02
-2.884293198585510254e-01 4.495872557163238525e-01 -3.913301527500152588e-01
2.882669307291507721e-02 3.450980484485626221e-01 3.858486711978912354e-01
-3.037445843219757080e-01 -5.383031964302062988e-01 -6.617531925439834595e-02
1.638267934322357178e-01 -1.898862123489379883e-01 3.582101166248321533e-01
2.888290882110595703e-01 -3.960393071174621582e-01 -1.518149375915527344e-01
-2.097723931074142456e-01 -2.678062319755554199e-01 -2.746360599994659424e-01
9.748838096857070923e-02 1.419458985328674316e-01 3.899801075458526611e-01
4.138925671577453613e-01 4.707228541374206543e-01 8.290427923202514648e-02
-2.802049219608306885e-01 -5.807796120643615723e-01 -9.137535095214843750e-02
1.701452732086181641e-01 -7.212550044059753418e-01 -1.537622660398483276e-01
-7.464000582695007324e-02 8.556568026542663574e-01 2.466901764273643494e-02
8.501646667718887329e-02 -5.385103821754455566e-01 -2.634798288345336914e-01
-1.772319674491882324e-01 6.850667595863342285e-01 9.624865651130676270e-02
3.494678810238838196e-02 -4.530091881752014160e-01 -3.000046908855438232e-01
-2.965560257434844971e-01 -5.648664832115173340e-01 1.518479138612747192e-01
3.457960188388824463e-01 -4.636238515377044678e-01 9.011977910995483398e-02
-2.508647143840789795e-01 6.811524033546447754e-01 1.666985452175140381e-01
2.053788006305694580e-01 -1.155698597431182861e-01 -3.430364429950714111e-01
7.715120911598205566e-03 6.483771204948425293e-01 3.347533345222473145e-01
-3.040869235992431641e-01 -4.479396045207977295e-01 1.855060160160064697e-01
2.883595228195190430e-01 6.723567843437194824e-01 -1.357884146273136139e-02
2.004572004079818726e-01 7.052592635154724121e-01 8.657765574753284454e-03
-1.627769023180007935e-01 -5.027204751968383789e-01 3.538330793380737305e-01
4.190390706062316895e-01 3.576048314571380615e-01 -1.826427876949310303e-01
-9.754712879657745361e-02 7.944627404212951660e-01 1.543831545859575272e-02
-1.714945435523986816e-01 -6.391937136650085449e-01 -1.842113137245178223e-01
6.919535342603921890e-03 -9.767987728118896484e-01 -6.925416737794876099e-02
1.941476017236709595e-01 8.931089639663696289e-01 -2.542926669120788574e-01
1.412282437086105347e-01 -9.127073884010314941e-01 2.242484986782073975e-01
-2.847703993320465088e-01 -2.880599200725555420e-01 2.505444586277008057e-01
-1.145266219973564148e-01 -9.087446928024291992e-01 1.963278353214263916e-01
1.377656608819961548e-01 -9.533399343490600586e-01 2.532365545630455017e-02
1.176797002553939819e-01 5.741229057312011719e-01 -4.672752022743225098e-01
4.084254205226898193e-01 5.571197867393493652e-01 -1.670848280191421509e-01
1.883430927991867065e-01 -4.362506568431854248e-01 -2.541022598743438721e-01
1.658382415771484375e-01 5.793769955635070801e-01 3.094853460788726807e-01
3.747733682394027710e-02 -2.120197936892509460e-02 4.051740467548370361e-01
1.416534185409545898e-01 7.756000757217407227e-01 -5.501425266265869141e-02
3.338427245616912842e-01 -5.137865245342254639e-02 2.122616469860076904e-01
2.557155489921569824e-01 -8.361575603485107422e-01 4.116286337375640869e-02
5.883714929223060608e-02 -9.053826928138732910e-01 2.914483547210693359e-01
-3.613478243350982666e-01 -8.735510706901550293e-02 -1.716956943273544312e-01
-6.540299206972122192e-02 -9.007589817047119141e-01 3.073910176753997803e-01
-3.680066168308258057e-01 1.276230365037918091e-01 1.515973508358001709e-01
-8.971409499645233154e-02 2.907473146915435791e-01 3.811371922492980957e-01
-2.164904028177261353e-01 1.777062118053436279e-01 -3.855315446853637695e-01
-3.352777957916259766e-01 6.627029776573181152e-01 8.328901231288909912e-02
-3.143809437751770020e-01 1.846816986799240112e-01 2.577556967735290527e-01
-9.135925769805908203e-02 8.738111853599548340e-01 -3.052903413772583008e-01
-4.201298952102661133e-01 1.394451409578323364e-01 1.022470835596323013e-02
6.687665730714797974e-02 -7.422495484352111816e-01 -1.777991205453872681e-01
-3.410241007804870605e-01 3.349993526935577393e-01 1.958651691675186157e-01
3.708983063697814941e-01 -2.363292574882507324e-01 5.538343638181686401e-02
2.338943183422088623e-01 5.070444941520690918e-01 2.850025892257690430e-01
1.360827088356018066e-01 -1.193353906273841858e-03 3.714952170848846436e-01
-3.729864358901977539e-01 5.920938849449157715e-01 -2.130405604839324951e-01
-4.096985980868339539e-02 -9.206525683403015137e-01 3.767246305942535400e-01
3.810966610908508301e-01 2.212967537343502045e-02 -1.485151201486587524e-01
-2.978079020977020264e-01 -6.710021495819091797e-01 1.050852462649345398e-01
-3.411099612712860107e-01 5.292790532112121582e-01 -3.123042881488800049e-01
7.398729771375656128e-02 4.594077765941619873e-01 3.564186692237854004e-01
-3.368364572525024414e-01 -4.012252688407897949e-01 9.791148453950881958e-02
2.295330464839935303e-01 -4.215746223926544189e-01 -2.114305943250656128e-01
4.212883114814758301e-01 2.111719697713851929e-01 5.885470286011695862e-02
3.630764186382293701e-01 7.616218924522399902e-02 -2.076434493064880371e-01
1.192797869443893433e-01 9.115750789642333984e-01 9.684998542070388794e-03
-4.194275140762329102e-01 4.995027184486389160e-01 -1.748307645320892334e-01
-1.616916432976722717e-02 1.462233215570449829e-01 -4.419371783733367920e-01
1.744246631860733032e-01 -3.118067383766174316e-01 3.641093671321868896e-01
-3.484504222869873047e-01 -2.122430801391601562e-01 -1.467019468545913696e-01
-2.930283546447753906e-01 5.648351311683654785e-01 -3.747896552085876465e-01
-1.351808011531829834e-01 8.756836056709289551e-01 -2.699295282363891602e-01
-2.294006049633026123e-01 -8.910173773765563965e-01 1.861955821514129639e-01
1.201794743537902832e-01 -6.053727865219116211e-01 3.658939301967620850e-01
-1.317606121301651001e-01 6.256552934646606445e-01 -3.566855490207672119e-01
-5.777148902416229248e-02 2.098599225282669067e-01 -4.639596343040466309e-01
-1.317389160394668579e-01 9.611364006996154785e-01 6.131580471992492676e-02
-4.236215725541114807e-03 7.400577664375305176e-01 -2.681163549423217773e-01
5.870298668742179871e-02 7.830392122268676758e-01 4.538238421082496643e-02
2.738156616687774658e-01 -5.958147048950195312e-01 -7.428714632987976074e-02
-2.484842985868453979e-01 -6.704408526420593262e-01 2.465846538543701172e-01
2.285909652709960938e-01 2.861492633819580078e-01 3.276585042476654053e-01
5.204555019736289978e-02 6.741956472396850586e-01 -2.820259034633636475e-01
-5.068266019225120544e-02 -9.110678434371948242e-01 2.189234346151351929e-01
4.032641053199768066e-01 1.915762871503829956e-01 -1.388583481311798096e-01
-3.321348130702972412e-01 -5.192767381668090820e-01 4.792309179902076721e-02
-4.066277742385864258e-01 2.253340333700180054e-01 -1.181104555726051331e-01
-2.941016554832458496e-01 3.402439877390861511e-02 -2.869968116283416748e-01
2.897672653198242188e-01 -1.275734901428222656e-01 -2.702974975109100342e-01
-2.049227803945541382e-01 -8.755738735198974609e-01 -7.656004745513200760e-03
-1.771787256002426147e-01 6.679984927177429199e-01 2.464623153209686279e-01
-1.866963803768157959e-01 2.700812816619873047e-01 3.338566124439239502e-01
1.311729401350021362e-01 7.354340553283691406e-01 -2.139323353767395020e-01
-6.323083490133285522e-02 -5.239981412887573242e-01 -2.586125135421752930e-01
3.269846439361572266e-01 -1.111950650811195374e-01 -2.306277155876159668e-01
1.105897799134254456e-01 8.838458061218261719e-01 -3.228113949298858643e-01
2.433943748474121094e-02 3.036003112792968750e-01 -4.707486331462860107e-01
-2.687989734113216400e-02 -1.643442176282405853e-02 -4.196464121341705322e-01
-1.745881885290145874e-01 -9.654816985130310059e-01 3.087868914008140564e-02
-3.772974014282226562e-01 -1.050491183996200562e-01 8.436340093612670898e-02
2.479291409254074097e-01 6.491830945014953613e-01 2.252803742885589600e-01
-2.197615951299667358e-01 4.063704609870910645e-02 -3.691774904727935791e-01
2.696428298950195312e-01 1.949801109731197357e-02 -3.319305181503295898e-01
-3.817987740039825439e-01 3.648036718368530273e-02 1.062897518277168274e-01
2.600817680358886719e-01 -5.276836156845092773e-01 -1.563024818897247314e-01
1.333255972713232040e-02 -9.922709465026855469e-01 -1.233714148402214050e-01
2.332748174667358398e-01 6.415644884109497070e-01 -2.207233458757400513e-01
9.816867113113403320e-02 8.393432497978210449e-01 -2.606782317161560059e-01
-3.615677952766418457e-01 2.443486601114273071e-01 1.679109483957290649e-01
1.092915609478950500e-01 -3.434188663959503174e-01 -3.192245066165924072e-01
2.466920912265777588e-01 -5.029212683439254761e-02 3.095287382602691650e-01
1.427365988492965698e-01 4.276900887489318848e-01 -4.645475447177886963e-01
4.349294900894165039e-01 5.288419723510742188e-01 -3.859331086277961731e-02
-1.094580218195915222e-01 -9.303804039955139160e-01 8.627443015575408936e-02
-3.857062757015228271e-01 4.377207756042480469e-01 1.071549057960510254e-01
2.679795920848846436e-01 1.492617130279541016e-01 -3.466134667396545410e-01
8.073055744171142578e-02 1.823802143335342407e-01 -4.564681947231292725e-01
-3.872353136539459229e-01 4.454834461212158203e-01 -2.602224647998809814e-01
2.870317101478576660e-01 5.808991789817810059e-01 2.294857800006866455e-01
-3.707392215728759766e-01 2.447442412376403809e-01 -2.589054703712463379e-01
2.499800622463226318e-01 -1.585345268249511719e-01 -2.821491956710815430e-01
-2.289448529481887817e-01 3.980627954006195068e-01 2.990965843200683594e-01
-3.307093381881713867e-01 -4.588620364665985107e-01 4.440299794077873230e-02
3.387426137924194336e-01 -3.030713200569152832e-01 1.930941045284271240e-01
-1.816761195659637451e-01 -4.716203510761260986e-01 -2.253736704587936401e-01
1.759547144174575806e-01 7.212108373641967773e-01 -1.553554534912109375e-01
-2.428731173276901245e-01 -1.154120191931724548e-01 -3.124068975448608398e-01
2.716562747955322266e-01 -5.269151926040649414e-01 2.337375730276107788e-01
-3.802134990692138672e-01 -1.458334475755691528e-01 2.421937510371208191e-02
2.920322418212890625e-01 1.900289021432399750e-02 2.687353491783142090e-01
-1.150769460946321487e-02 8.692102432250976562e-01 -3.246867358684539795e-01
-2.509652972221374512e-01 -2.030341774225234985e-01 3.134855628013610840e-01
-2.435025125741958618e-01 5.386171340942382812e-01 2.692384421825408936e-01
-9.589002281427383423e-02 3.806897103786468506e-01 -4.839084744453430176e-01
-1.021874509751796722e-02 -6.907877326011657715e-02 4.078800082206726074e-01
3.959305286407470703e-01 3.030601516366004944e-02 1.218161433935165405e-01
-7.325220853090286255e-02 -7.882160544395446777e-01 3.576281070709228516e-01
-4.663528129458427429e-02 -9.160861372947692871e-01 1.069990471005439758e-01
1.068480163812637329e-01 4.893448352813720703e-01 -4.793518483638763428e-01
1.812186241149902344e-01 1.480552405118942261e-01 -4.012276232242584229e-01
-1.220579724758863449e-03 -3.696979880332946777e-01 -3.148799836635589600e-01
-2.321815192699432373e-01 -5.459001660346984863e-01 -1.520911455154418945e-01
1.283436566591262817e-01 -7.764887213706970215e-01 3.252050876617431641e-01
-3.269675970077514648e-01 -5.230352878570556641e-01 1.145397871732711792e-01
-4.184262156486511230e-01 4.754422307014465332e-01 -3.258971869945526123e-02
-1.190595552325248718e-01 6.360203623771667480e-01 3.214899599552154541e-01
3.461265265941619873e-01 6.088005751371383667e-02 -2.560969591140747070e-01
3.478893935680389404e-01 -3.969883024692535400e-01 -5.272075533866882324e-02
3.777543902397155762e-01 5.603988766670227051e-01 -2.482188493013381958e-01
-1.238519400358200073e-01 7.939586639404296875e-01 -3.694586828351020813e-02
1.348101347684860229e-01 5.987319946289062500e-01 -4.322044551372528076e-01
2.022693753242492676e-01 6.833670139312744141e-01 2.294473201036453247e-01
2.483661621809005737e-01 -2.804333269596099854e-01 2.970456779003143311e-01
1.420687288045883179e-01 -9.261699914932250977e-01 7.721035182476043701e-02
-6.716466695070266724e-02 -9.888132810592651367e-01 -9.616407752037048340e-02
-3.997361361980438232e-01 2.222236245870590210e-01 7.003263384103775024e-02
-3.537102788686752319e-02 -9.267925024032592773e-01 -1.072777882218360901e-01
2.309467047452926636e-01 -3.302561044692993164e-01 -2.594618797302246094e-01
1.067335903644561768e-01 -8.824940919876098633e-01 3.325840532779693604e-01
1.196745224297046661e-02 6.787591576576232910e-01 2.808731496334075928e-01
-9.698581695556640625e-02 -7.779763340950012207e-01 -1.678306162357330322e-01
-1.809234321117401123e-01 -8.673475384712219238e-01 2.779797613620758057e-01
2.915231883525848389e-01 6.743336915969848633e-01 4.928524047136306763e-02
4.004713594913482666e-01 2.453450262546539307e-01 1.269646584987640381e-01
2.264620959758758545e-01 3.678889870643615723e-01 -4.324668645858764648e-01
-2.112392932176589966e-01 -3.576001897454261780e-02 3.465862870216369629e-01
3.171276152133941650e-01 6.395707726478576660e-01 1.570092290639877319e-01
-2.271829843521118164e-01 9.194739460945129395e-01 -2.155166417360305786e-01
3.087828755378723145e-01 -3.242789208889007568e-01 -1.525873541831970215e-01
-3.288251459598541260e-01 -3.596347868442535400e-01 1.547018438577651978e-01
1.087775975465774536e-01 -6.569021940231323242e-01 -2.138544023036956787e-01
-1.913230270147323608e-01 9.146589040756225586e-01 -8.729611337184906006e-02
-3.053278923034667969e-01 1.958951503038406372e-01 -3.139901757240295410e-01
1.468897312879562378e-01 6.584028601646423340e-01 -2.845414280891418457e-01
-2.363366484642028809e-01 5.914003849029541016e-01 -3.717098236083984375e-01
3.337855041027069092e-01 -3.745781779289245605e-01 1.477579176425933838e-01
-1.973011642694473267e-01 -3.822895884513854980e-01 3.257880806922912598e-01
2.138961702585220337e-01 -6.105252504348754883e-01 -1.675050705671310425e-01
9.343884140253067017e-02 9.600246548652648926e-01 9.862570464611053467e-02
-4.274200499057769775e-01 5.351525545120239258e-01 -1.236071884632110596e-01
-2.920201420783996582e-01 -1.951491534709930420e-01 -2.214908301830291748e-01
2.443757951259613037e-01 -8.228113651275634766e-01 1.624300032854080200e-01
-3.412409871816635132e-02 6.843771934509277344e-01 2.377032637596130371e-01
-2.054032087326049805e-01 -2.997399568557739258e-01 3.266157805919647217e-01
3.867186903953552246e-01 -7.740505784749984741e-02 1.260442435741424561e-01
3.459116071462631226e-02 6.364953517913818359e-02 3.898942768573760986e-01
4.223093092441558838e-01 4.044690728187561035e-01 -1.155376881361007690e-01
-5.165869370102882385e-02 -2.729991376399993896e-01 3.902770578861236572e-01
-1.922749876976013184e-01 7.094627022743225098e-01 -8.840711787343025208e-03
2.909934818744659424e-01 1.812714040279388428e-01 2.863649427890777588e-01
-2.022237479686737061e-01 -9.543856382369995117e-01 1.239331588149070740e-01
-4.253375828266143799e-01 2.713499069213867188e-01 -1.119636222720146179e-01
-2.469620108604431152e-02 -5.613111853599548340e-01 -2.647691965103149414e-01
1.559319049119949341e-01 -3.627728223800659180e-01 -2.953001260757446289e-01
-4.072778820991516113e-01 8.442850410938262939e-02 7.282934337854385376e-02
-3.830220103263854980e-01 2.636039853096008301e-01 1.222995296120643616e-01
6.268969178199768066e-02 -7.137497663497924805e-01 3.711874485015869141e-01
-8.494567871093750000e-02 1.737020611763000488e-01 3.769771754741668701e-01
-2.274600602686405182e-02 -8.994144201278686523e-01 1.702114492654800415e-01
3.255808651447296143e-01 2.331697344779968262e-01 2.287952452898025513e-01
-4.067639112472534180e-01 1.815722733736038208e-01 3.434265404939651489e-02
-3.388804793357849121e-01 4.311783611774444580e-01 -3.132621645927429199e-01
2.254213392734527588e-01 2.596195340156555176e-01 -4.159569144248962402e-01
-1.513819396495819092e-01 5.791845917701721191e-01 -4.299394786357879639e-01
3.778846561908721924e-01 -2.701757848262786865e-01 7.117903977632522583e-02
3.482987582683563232e-01 1.858408302068710327e-01 1.981735676527023315e-01
-1.443502306938171387e-01 2.449192851781845093e-02 3.654727041721343994e-01
-3.727771714329719543e-02 2.743380069732666016e-01 3.901428580284118652e-01
-1.023237183690071106e-01 -6.903369724750518799e-02 3.799672126770019531e-01
9.926417469978332520e-02 6.119914054870605469e-01 3.230298757553100586e-01
-7.718278467655181885e-02 4.782852828502655029e-01 -4.855913817882537842e-01
-3.361281752586364746e-01 -1.716627627611160278e-01 -1.882066130638122559e-01
3.423936367034912109e-01 6.454374194145202637e-01 -3.603474423289299011e-02
3.995648771524429321e-02 8.582503199577331543e-01 -3.035136461257934570e-01
-4.101474583148956299e-02 -3.808216750621795654e-01 4.004408717155456543e-01
3.528997600078582764e-01 6.455864310264587402e-01 1.182144656777381897e-01
1.861688643693923950e-01 -5.304932594299316406e-03 -3.796560168266296387e-01
3.499570786952972412e-01 -3.328762054443359375e-01 -9.323212504386901855e-02
-2.217641919851303101e-01 -6.551807522773742676e-01 -1.336684077978134155e-01
-4.345553517341613770e-01 3.973939716815948486e-01 -6.377193331718444824e-02
