-1.637527793645858765e-01 5.143951997160911560e-02 -7.467143982648849487e-02
2.570638954639434814e-01 2.814200706779956818e-02 7.188702225685119629e-01
-3.643333911895751953e-01 7.076685875654220581e-02 -3.440150320529937744e-01
-1.555546820163726807e-01 7.076685875654220581e-02 2.071187645196914673e-02
-1.095349639654159546e-01 5.143951997160911560e-02 1.756562967784702778e-03
3.276854753494262695e-01 -4.369792044162750244e-01 7.650250196456909180e-01
1.584837287664413452e-01 7.076685875654220581e-02 2.453579008579254150e-01
1.323959231376647949e-01 5.143951997160911560e-02 -2.137257456779479980e-01
1.316669136285781860e-01 -4.571321308612823486e-01 7.398735284805297852e-01
8.840338885784149170e-02 7.052946835756301880e-02 6.725613474845886230e-01
2.094395458698272705e-01 7.076685875654220581e-02 7.948712706565856934e-01
1.950957626104354858e-01 5.143951997160911560e-02 -1.763740628957748413e-01
3.832997679710388184e-01 -4.561205208301544189e-01 -2.124404609203338623e-01
4.374152421951293945e-01 -4.355229139328002930e-01 -2.358637601137161255e-01
6.981221958994865417e-03 5.143951997160911560e-02 -1.486749947071075439e-01
1.961002349853515625e-01 5.143951997160911560e-02 3.395763039588928223e-01
3.755232691764831543e-01 5.143951997160911560e-02 3.090763092041015625e-01
-5.975529551506042480e-02 5.143951997160911560e-02 -4.581623375415802002e-01
3.580933213233947754e-01 5.143951997160911560e-02 -2.409881204366683960e-01
-6.213138103485107422e-01 -3.750466275960206985e-03 -2.053903341293334961e-01
-5.829302072525024414e-01 7.076685875654220581e-02 -4.387384355068206787e-01
-5.698858499526977539e-01 7.076685875654220581e-02 -2.350381761789321899e-01
-6.020680069923400879e-01 3.814626485109329224e-02 -1.587598919868469238e-01
-1.032651662826538086e-01 5.143951997160911560e-02 -5.057582259178161621e-02
-6.064952015876770020e-01 -2.364590018987655640e-01 -2.102613747119903564e-01
4.294235110282897949e-01 5.143951997160911560e-02 5.227976441383361816e-01
-6.153391003608703613e-01 -3.443143963813781738e-01 -2.465040087699890137e-01
-5.933347940444946289e-01 -4.360721409320831299e-01 -2.039438337087631226e-01
-7.963902354240417480e-01 7.076685875654220581e-02 -1.561848521232604980e-01
2.018694728612899780e-01 7.076685875654220581e-02 7.394625991582870483e-02
-7.542702555656433105e-01 7.076685875654220581e-02 -3.473500609397888184e-01
-3.374368548393249512e-01 7.076685875654220581e-02 -2.890952229499816895e-01
1.283513456583023071e-01 5.143951997160911560e-02 7.236305475234985352e-01
2.361598163843154907e-01 5.143951997160911560e-02 4.807839691638946533e-01
-6.961508989334106445e-01 7.076685875654220581e-02 -6.604459136724472046e-02
-3.953011035919189453e-01 7.076685875654220581e-02 -2.676454782485961914e-01
-2.886716127395629883e-01 7.076685875654220581e-02 -2.705659866333007812e-01
2.355627864599227905e-01 5.143951997160911560e-02 -4.850331544876098633e-01
-4.656799137592315674e-01 5.143951997160911560e-02 -4.743981957435607910e-01
3.479340374469757080e-01 5.143951997160911560e-02 3.537279069423675537e-01
-6.670540571212768555e-01 7.076685875654220581e-02 -3.475237190723419189e-01
-2.421598434448242188e-01 7.076685875654220581e-02 -2.099070549011230469e-01
-6.187990307807922363e-01 9.710212238132953644e-03 -2.503280341625213623e-01
2.653576731681823730e-01 5.143951997160911560e-02 6.447134613990783691e-01
-3.015246093273162842e-01 5.143951997160911560e-02 -3.861314654350280762e-01
2.594139277935028076e-01 -5.623847991228103638e-02 7.405724525451660156e-01
1.908722370862960815e-01 7.076685875654220581e-02 1.851034313440322876e-01
2.455581873655319214e-01 7.076685875654220581e-02 2.783424854278564453e-01
4.438790082931518555e-01 7.076685875654220581e-02 6.234824657440185547e-01
3.866383433341979980e-01 -4.348222613334655762e-01 -3.925304710865020752e-01
-5.415392518043518066e-01 5.143951997160911560e-02 -1.013048887252807617e-01
3.591766655445098877e-01 4.932865500450134277e-02 7.202946543693542480e-01
1.237053126096725464e-01 5.143951997160911560e-02 9.534984827041625977e-02
2.932445406913757324e-01 5.143951997160911560e-02 -2.815410792827606201e-01
2.051195055246353149e-01 7.076685875654220581e-02 -9.000382572412490845e-02
2.258056551218032837e-01 5.143951997160911560e-02 2.350746467709541321e-02
4.749334752559661865e-01 6.442983448505401611e-02 6.832928657531738281e-01
3.759449124336242676e-01 5.143951997160911560e-02 3.855158388614654541e-01
-4.220240116119384766e-01 7.076685875654220581e-02 -3.183612525463104248e-01
7.065808773040771484e-02 5.143951997160911560e-02 -1.784449629485607147e-02
9.144355542957782745e-03 7.076685875654220581e-02 -1.135617643594741821e-01
-1.325131505727767944e-01 5.143951997160911560e-02 4.491921514272689819e-03
4.052765071392059326e-01 -4.253928959369659424e-01 -2.845209240913391113e-01
2.068361788988113403e-01 7.076685875654220581e-02 5.003345012664794922e-01
4.271009266376495361e-01 -3.538515791296958923e-02 -2.429129779338836670e-01
2.278775572776794434e-01 7.076685875654220581e-02 5.714539885520935059e-01
2.954466342926025391e-01 7.076685875654220581e-02 5.261521935462951660e-01
6.713525205850601196e-02 7.076685875654220581e-02 8.857132494449615479e-02
2.528102695941925049e-01 7.076685875654220581e-02 -4.070000648498535156e-01
-3.150614798069000244e-01 7.076685875654220581e-02 -1.049499884247779846e-01
-7.981476783752441406e-01 5.143951997160911560e-02 -2.313399463891983032e-01
-3.871791660785675049e-01 5.143951997160911560e-02 -7.789310067892074585e-02
-6.312552094459533691e-01 -4.390918314456939697e-01 -3.459149226546287537e-02
2.302745431661605835e-01 -4.254575371742248535e-01 7.133055925369262695e-01
-9.886669367551803589e-02 7.076685875654220581e-02 -3.120738565921783447e-01
-2.511507570743560791e-01 5.143951997160911560e-02 -2.223808132112026215e-02
-4.107309281826019287e-01 5.143951997160911560e-02 -4.544649422168731689e-01
-5.843917131423950195e-01 5.143951997160911560e-02 -3.641183376312255859e-01
3.836859166622161865e-01 -4.236328005790710449e-01 -2.395008504390716553e-01
7.777817547321319580e-02 5.143951997160911560e-02 -1.011294946074485779e-01
1.054781302809715271e-01 7.076685875654220581e-02 -4.118250608444213867e-01
-7.625454664230346680e-01 5.143951997160911560e-02 -1.466651111841201782e-01
1.192771717905998230e-01 7.076685875654220581e-02 7.590219378471374512e-01
3.851634860038757324e-01 7.076685875654220581e-02 -1.727227866649627686e-01
1.801673024892807007e-01 7.076685875654220581e-02 -2.753183245658874512e-01
-5.905888676643371582e-01 7.076685875654220581e-02 -1.589954942464828491e-01
3.896952271461486816e-01 -1.572036743164062500e-01 -2.191876173019409180e-01
3.832492530345916748e-01 7.076685875654220581e-02 1.446577310562133789e-01
3.444306850433349609e-01 7.076685875654220581e-02 -3.070522546768188477e-01
-1.537258327007293701e-01 7.076685875654220581e-02 -2.611587643623352051e-01
1.041768863797187805e-01 5.143951997160911560e-02 -3.242819905281066895e-01
4.729581177234649658e-01 7.076685875654220581e-02 -1.160765588283538818e-01
-3.270109891891479492e-01 6.422431766986846924e-02 2.983032725751399994e-02
2.321923226118087769e-01 5.143951997160911560e-02 4.362652897834777832e-01
2.873592674732208252e-01 -1.108448952436447144e-01 7.166530489921569824e-01
-5.182027220726013184e-01 5.452388525009155273e-02 2.983032725751399994e-02
-4.015460014343261719e-01 5.143951997160911560e-02 -1.111417412757873535e-01
2.850039005279541016e-01 5.143951997160911560e-02 -4.588107466697692871e-01
7.970301806926727295e-02 5.143951997160911560e-02 -1.991091221570968628e-01
2.471650391817092896e-01 7.076685875654220581e-02 5.265206694602966309e-01
-3.149711191654205322e-01 5.143951997160911560e-02 -4.216699004173278809e-01
3.809062838554382324e-01 7.076685875654220581e-02 -1.210308596491813660e-01
-2.583921849727630615e-01 7.076685875654220581e-02 -4.289060235023498535e-01
3.964627683162689209e-01 5.001160874962806702e-02 7.553352117538452148e-01
4.122389256954193115e-01 7.076685875654220581e-02 4.323092997074127197e-01
-6.499589085578918457e-01 7.076685875654220581e-02 -2.498638629913330078e-01
2.051177173852920532e-01 -4.555217027664184570e-01 7.124499678611755371e-01
3.223759531974792480e-01 5.143951997160911560e-02 2.691603638231754303e-02
-4.490613937377929688e-01 7.076685875654220581e-02 -7.259424030780792236e-02
4.303589463233947754e-01 5.143951997160911560e-02 1.235934197902679443e-01
-7.387500405311584473e-01 7.076685875654220581e-02 -2.958175837993621826e-01
-2.432635575532913208e-01 5.143951997160911560e-02 -1.160225197672843933e-01
4.302446842193603516e-01 -4.372294526547193527e-03 -2.176410108804702759e-01
4.426361620426177979e-01 7.076685875654220581e-02 3.242642879486083984e-01
-4.043460190296173096e-01 5.143951997160911560e-02 -3.325314521789550781e-01
1.249534040689468384e-01 5.143951997160911560e-02 5.701385736465454102e-01
1.886993646621704102e-01 5.143951997160911560e-02 7.544476389884948730e-01
-5.633627772331237793e-01 5.143951997160911560e-02 -1.803539991378784180e-01
3.329479992389678955e-01 7.076685875654220581e-02 5.229712724685668945e-01
-4.594456553459167480e-01 7.076685875654220581e-02 -1.361594945192337036e-01
-7.313243746757507324e-01 5.257954820990562439e-02 -4.152150154113769531e-01
4.279176592826843262e-01 5.143951997160911560e-02 3.987515270709991455e-01
-6.466991901397705078e-01 -4.398624897003173828e-01 -1.677516698837280273e-01
-6.362457871437072754e-01 -4.571321308612823486e-01 -3.225502669811248779e-01
3.069514632225036621e-01 5.143951997160911560e-02 7.696985006332397461e-01
-5.992617011070251465e-01 -7.110668718814849854e-02 -2.201717495918273926e-01
1.830080747604370117e-01 5.143951997160911560e-02 2.942470908164978027e-01
-5.795703530311584473e-01 7.076685875654220581e-02 1.146231312304735184e-02
-6.432498097419738770e-01 5.143951997160911560e-02 -1.488353461027145386e-01
-7.398653030395507812e-01 7.076685875654220581e-02 -2.232109308242797852e-01
-5.319256186485290527e-01 7.076685875654220581e-02 -7.565823942422866821e-02
-6.134151220321655273e-01 -4.571321308612823486e-01 -3.782584369182586670e-01
1.569946855306625366e-01 7.076685875654220581e-02 6.406183838844299316e-01
-4.357061386108398438e-01 5.143951997160911560e-02 -2.732517421245574951e-01
2.430770546197891235e-01 7.076685875654220581e-02 -2.809803485870361328e-01
3.640955090522766113e-01 7.076685875654220581e-02 7.738343477249145508e-01
1.331205852329730988e-02 7.076685875654220581e-02 -2.166001647710800171e-01
3.677317500114440918e-01 -4.571321308612823486e-01 7.312466502189636230e-01
-6.311249732971191406e-01 -4.054939001798629761e-02 -2.119408547878265381e-01
2.213606983423233032e-01 5.143951997160911560e-02 6.208552122116088867e-01
3.932729959487915039e-01 -5.386213585734367371e-02 -2.131969183683395386e-01
4.923227801918983459e-02 6.328537315130233765e-02 1.517197042703628540e-01
-1.747877746820449829e-01 7.076685875654220581e-02 -4.482872039079666138e-02
-3.018851578235626221e-01 5.143951997160911560e-02 -8.145757019519805908e-02
-2.215339094400405884e-01 7.076685875654220581e-02 -4.773150384426116943e-02
-7.590039074420928955e-02 5.143951997160911560e-02 1.381500530987977982e-02
4.319985806941986084e-01 -4.236328005790710449e-01 -2.026124447584152222e-01
3.031991720199584961e-01 -2.239043265581130981e-01 7.446745634078979492e-01
4.936514422297477722e-02 7.023626565933227539e-02 -4.855451881885528564e-01
-6.404834985733032227e-01 -4.323181211948394775e-01 -1.043378710746765137e-01
2.778147161006927490e-01 5.143951997160911560e-02 7.912704944610595703e-01
-2.990549802780151367e-01 7.076685875654220581e-02 -2.290705293416976929e-01
5.134934559464454651e-02 5.143951997160911560e-02 -3.690114915370941162e-01
2.596495449542999268e-01 5.143951997160911560e-02 4.138535857200622559e-01
1.448662430047988892e-01 7.076685875654220581e-02 6.769931316375732422e-02
-4.848824143409729004e-01 5.143951997160911560e-02 -2.672822028398513794e-02
-4.845156669616699219e-01 7.076685875654220581e-02 -1.386503726243972778e-01
1.194419264793395996e-01 7.076685875654220581e-02 -3.064773380756378174e-01
4.087462425231933594e-01 7.076685875654220581e-02 -2.626141309738159180e-01
3.933075666427612305e-01 -4.283213615417480469e-01 -1.463541984558105469e-01
3.009882271289825439e-01 -3.578184843063354492e-01 7.382604479789733887e-01
-1.655358970165252686e-01 5.143951997160911560e-02 -1.542617529630661011e-01
3.030920028686523438e-01 7.076685875654220581e-02 4.256763756275177002e-01
3.457691371440887451e-01 5.143951997160911560e-02 6.441597938537597656e-01
-5.002856254577636719e-01 5.143951997160911560e-02 -1.938642710447311401e-01
-1.604916900396347046e-01 7.076685875654220581e-02 -3.701214194297790527e-01
-8.563768118619918823e-02 5.143951997160911560e-02 -2.476741671562194824e-01
1.269022282212972641e-02 5.143951997160911560e-02 -3.313489258289337158e-01
-2.214834243059158325e-01 7.076685875654220581e-02 -9.459582716226577759e-02
-1.122035309672355652e-01 7.076685875654220581e-02 -4.551975131034851074e-01
-9.980059415102005005e-02 5.143951997160911560e-02 -3.365264534950256348e-01
-5.882786512374877930e-01 5.143951997160911560e-02 -2.450450956821441650e-01
-7.087993025779724121e-01 5.143951997160911560e-02 -1.404467672109603882e-01
3.948462009429931641e-01 -1.566186547279357910e-02 -2.391173094511032104e-01
1.674444973468780518e-01 7.076685875654220581e-02 4.103174507617950439e-01
-6.158794164657592773e-01 -2.858097553253173828e-01 -2.057765573263168335e-01
3.586212396621704102e-01 7.076685875654220581e-02 -1.952833235263824463e-01
-6.353812217712402344e-01 -3.734334409236907959e-01 -2.397984713315963745e-01
2.602492570877075195e-01 -1.711901091039180756e-02 7.447702288627624512e-01
1.500898450613021851e-01 7.076685875654220581e-02 -4.074217081069946289e-01
1.829736493527889252e-02 7.076685875654220581e-02 -4.025497734546661377e-01
3.642337322235107422e-01 7.076685875654220581e-02 4.244043827056884766e-01
1.492873132228851318e-01 7.076685875654220581e-02 2.816491723060607910e-01
4.535315930843353271e-01 7.076685875654220581e-02 -2.299722731113433838e-01
4.289664328098297119e-01 3.511150181293487549e-02 -1.700379401445388794e-01
2.902939319610595703e-01 -2.667534649372100830e-01 7.176477909088134766e-01
3.115868568420410156e-01 5.143951997160911560e-02 6.529239416122436523e-01
-2.342451810836791992e-01 5.143951997160911560e-02 -2.391624748706817627e-01
3.944094777107238770e-01 5.143951997160911560e-02 -2.190015763044357300e-01
2.626719176769256592e-01 7.076685875654220581e-02 3.328920006752014160e-01
-3.570024967193603516e-01 5.143951997160911560e-02 -2.596564292907714844e-01
3.351634144783020020e-01 7.076685875654220581e-02 -6.838264525867998600e-04
1.075642034411430359e-01 5.143951997160911560e-02 -1.822496056556701660e-01
-3.502314090728759766e-01 5.143951997160911560e-02 -4.553180038928985596e-01
4.023959040641784668e-01 3.375446051359176636e-02 -3.186872303485870361e-01
4.070118367671966553e-01 7.076685875654220581e-02 -3.488674759864807129e-01
1.542885601520538330e-01 5.143951997160911560e-02 -4.060697928071022034e-02
5.395632237195968628e-03 7.076685875654220581e-02 -3.525869250297546387e-01
2.518101930618286133e-01 5.143951997160911560e-02 -3.618604242801666260e-01
-4.348717033863067627e-01 7.076685875654220581e-02 -1.942797154188156128e-01
1.798342317342758179e-01 7.076685875654220581e-02 -2.243766635656356812e-01
-4.346263408660888672e-01 7.076685875654220581e-02 -2.977173542603850365e-03
4.115187525749206543e-01 -1.177823320031166077e-01 -2.470310628414154053e-01
-4.774832427501678467e-01 7.076685875654220581e-02 -1.059323176741600037e-01
3.993088603019714355e-01 -4.571321308612823486e-01 -3.847832679748535156e-01
1.713615208864212036e-01 5.143951997160911560e-02 4.601244032382965088e-01
2.726106345653533936e-01 7.076685875654220581e-02 1.810030490159988403e-01
-5.950231552124023438e-01 -4.306997358798980713e-01 -3.270456790924072266e-01
-6.019651889801025391e-01 -1.960286200046539307e-01 -2.222755402326583862e-01
2.040467858314514160e-01 7.076685875654220581e-02 6.310428380966186523e-01
4.525633752346038818e-01 5.143951997160911560e-02 9.666544198989868164e-02
-6.353414058685302734e-01 7.076685875654220581e-02 -3.714137971401214600e-01
-5.426013469696044922e-01 5.143951997160911560e-02 -1.576437652111053467e-01
1.325349807739257812e-01 7.076685875654220581e-02 -4.334351420402526855e-01
4.146483242511749268e-01 -4.257161915302276611e-01 -1.737467795610427856e-01
2.723794281482696533e-01 -2.827227115631103516e-01 7.586596608161926270e-01
2.875151634216308594e-01 -1.282497793436050415e-01 7.599413990974426270e-01
4.206098020076751709e-01 -4.571321308612823486e-01 -3.168572187423706055e-01
4.265429079532623291e-01 -4.571321308612823486e-01 -1.665301471948623657e-01
2.356735318899154663e-01 5.143951997160911560e-02 7.668453454971313477e-01
3.109473288059234619e-01 7.076685875654220581e-02 -1.999949067831039429e-01
2.602067291736602783e-01 -1.753539592027664185e-01 7.316001057624816895e-01
3.989749252796173096e-01 2.809328772127628326e-02 -2.591701149940490723e-01
1.138020232319831848e-01 5.143951997160911560e-02 -4.695996642112731934e-02
2.819824516773223877e-01 5.143951997160911560e-02 3.187484145164489746e-01
-4.368408322334289551e-01 5.143951997160911560e-02 -4.031246900558471680e-01
2.836211621761322021e-01 -4.236328005790710449e-01 7.158806920051574707e-01
-6.576990485191345215e-01 7.076685875654220581e-02 -1.942708343267440796e-01
-6.290353536605834961e-01 3.921455144882202148e-02 -8.870609849691390991e-02
-1.318483501672744751e-01 5.954816937446594238e-02 -4.855451881885528564e-01
3.918725997209548950e-02 5.143951997160911560e-02 -4.135222733020782471e-01
3.570578396320343018e-01 5.143951997160911560e-02 -1.755919158458709717e-01
4.218534529209136963e-01 -4.571321308612823486e-01 -2.357273250818252563e-01
-1.334567964076995850e-01 7.076685875654220581e-02 -5.552480369806289673e-02
3.124000132083892822e-01 7.076685875654220581e-02 3.659581840038299561e-01
-6.019200682640075684e-01 -2.318677902221679688e-01 -2.404477894306182861e-01
-1.936089694499969482e-01 5.143951997160911560e-02 -4.838168248534202576e-02
7.623244822025299072e-02 5.617237091064453125e-02 2.108382284641265869e-01
4.661117494106292725e-01 7.076685875654220581e-02 1.809915453195571899e-01
-6.246408820152282715e-01 -4.313516914844512939e-01 -3.672886490821838379e-01
-5.677350759506225586e-01 5.143951997160911560e-02 6.810070481151342392e-03
-5.773141384124755859e-01 7.076685875654220581e-02 -5.488082766532897949e-02
9.511423856019973755e-02 5.143951997160911560e-02 1.990224421024322510e-02
1.301557272672653198e-01 5.143951997160911560e-02 3.003210425376892090e-01
-6.010997891426086426e-01 -3.035302460193634033e-01 -2.281111925840377808e-01
-6.093235611915588379e-01 -4.571321308612823486e-01 -2.706439495086669922e-01
1.103066504001617432e-01 -4.368693530559539795e-01 7.432457804679870605e-01
-7.049274444580078125e-01 5.143951997160911560e-02 -4.216334596276283264e-02
-1.593486405909061432e-02 7.076685875654220581e-02 -9.273207932710647583e-02
1.208946630358695984e-01 7.076685875654220581e-02 4.824935495853424072e-01
3.860891461372375488e-01 7.076685875654220581e-02 7.531428337097167969e-01
2.864291667938232422e-01 7.076685875654220581e-02 -1.307516545057296753e-01
2.556235790252685547e-01 -4.270289838314056396e-01 7.653731107711791992e-01
1.109391003847122192e-01 7.076685875654220581e-02 5.222306847572326660e-01
-2.172731906175613403e-01 7.076685875654220581e-02 -4.368153214454650879e-01
8.536686003208160400e-02 7.076685875654220581e-02 -4.486425817012786865e-01
1.745521873235702515e-01 5.143951997160911560e-02 8.147479593753814697e-02
4.494028389453887939e-01 7.076685875654220581e-02 -2.939060330390930176e-01
2.179831415414810181e-01 7.076685875654220581e-02 3.875806629657745361e-01
4.286741614341735840e-01 -4.305907785892486572e-01 -3.567103445529937744e-01
3.079896271228790283e-01 7.076685875654220581e-02 -1.626830995082855225e-01
-6.724202632904052734e-01 5.143951997160911560e-02 -1.307800114154815674e-01
-4.299333691596984863e-01 5.143951997160911560e-02 -2.157949805259704590e-01
4.619989693164825439e-01 -4.342969954013824463e-01 7.435575723648071289e-01
1.221657767891883850e-01 7.076685875654220581e-02 -3.378232419490814209e-01
8.475742489099502563e-02 7.076685875654220581e-02 4.233876615762710571e-02
2.601845860481262207e-01 5.143951997160911560e-02 -2.351754903793334961e-01
4.582919180393218994e-01 -4.635737240314483643e-01 7.349768280982971191e-01
3.984221816062927246e-01 -2.691805660724639893e-01 -2.428509593009948730e-01
-2.683680951595306396e-01 7.076685875654220581e-02 -2.932159602642059326e-01
3.949135243892669678e-01 7.076685875654220581e-02 5.685971975326538086e-01
-6.086007952690124512e-01 -2.930500172078609467e-02 -2.469717115163803101e-01
-1.081007570028305054e-01 5.143951997160911560e-02 -3.968461155891418457e-01
-6.137339472770690918e-01 -4.635737240314483643e-01 -4.749144241213798523e-02
-6.385869979858398438e-01 -4.571321308612823486e-01 -2.325517386198043823e-01
4.122717082500457764e-01 -8.032852411270141602e-02 -2.469318509101867676e-01
-3.326624035835266113e-01 5.143951997160911560e-02 -2.384804040193557739e-01
2.275506854057312012e-01 7.076685875654220581e-02 -4.582677185535430908e-01
-7.949949800968170166e-02 5.143951997160911560e-02 -7.238872349262237549e-02
-5.155594944953918457e-01 5.143951997160911560e-02 -4.701924026012420654e-01
-6.459878087043762207e-01 5.143951997160911560e-02 -5.684464797377586365e-02
4.478757083415985107e-01 5.143951997160911560e-02 7.457596659660339355e-01
2.904462814331054688e-01 7.076685875654220581e-02 5.895023047924041748e-02
1.614803820848464966e-01 5.143951997160911560e-02 3.274817019701004028e-02
1.271767765283584595e-01 7.076685875654220581e-02 2.693533301353454590e-01
-4.208174720406532288e-02 7.076685875654220581e-02 -6.277953833341598511e-02
1.154593750834465027e-01 7.076685875654220581e-02 6.024889349937438965e-01
2.895197272300720215e-01 -1.103884726762771606e-02 7.558038234710693359e-01
-2.324620634317398071e-01 7.076685875654220581e-02 -2.572585642337799072e-01
2.153328061103820801e-01 5.143951997160911560e-02 -2.030270248651504517e-01
3.322119116783142090e-01 5.143951997160911560e-02 4.366709887981414795e-01
4.517608582973480225e-01 7.076685875654220581e-02 3.717743456363677979e-01
-4.990950822830200195e-01 5.143951997160911560e-02 -5.566741153597831726e-02
1.659032106399536133e-01 7.076685875654220581e-02 -3.427500724792480469e-01
-2.103798836469650269e-01 7.076685875654220581e-02 -2.995308637619018555e-01
3.955840766429901123e-01 4.354877769947052002e-02 7.212734222412109375e-01
1.898500174283981323e-01 7.076685875654220581e-02 -8.920024149119853973e-03
5.822937563061714172e-02 7.076685875654220581e-02 -3.348062038421630859e-01
3.828196227550506592e-01 7.076685875654220581e-02 4.976063072681427002e-01
-7.282418012619018555e-01 5.143951997160911560e-02 -1.655105799436569214e-01
-2.755421213805675507e-02 5.143951997160911560e-02 -5.576115567237138748e-03
-7.775216549634933472e-02 7.076685875654220581e-02 -1.945401430130004883e-01
1.155213862657546997e-01 7.076685875654220581e-02 6.933635473251342773e-01
-6.149936318397521973e-01 -4.236328005790710449e-01 -2.211815565824508667e-01
-5.813694000244140625e-01 7.076685875654220581e-02 -4.646136164665222168e-01
3.020113408565521240e-01 5.143951997160911560e-02 7.656860351562500000e-02
4.112698733806610107e-01 -2.474048733711242676e-01 -2.470638453960418701e-01
-4.948485493659973145e-01 5.143951997160911560e-02 -3.858603835105895996e-01
1.972181349992752075e-01 5.143951997160911560e-02 2.393911331892013550e-01
1.333224624395370483e-01 7.076685875654220581e-02 -7.110343128442764282e-02
4.298389852046966553e-01 3.704609721899032593e-02 -2.314905226230621338e-01
3.934944868087768555e-01 3.855463117361068726e-02 -3.484608829021453857e-01
3.875684440135955811e-01 -4.571321308612823486e-01 7.547585964202880859e-01
3.312809467315673828e-01 7.076685875654220581e-02 4.111757874488830566e-01
-2.592160105705261230e-01 7.076685875654220581e-02 -1.402297466993331909e-01
4.315352737903594971e-01 -4.356088638305664062e-01 -6.974373012781143188e-02
4.749334752559661865e-01 5.194088816642761230e-02 -4.531770050525665283e-01
2.736629545688629150e-01 -3.825111389160156250e-01 7.557400465011596680e-01
2.620368003845214844e-01 5.143951997160911560e-02 5.162817984819412231e-02
-2.644191980361938477e-01 5.143951997160911560e-02 -3.532752096652984619e-01
-2.311147600412368774e-01 5.143951997160911560e-02 8.370990399271249771e-04
-6.037678122520446777e-01 -1.479721814393997192e-01 -2.129099369049072266e-01
3.342997729778289795e-01 7.076685875654220581e-02 -2.510340213775634766e-01
-2.735899388790130615e-01 5.143951997160911560e-02 -3.884637653827667236e-01
-3.809200823307037354e-01 7.076685875654220581e-02 -4.173312187194824219e-01
-6.366710066795349121e-01 -1.861172765493392944e-01 -2.432017326354980469e-01
9.084289520978927612e-02 5.143951997160911560e-02 3.002962172031402588e-01
3.451641499996185303e-01 5.143951997160911560e-02 -3.773487210273742676e-01
4.167725518345832825e-02 5.143951997160911560e-02 -2.420899085700511932e-02
7.047827541828155518e-02 5.143951997160911560e-02 6.376368552446365356e-02
-1.124652028083801270e-01 5.143951997160911560e-02 -3.649935126304626465e-01
2.662062644958496094e-01 6.363525986671447754e-02 -4.855451881885528564e-01
-7.406359314918518066e-01 5.143951997160911560e-02 -3.163682520389556885e-01
-3.453692495822906494e-01 5.143951997160911560e-02 -1.515273004770278931e-01
-5.341046303510665894e-02 7.076685875654220581e-02 -2.387769706547260284e-02
-7.315910458564758301e-01 5.143951997160911560e-02 -2.412467747926712036e-01
4.693139493465423584e-01 7.076685875654220581e-02 -7.903121411800384521e-03
-5.848461985588073730e-01 5.143951997160911560e-02 -9.175682067871093750e-02
-6.372777223587036133e-01 4.707694053649902344e-02 -3.476175963878631592e-01
3.031797111034393311e-01 5.143951997160911560e-02 -1.132304519414901733e-01
-6.471527218818664551e-01 -4.277854263782501221e-01 -2.718583643436431885e-01
-7.766561955213546753e-02 7.076685875654220581e-02 -3.370127379894256592e-01
4.184192121028900146e-01 7.076685875654220581e-02 5.881230235099792480e-01
2.543152570724487305e-01 7.076685875654220581e-02 6.648752093315124512e-01
2.460083225741982460e-03 7.076685875654220581e-02 -4.575971961021423340e-01
-3.567597866058349609e-01 5.143951997160911560e-02 -4.299245774745941162e-02
-6.327052116394042969e-01 7.076685875654220581e-02 -3.487318381667137146e-02
2.564934492111206055e-01 7.076685875654220581e-02 3.893017768859863281e-01
2.511555850505828857e-01 5.143951997160911560e-02 1.669629514217376709e-01
9.139563888311386108e-02 5.143951997160911560e-02 4.330914318561553955e-01
-7.765489816665649414e-02 7.076685875654220581e-02 -4.723989367485046387e-01
4.291746318340301514e-01 -3.685836791992187500e-01 -2.239931076765060425e-01
3.077354133129119873e-01 7.076685875654220581e-02 -4.571844041347503662e-01
1.609250009059906006e-01 5.143951997160911560e-02 7.664033174514770508e-01
1.578760445117950439e-01 5.143951997160911560e-02 8.021268844604492188e-01
7.302584499120712280e-02 7.076685875654220581e-02 -2.909155488014221191e-01
2.076723724603652954e-01 5.143951997160911560e-02 6.766581535339355469e-01
4.001751542091369629e-01 5.143951997160911560e-02 -1.619664877653121948e-01
-6.498836278915405273e-01 7.076685875654220581e-02 -1.546098887920379639e-01
-2.341574057936668396e-02 7.076685875654220581e-02 -4.057254195213317871e-01
-3.384890779852867126e-02 5.143951997160911560e-02 -1.563212573528289795e-01
4.582830369472503662e-01 5.143951997160911560e-02 2.567713856697082520e-01
-7.147634029388427734e-01 7.076685875654220581e-02 -3.625566661357879639e-01
1.653646528720855713e-01 5.143951997160911560e-02 4.328815340995788574e-01
4.268803894519805908e-01 5.143951997160911560e-02 1.665651202201843262e-01
-3.269329294562339783e-02 7.076685875654220581e-02 -2.208458483219146729e-01
4.749334752559661865e-01 6.640074402093887329e-02 4.707646965980529785e-01
-5.999269485473632812e-01 -4.245841503143310547e-01 -2.732845246791839600e-01
-2.875253856182098389e-01 7.076685875654220581e-02 2.155174734070897102e-03
-5.932586193084716797e-01 5.143951997160911560e-02 -4.165083169937133789e-01
3.626782298088073730e-01 5.143951997160911560e-02 -4.562197327613830566e-01
-2.097793072462081909e-01 5.143951997160911560e-02 -2.332674711942672729e-01
4.749334752559661865e-01 5.295690521597862244e-02 7.543324828147888184e-01
3.754763305187225342e-01 7.076685875654220581e-02 -3.058750033378601074e-01
-6.343342065811157227e-01 7.076685875654220581e-02 -2.899322807788848877e-01
-6.323757171630859375e-01 -4.571321308612823486e-01 -1.175345778465270996e-01
1.411627084016799927e-01 5.143951997160911560e-02 6.598137617111206055e-01
1.611031219363212585e-02 5.143951997160911560e-02 9.246176481246948242e-02
-4.923089873045682907e-03 7.076685875654220581e-02 3.216265141963958740e-02
8.840338885784149170e-02 5.354064330458641052e-02 7.062067985534667969e-01
-6.496754884719848633e-01 5.143951997160911560e-02 -4.209461808204650879e-01
3.232653141021728516e-01 5.143951997160911560e-02 -8.343823254108428955e-02
1.429130733013153076e-01 5.143951997160911560e-02 1.198285818099975586e-01
-3.763812184333801270e-01 7.076685875654220581e-02 -1.875777244567871094e-01
-5.673523619771003723e-02 5.143951997160911560e-02 -1.241586133837699890e-01
-6.222757697105407715e-01 -3.914595246315002441e-01 -2.087794095277786255e-01
2.015411853790283203e-03 7.076685875654220581e-02 -3.501756116747856140e-02
2.482377588748931885e-01 7.076685875654220581e-02 -2.512129545211791992e-01
2.599994540214538574e-01 7.076685875654220581e-02 -1.323726922273635864e-01
4.076522588729858398e-01 7.076685875654220581e-02 6.251540184020996094e-01
1.798758655786514282e-01 5.143951997160911560e-02 1.614691019058227539e-01
2.951348423957824707e-01 -1.550713777542114258e-01 7.562015652656555176e-01
-1.283151507377624512e-01 5.143951997160911560e-02 -4.460090696811676025e-01
-4.791193306446075439e-01 5.143951997160911560e-02 -4.439965188503265381e-01
-2.281401492655277252e-02 5.143951997160911560e-02 -2.996761500835418701e-01
3.510024249553680420e-01 7.076685875654220581e-02 2.533796429634094238e-01
-1.722317636013031006e-01 7.076685875654220581e-02 -2.850966751575469971e-01
-2.874367833137512207e-01 7.076685875654220581e-02 -3.455067276954650879e-01
-1.600293070077896118e-01 5.143951997160911560e-02 -3.100143671035766602e-01
4.749334752559661865e-01 5.464170500636100769e-02 -3.941355645656585693e-01
3.959879577159881592e-01 -3.758277595043182373e-01 -2.406054437160491943e-01
2.852501571178436279e-01 -3.336626291275024414e-01 7.571706175804138184e-01
-4.925224184989929199e-01 7.076685875654220581e-02 -6.903932429850101471e-03
1.065304726362228394e-01 5.143951997160911560e-02 -4.802604615688323975e-01
4.405660629272460938e-01 -4.357727468013763428e-01 7.621806859970092773e-01
1.747249215841293335e-01 5.143951997160911560e-02 7.178869843482971191e-01
3.005532920360565186e-01 -4.571321308612823486e-01 7.419338822364807129e-01
2.269377261400222778e-01 7.076685875654220581e-02 -5.378064885735511780e-02
4.596950113773345947e-01 5.143951997160911560e-02 6.374498009681701660e-01
1.281972080469131470e-01 7.076685875654220581e-02 -2.590257525444030762e-01
4.017235636711120605e-01 7.076685875654220581e-02 6.667929887771606445e-01
3.875126242637634277e-01 -4.571321308612823486e-01 -1.395255476236343384e-01
4.749334752559661865e-01 5.181864649057388306e-02 -3.621545135974884033e-01
-6.745010018348693848e-01 7.076685875654220581e-02 -8.713734149932861328e-02
2.680921554565429688e-01 -2.445968687534332275e-01 7.561404109001159668e-01
-7.832705378532409668e-01 5.143951997160911560e-02 -1.978370845317840576e-01
3.591926097869873047e-01 5.143951997160911560e-02 9.242562949657440186e-02
-8.601994067430496216e-02 7.076685875654220581e-02 -2.965845726430416107e-02
-6.000598669052124023e-01 -4.571321308612823486e-01 -3.363103270530700684e-01
-7.743682265281677246e-01 5.143951997160911560e-02 -3.529545664787292480e-01
3.465822935104370117e-01 5.143951997160911560e-02 -1.233179867267608643e-01
1.624131351709365845e-01 5.143951997160911560e-02 3.111340403556823730e-01
-4.864963293075561523e-01 7.076685875654220581e-02 -4.228878319263458252e-01
-5.936723351478576660e-01 -4.553047120571136475e-01 -1.831088364124298096e-01
2.761414647102355957e-01 5.143951997160911560e-02 3.926261961460113525e-01
-3.613862767815589905e-02 7.076685875654220581e-02 -1.259939968585968018e-01
-2.453415468335151672e-02 7.076685875654220581e-02 -4.492307603359222412e-01
3.519033193588256836e-01 3.693094477057456970e-02 7.565328478813171387e-01
-1.515243500471115112e-01 7.076685875654220581e-02 -2.081460803747177124e-01
-1.031931582838296890e-02 7.076685875654220581e-02 -2.528773844242095947e-01
1.606548279523849487e-01 7.076685875654220581e-02 -1.213940307497978210e-01
-5.342667698860168457e-01 5.143951997160911560e-02 -4.268562495708465576e-01
3.278006315231323242e-01 5.143951997160911560e-02 -3.057128787040710449e-01
1.783115416765213013e-01 7.076685875654220581e-02 5.857465416193008423e-02
4.043233990669250488e-01 5.143951997160911560e-02 -1.105916649103164673e-01
4.061525762081146240e-01 7.076685875654220581e-02 -4.082871377468109131e-01
-6.202358007431030273e-01 7.076685875654220581e-02 7.479733787477016449e-03
-1.437168754637241364e-02 7.076685875654220581e-02 -1.505174785852432251e-01
2.426934987306594849e-01 5.143951997160911560e-02 3.394576013088226318e-01
1.990446448326110840e-01 7.076685875654220581e-02 -3.743989467620849609e-01
4.291914701461791992e-01 -1.719535440206527710e-01 -2.315977066755294800e-01
-2.878123819828033447e-01 7.076685875654220581e-02 -1.832452416419982910e-01
1.255486756563186646e-01 7.076685875654220581e-02 -1.351939439773559570e-01
-5.889890789985656738e-01 7.076685875654220581e-02 -1.455993205308914185e-02
-1.706534475088119507e-01 7.076685875654220581e-02 -2.405797541141510010e-01
-8.307973295450210571e-02 7.076685875654220581e-02 -1.339077651500701904e-01
-1.412995159626007080e-01 7.076685875654220581e-02 -2.948883771896362305e-01
-1.717297881841659546e-01 7.076685875654220581e-02 -1.095685437321662903e-01
1.708663552999496460e-01 5.143951997160911560e-02 6.908044815063476562e-01
8.854600042104721069e-02 5.143951997160911560e-02 5.684138536453247070e-01
-6.299565434455871582e-01 -1.382327973842620850e-01 -2.110789716243743896e-01
-2.388531565666198730e-01 7.076685875654220581e-02 -1.749514788389205933e-01
-8.346851915121078491e-02 5.143951997160911560e-02 -3.142679929733276367e-01
9.605141729116439819e-02 7.076685875654220581e-02 3.495610654354095459e-01
-6.718683838844299316e-01 5.143951997160911560e-02 -2.414558380842208862e-01
2.831685245037078857e-01 -4.236328005790710449e-01 7.481176853179931641e-01
2.608896791934967041e-01 5.143951997160911560e-02 6.059941053390502930e-01
-1.038983389735221863e-01 7.076685875654220581e-02 -1.797445565462112427e-01
1.234688088297843933e-01 7.076685875654220581e-02 4.988137632608413696e-02
2.946503162384033203e-01 -1.522728949785232544e-01 7.199730277061462402e-01
-4.414275288581848145e-01 5.143951997160911560e-02 -2.395220994949340820e-01
8.840338885784149170e-02 5.479139834642410278e-02 5.229287743568420410e-01
4.130175411701202393e-01 7.076685875654220581e-02 -7.427450735121965408e-03
4.092573225498199463e-01 -4.319079816341400146e-01 7.136617302894592285e-01
1.914019584655761719e-01 7.076685875654220581e-02 3.104608356952667236e-01
4.085947573184967041e-01 -4.236328005790710449e-01 -2.279304862022399902e-01
-6.113671064376831055e-01 2.732086554169654846e-02 -2.369523942470550537e-01
-3.375821411609649658e-01 7.076685875654220581e-02 -2.578281164169311523e-01
1.082374081015586853e-01 7.076685875654220581e-02 7.899125218391418457e-01
3.991848230361938477e-01 7.076685875654220581e-02 -2.239523380994796753e-01
-5.555410981178283691e-01 7.076685875654220581e-02 -1.644316762685775757e-01
-2.636210918426513672e-01 7.076685875654220581e-02 -1.174504384398460388e-01
8.840338885784149170e-02 6.581611186265945435e-02 3.825297951698303223e-01
-5.682284832000732422e-01 7.076685875654220581e-02 -2.871429026126861572e-01
3.524303734302520752e-01 7.076685875654220581e-02 2.260448038578033447e-01
1.625336259603500366e-01 5.143951997160911560e-02 -2.156674414873123169e-01
-6.461066007614135742e-01 -4.275781810283660889e-01 -3.133679926395416260e-01
4.607996046543121338e-01 5.143951997160911560e-02 7.078534960746765137e-01
-5.558165907859802246e-01 6.787560135126113892e-02 -4.182479977607727051e-01
3.398705720901489258e-01 7.076685875654220581e-02 9.311779588460922241e-02
3.896297216415405273e-01 -1.322649568319320679e-01 -2.363624572753906250e-01
-7.763532996177673340e-01 7.076685875654220581e-02 -2.999525070190429688e-01
3.960579931735992432e-01 5.143951997160911560e-02 2.572063207626342773e-01
3.854203522205352783e-01 -4.571321308612823486e-01 -3.377364277839660645e-01
3.927875757217407227e-01 -2.601329982280731201e-01 -2.202062755823135376e-01
8.168634027242660522e-02 5.143951997160911560e-02 1.152397617697715759e-01
-1.948021501302719116e-01 7.076685875654220581e-02 -3.998117744922637939e-01
2.252796292304992676e-02 7.076685875654220581e-02 -1.373987048864364624e-01
4.289248287677764893e-01 -4.571321308612823486e-01 -1.167267411947250366e-01
1.539218127727508545e-01 7.076685875654220581e-02 -1.740895956754684448e-01
3.518554866313934326e-01 -4.571321308612823486e-01 7.541243433952331543e-01
4.276740550994873047e-01 3.911976516246795654e-02 -3.315916359424591064e-01
2.946326136589050293e-01 7.076685875654220581e-02 -1.419941429048776627e-02
4.211430549621582031e-01 7.076685875654220581e-02 -8.169143646955490112e-02
-5.531086772680282593e-02 5.143951997160911560e-02 -1.774600595235824585e-01
3.349047601222991943e-01 5.143951997160911560e-02 5.430613160133361816e-01
1.530466675758361816e-01 5.143951997160911560e-02 5.305191874504089355e-01
-7.418388724327087402e-01 7.076685875654220581e-02 -1.251294612884521484e-01
3.996339440345764160e-01 7.076685875654220581e-02 8.010169863700866699e-01
2.954918146133422852e-01 5.143951997160911560e-02 6.223849654197692871e-01
3.226372599601745605e-01 7.076685875654220581e-02 2.009872198104858398e-01
2.173311859369277954e-01 7.035762071609497070e-02 2.875176370143890381e-01
-3.188748657703399658e-01 7.076685875654220581e-02 -1.401518136262893677e-01
3.929567933082580566e-01 7.076685875654220581e-02 7.910217344760894775e-02
-4.579096436500549316e-01 7.076685875654220581e-02 1.254918705672025681e-02
-6.119792461395263672e-01 7.076685875654220581e-02 -3.524053692817687988e-01
-4.583862125873565674e-01 7.076685875654220581e-02 -3.692728281021118164e-01
1.066358834505081177e-01 5.143951997160911560e-02 -2.217537909746170044e-01
-5.360835790634155273e-01 7.076685875654220581e-02 -1.449537426233291626e-01
-3.757398724555969238e-01 5.143951997160911560e-02 -1.247476786375045776e-01
-8.630336076021194458e-02 5.143951997160911560e-02 -3.714058399200439453e-01
2.760431170463562012e-01 7.076685875654220581e-02 -2.548837065696716309e-01
4.577099084854125977e-01 5.143951997160911560e-02 3.297784030437469482e-01
3.846851289272308350e-01 -4.298059642314910889e-01 -3.150156140327453613e-01
2.643469572067260742e-01 5.143951997160911560e-02 -4.215998947620391846e-01
-2.261817157268524170e-01 7.076685875654220581e-02 -1.724391803145408630e-02
1.882015317678451538e-01 7.076685875654220581e-02 3.874211907386779785e-01
2.702915966510772705e-01 -3.321301937103271484e-01 7.228935360908508301e-01
2.112058550119400024e-01 7.076685875654220581e-02 2.025131881237030029e-01
-3.887363970279693604e-01 7.076685875654220581e-02 -3.329379856586456299e-02
1.175542920827865601e-01 5.143951997160911560e-02 2.089246362447738647e-01
-6.924854516983032227e-01 7.076685875654220581e-02 -3.958070576190948486e-01
2.693703770637512207e-01 7.076685875654220581e-02 4.367418587207794189e-01
-6.235876679420471191e-01 5.143951997160911560e-02 -1.317464262247085571e-01
-2.047408372163772583e-01 5.143951997160911560e-02 5.253717768937349319e-03
-3.719282336533069611e-03 5.143951997160911560e-02 -2.048153057694435120e-02
2.590525448322296143e-01 5.143951997160911560e-02 -1.524582654237747192e-01
4.676743149757385254e-01 5.143951997160911560e-02 4.899468645453453064e-02
-2.607165277004241943e-01 7.076685875654220581e-02 -3.795488551259040833e-02
2.918927967548370361e-01 -8.682660013437271118e-02 7.220095396041870117e-01
4.076061546802520752e-01 7.076685875654220581e-02 1.805298477411270142e-01
3.897918164730072021e-01 -4.367630779743194580e-01 -4.211242198944091797e-01
-1.215108409523963928e-01 5.143951997160911560e-02 -1.309323608875274658e-01
1.177872642874717712e-01 7.076685875654220581e-02 -4.016211722046136856e-03
4.579428434371948242e-01 7.076685875654220581e-02 -2.037347704172134399e-01
8.540493994951248169e-02 5.143951997160911560e-02 -1.650446355342864990e-01
3.651611208915710449e-01 7.076685875654220581e-02 6.558071970939636230e-01
-6.398740410804748535e-01 3.303784504532814026e-02 -2.506265640258789062e-01
-5.125761032104492188e-01 7.076685875654220581e-02 -3.526896834373474121e-01
8.216556161642074585e-02 5.143951997160911560e-02 -1.279542893171310425e-01
-3.809944689273834229e-01 7.076685875654220581e-02 -2.387966364622116089e-01
-7.584990262985229492e-01 5.305434390902519226e-02 -7.232140749692916870e-02
1.994503587484359741e-01 5.143951997160911560e-02 1.235658749938011169e-01
3.080073297023773193e-01 7.076685875654220581e-02 1.772218197584152222e-01
-1.107322126626968384e-01 5.143951997160911560e-02 -2.238062024116516113e-01
2.183100134134292603e-01 7.076685875654220581e-02 6.545848250389099121e-01
4.033330678939819336e-01 5.143951997160911560e-02 3.907234668731689453e-01
2.771202325820922852e-01 5.143951997160911560e-02 5.478853583335876465e-01
-6.474494338035583496e-01 -4.304144978523254395e-01 -2.307322919368743896e-01
4.039327502250671387e-01 -2.187487781047821045e-01 -2.459362149238586426e-01
2.794818282127380371e-01 7.076685875654220581e-02 1.549116373062133789e-01
-2.693265378475189209e-01 5.143951997160911560e-02 2.413904666900634766e-02
2.201666533946990967e-01 7.076685875654220581e-02 4.063358902931213379e-02
-3.053344786167144775e-01 5.143951997160911560e-02 -3.546747863292694092e-01
2.890024483203887939e-01 7.076685875654220581e-02 8.532759547233581543e-02
-4.549191594123840332e-01 5.143951997160911560e-02 -3.965208679437637329e-02
-3.521296977996826172e-01 7.076685875654220581e-02 -3.192860782146453857e-01
2.118737399578094482e-01 7.076685875654220581e-02 -2.840195596218109131e-01
2.447078227996826172e-01 5.143951997160911560e-02 1.057292446494102478e-01
-2.396344393491744995e-01 7.076685875654220581e-02 -3.012962639331817627e-01
2.257711291313171387e-01 5.143951997160911560e-02 7.242656946182250977e-01
3.250670433044433594e-01 5.143951997160911560e-02 6.156316399574279785e-01
-4.789305850863456726e-02 5.143951997160911560e-02 -3.195429444313049316e-01
4.110014438629150391e-01 7.076685875654220581e-02 7.728564143180847168e-01
-7.842183113098144531e-02 7.076685875654220581e-02 -9.021818637847900391e-02
-7.795864939689636230e-01 7.076685875654220581e-02 -2.153122127056121826e-01
4.249068200588226318e-01 -2.209841907024383545e-01 -2.106989622116088867e-01
2.330276072025299072e-01 5.143951997160911560e-02 -2.330894023180007935e-01
-4.832879602909088135e-01 7.076685875654220581e-02 -7.582210004329681396e-02
4.592078030109405518e-01 7.076685875654220581e-02 7.850468158721923828e-01
-6.216893792152404785e-01 -4.299893379211425781e-01 -1.288197189569473267e-01
4.297937750816345215e-01 4.055742919445037842e-02 -2.527462542057037354e-01
-5.619640946388244629e-01 5.143951997160911560e-02 -2.191362380981445312e-01
4.275846183300018311e-01 -1.313164383172988892e-01 -2.363367825746536255e-01
1.251420825719833374e-01 7.076685875654220581e-02 -1.798960268497467041e-01
2.724387943744659424e-01 -4.400580003857612610e-02 7.213992476463317871e-01
-7.358393073081970215e-01 7.076685875654220581e-02 -1.786125153303146362e-01
2.927095293998718262e-01 -6.705033034086227417e-02 7.539958953857421875e-01
3.860235512256622314e-01 -4.315554201602935791e-01 -3.681186139583587646e-01
5.087898299098014832e-02 5.143951997160911560e-02 -1.670465618371963501e-01
-1.764577776193618774e-01 5.143951997160911560e-02 -2.124554961919784546e-01
-5.101560428738594055e-02 7.076685875654220581e-02 -3.905808329582214355e-01
-4.489276111125946045e-01 5.143951997160911560e-02 -9.405449032783508301e-03
3.533135056495666504e-01 5.143951997160911560e-02 1.745480149984359741e-01
3.565405309200286865e-01 7.076685875654220581e-02 -8.209800720214843750e-02
-1.240745410323143005e-01 5.143951997160911560e-02 -2.001118361949920654e-01
2.724184095859527588e-01 7.076685875654220581e-02 4.701499044895172119e-01
-1.204108670353889465e-01 7.076685875654220581e-02 -3.788926303386688232e-01
1.766958385705947876e-01 7.076685875654220581e-02 -8.798062801361083984e-02
-4.118956252932548523e-02 7.076685875654220581e-02 -2.520207762718200684e-01
1.922762393951416016e-01 7.076685875654220581e-02 5.688717961311340332e-01
-6.337070465087890625e-01 -4.571321308612823486e-01 -2.945181131362915039e-01
1.843172907829284668e-01 7.076685875654220581e-02 5.391832590103149414e-01
1.973766833543777466e-01 7.076685875654220581e-02 -3.305905684828758240e-02
4.749334752559661865e-01 5.599964410066604614e-02 2.330586016178131104e-01
2.596716880798339844e-01 -2.276456952095031738e-01 7.343133687973022461e-01
-6.332225203514099121e-01 -4.635737240314483643e-01 -4.002910256385803223e-01
3.496489524841308594e-01 5.143951997160911560e-02 3.208858668804168701e-01
-6.348745822906494141e-01 3.109172545373439789e-02 -1.522873044013977051e-01
2.946246266365051270e-01 5.143951997160911560e-02 -2.133917957544326782e-01
2.221295684576034546e-01 5.143951997160911560e-02 -1.453966349363327026e-01
-4.406746029853820801e-01 5.143951997160911560e-02 -1.564346402883529663e-01
-1.839501559734344482e-01 7.076685875654220581e-02 -1.747973561286926270e-01
3.715619742870330811e-01 5.143951997160911560e-02 -5.849578604102134705e-02
3.422383069992065430e-01 5.143951997160911560e-02 -2.639515884220600128e-02
-4.226068854331970215e-01 7.076685875654220581e-02 -3.452427387237548828e-01
4.038875997066497803e-01 -4.571321308612823486e-01 7.143349051475524902e-01
1.808723956346511841e-01 5.143951997160911560e-02 6.138848066329956055e-01
3.997792303562164307e-01 7.076685875654220581e-02 3.214740157127380371e-01
-2.920722067356109619e-01 5.143951997160911560e-02 -4.607975780963897705e-01
1.072010248899459839e-01 5.143951997160911560e-02 -3.673461973667144775e-01
-5.079398155212402344e-01 7.076685875654220581e-02 -2.604873180389404297e-01
-5.174046754837036133e-01 5.143951997160911560e-02 -1.440023928880691528e-01
3.706859052181243896e-01 5.143951997160911560e-02 2.830018103122711182e-01
-7.056077718734741211e-01 5.143951997160911560e-02 -4.133920669555664062e-01
-1.614449024200439453e-01 7.076685875654220581e-02 -4.774241149425506592e-01
2.895569503307342529e-01 -3.038358390331268311e-01 7.557887434959411621e-01
-2.551200389862060547e-01 5.143951997160911560e-02 -2.208316624164581299e-01
3.254683017730712891e-01 5.143951997160911560e-02 4.677653312683105469e-01
-6.398740410804748535e-01 3.418673202395439148e-02 -2.146806418895721436e-01
-5.968851447105407715e-01 5.143951997160911560e-02 -6.905721873044967651e-02
3.931073546409606934e-01 5.143951997160911560e-02 -2.544000744819641113e-01
-2.266875207424163818e-01 5.143951997160911560e-02 -4.065669178962707520e-01
1.564490199089050293e-01 7.076685875654220581e-02 -6.183969601988792419e-02
3.029423356056213379e-01 3.897561458870768547e-03 7.457092404365539551e-01
3.901089131832122803e-01 5.143951997160911560e-02 2.199335694313049316e-01
-1.604195870459079742e-02 5.143951997160911560e-02 -2.749737501144409180e-01
-6.919397711753845215e-01 5.143951997160911560e-02 -2.934321165084838867e-01
4.306450486183166504e-01 -2.854793667793273926e-01 -2.184541672468185425e-01
