1.732223033905029297e-01 1.568158119916915894e-01 -2.293588593602180481e-02
-1.701851487159729004e-01 -1.507310271263122559e-01 -3.640532195568084717e-01
-4.517745226621627808e-03 9.695281088352203369e-02 -1.434912383556365967e-01
3.851733505725860596e-01 -1.806126683950424194e-01 -3.640706837177276611e-01
-3.789336383342742920e-01 6.383189558982849121e-02 -2.314313501119613647e-01
-3.535764813423156738e-01 -8.960256725549697876e-02 3.657184541225433350e-01
1.341080814599990845e-01 -4.959750175476074219e-01 5.837750434875488281e-02
-3.561285436153411865e-01 2.951022088527679443e-01 2.171363383531570435e-01
1.785408146679401398e-02 2.923569381237030029e-01 3.400473594665527344e-01
3.394205868244171143e-01 2.073002457618713379e-01 -4.232226405292749405e-03
3.394380807876586914e-01 -2.138285636901855469e-01 4.382508695125579834e-01
3.100827336311340332e-01 3.934158384799957275e-01 -3.207624852657318115e-01
4.833332449197769165e-02 2.623773515224456787e-01 -3.383978903293609619e-01
-3.105856180191040039e-01 1.568158119916915894e-01 8.293139189481735229e-02
-1.937552839517593384e-01 1.454123854637145996e-01 1.817125082015991211e-01
-3.783347606658935547e-01 3.934158384799957275e-01 -3.314367532730102539e-01
-1.440241374075412750e-02 3.664132356643676758e-01 -4.711098074913024902e-01
1.286035031080245972e-01 -2.605597376823425293e-01 -3.982608914375305176e-01
8.753961324691772461e-02 9.695281088352203369e-02 -3.089498579502105713e-01
2.929002046585083008e-01 -6.832412327639758587e-04 -3.640532195568084717e-01
2.741500735282897949e-01 1.311604976654052734e-01 1.918289810419082642e-01
-1.989005059003829956e-01 7.194097340106964111e-02 -3.982608914375305176e-01
-8.458525687456130981e-02 3.934158384799957275e-01 -3.647308051586151123e-01
3.736273944377899170e-01 2.588871419429779053e-01 1.042586937546730042e-01
-3.356805145740509033e-01 -4.959750175476074219e-01 -3.584454953670501709e-01
-4.010880738496780396e-02 9.695281088352203369e-02 2.100895047187805176e-01
3.148205578327178955e-01 3.934158384799957275e-01 -4.793181270360946655e-02
-3.895703256130218506e-01 -4.807552695274353027e-01 4.568960964679718018e-01
-3.858222067356109619e-01 2.945950925350189209e-01 -2.920217514038085938e-01
-1.539591103792190552e-01 9.935274720191955566e-02 3.657027184963226318e-01
-3.805886805057525635e-01 1.406290978193283081e-01 -3.537006676197052002e-01
5.036990717053413391e-02 3.934158384799957275e-01 -1.835392117500305176e-01
4.803160578012466431e-02 1.311604976654052734e-01 1.757891625165939331e-01
-2.083507627248764038e-01 1.782036870718002319e-01 -3.982608914375305176e-01
3.913650810718536377e-01 1.586413383483886719e-01 4.568864405155181885e-01
-3.800422549247741699e-01 3.177140951156616211e-01 -2.410945296287536621e-02
-4.131037294864654541e-01 -8.724372088909149170e-02 4.313605129718780518e-01
-2.817705869674682617e-01 -4.399641454219818115e-01 -3.640532195568084717e-01
-1.905947029590606689e-01 -4.028922915458679199e-01 3.657027184963226318e-01
3.888750970363616943e-01 -4.959750175476074219e-01 1.742976009845733643e-01
-2.256233394145965576e-01 3.934158384799957275e-01 4.720415174961090088e-01
-1.142285019159317017e-01 -1.546373814344406128e-01 3.657027184963226318e-01
3.886984884738922119e-01 -5.949950814247131348e-01 3.657210469245910645e-01
1.193361636251211166e-02 -2.913663089275360107e-01 3.999103605747222900e-01
3.736273944377899170e-01 6.587072461843490601e-02 -3.127233386039733887e-01
4.153373837471008301e-01 3.934158384799957275e-01 -2.570106089115142822e-01
7.068135589361190796e-02 3.250004649162292480e-01 -2.734902203083038330e-01
-2.460433989763259888e-01 1.454123854637145996e-01 3.141087889671325684e-01
-2.931521832942962646e-01 9.695281088352203369e-02 -1.848681420087814331e-01
9.046762436628341675e-02 3.934158384799957275e-01 3.587494194507598877e-01
2.053920030593872070e-01 3.934158384799957275e-01 3.905807733535766602e-01
3.162159025669097900e-01 -5.301818251609802246e-01 -1.457617878913879395e-01
3.394371867179870605e-01 7.560338079929351807e-02 -4.158962965011596680e-01
1.483433544635772705e-01 3.250004649162292480e-01 -1.789001971483230591e-01
-1.660890877246856689e-01 2.717480361461639404e-01 -3.982608914375305176e-01
1.808260530233383179e-01 1.214348152279853821e-01 3.999103605747222900e-01
-1.057198643684387207e-01 -5.301818251609802246e-01 -1.283362060785293579e-01
-2.262466996908187866e-01 -7.892655581235885620e-02 -3.640532195568084717e-01
-3.142548725008964539e-02 -4.959750175476074219e-01 -2.260780334472656250e-01
-1.053045690059661865e-01 9.695281088352203369e-02 1.106690242886543274e-01
3.194648027420043945e-01 3.759692907333374023e-01 4.796513319015502930e-01
-3.697448074817657471e-01 -1.392380595207214355e-01 -4.552317261695861816e-01
3.704711794853210449e-01 -4.959750175476074219e-01 -1.207016175612807274e-03
-8.420870453119277954e-02 3.934158384799957275e-01 -1.813779473304748535e-01
3.741510808467864990e-01 1.405504047870635986e-01 3.657289147377014160e-01
-2.308638840913772583e-01 3.250004649162292480e-01 2.757508456707000732e-01
1.586600393056869507e-01 -5.117464065551757812e-01 -3.982608914375305176e-01
-1.684496849775314331e-01 -1.929924637079238892e-01 3.999103605747222900e-01
-6.533809006214141846e-03 -4.959750175476074219e-01 1.155042927712202072e-02
7.908779382705688477e-02 3.934158384799957275e-01 6.332024931907653809e-02
7.221540063619613647e-02 9.695281088352203369e-02 -4.998727887868881226e-02
-1.515591740608215332e-01 3.250004649162292480e-01 -9.533855319023132324e-02
-3.668727278709411621e-01 3.934158384799957275e-01 -3.777958080172538757e-02
-3.670213818550109863e-01 1.454123854637145996e-01 1.962126940488815308e-01
3.394205868244171143e-01 1.706585139036178589e-01 -2.072212547063827515e-01
2.050999701023101807e-01 3.934158384799957275e-01 -3.717601299285888672e-01
3.394205868244171143e-01 1.666420102119445801e-01 2.074928581714630127e-01
3.680758178234100342e-02 9.695281088352203369e-02 -2.415487021207809448e-01
-3.682444989681243896e-01 -5.588805675506591797e-01 3.657350540161132812e-01
-3.219348490238189697e-01 -3.505701124668121338e-01 4.238459765911102295e-01
-2.058843821287155151e-01 3.934158384799957275e-01 -2.544900178909301758e-01
3.736273944377899170e-01 7.484275102615356445e-02 -2.142951786518096924e-01
-8.404451608657836914e-02 -7.102029770612716675e-02 -3.640532195568084717e-01
-3.219304680824279785e-01 4.314878606237471104e-04 4.322899281978607178e-01
-2.378355115652084351e-01 1.311604976654052734e-01 -9.579756110906600952e-02
-3.480281829833984375e-01 3.934158384799957275e-01 -3.778487145900726318e-01
-3.802643418312072754e-01 1.393334120512008667e-01 -2.575837448239326477e-02
-3.610228300094604492e-01 2.857131361961364746e-01 3.657053112983703613e-01
8.379150927066802979e-02 3.250004649162292480e-01 1.721616983413696289e-01
3.958370983600616455e-01 3.934158384799957275e-01 3.803016841411590576e-01
-3.340996056795120239e-02 -4.959750175476074219e-01 1.533704847097396851e-01
2.938164770603179932e-01 -4.718610942363739014e-01 3.657027184963226318e-01
3.049698472023010254e-01 -4.959750175476074219e-01 1.227885037660598755e-01
-5.910226702690124512e-02 3.934158384799957275e-01 -3.088659346103668213e-01
4.189779758453369141e-01 -7.011187672615051270e-01 -4.552352130413055420e-01
3.719471767544746399e-02 1.153820827603340149e-01 -3.982608914375305176e-01
-2.443332523107528687e-01 3.201507627964019775e-01 3.999103605747222900e-01
-1.737509667873382568e-02 3.627901375293731689e-01 4.698671400547027588e-01
-1.264747530221939087e-01 9.695281088352203369e-02 3.126058876514434814e-01
1.380048096179962158e-01 2.714709043502807617e-01 3.657027184963226318e-01
2.482009828090667725e-01 2.118518203496932983e-01 -1.976311057806015015e-01
-8.117446303367614746e-02 2.008357048034667969e-01 3.400473594665527344e-01
3.595958352088928223e-01 3.592081665992736816e-01 1.899107843637466431e-01
-1.962094306945800781e-01 -4.959750175476074219e-01 -2.086384743452072144e-01
1.538811475038528442e-01 1.652763485908508301e-01 -3.982608914375305176e-01
1.968186497688293457e-01 1.454123854637145996e-01 -2.983980178833007812e-01
-5.299531295895576477e-02 -1.528490036725997925e-01 3.999103605747222900e-01
2.313734292984008789e-01 3.617180138826370239e-02 -3.640532195568084717e-01
4.273187220096588135e-01 -3.928344249725341797e-01 -4.528256654739379883e-01
-2.244769595563411713e-02 3.934158384799957275e-01 -4.870960488915443420e-03
1.299884021282196045e-01 9.695281088352203369e-02 1.670960485935211182e-01
-1.783727435395121574e-03 -2.150064110755920410e-01 -3.982608914375305176e-01
2.152304500341415405e-01 -7.629142701625823975e-02 3.657027184963226318e-01
-3.096186518669128418e-01 3.934158384799957275e-01 2.466507852077484131e-01
3.375994265079498291e-01 3.934158384799957275e-01 -2.312538921833038330e-01
-3.223866596817970276e-02 2.925885915756225586e-01 -3.982608914375305176e-01
-2.267022132873535156e-01 3.934158384799957275e-01 -6.261874735355377197e-02
3.545109331607818604e-01 -4.647102355957031250e-01 4.568864405155181885e-01
2.873379588127136230e-01 3.934158384799957275e-01 -1.088945046067237854e-01
-4.355923533439636230e-01 3.934158384799957275e-01 -3.671735823154449463e-01
2.253958582878112793e-01 2.879661917686462402e-01 -1.347515382803976536e-03
1.231356635689735413e-01 -4.437358677387237549e-01 3.657027184963226318e-01
-4.130993485450744629e-01 -1.080887541174888611e-01 -3.777420520782470703e-01
-3.789336383342742920e-01 1.088370904326438904e-01 3.326823115348815918e-01
-2.632906138896942139e-01 -5.301818251609802246e-01 7.729996740818023682e-02
-3.921949565410614014e-01 -7.007017731666564941e-01 4.568864405155181885e-01
-7.791788876056671143e-02 9.695281088352203369e-02 -2.104841172695159912e-01
3.421728610992431641e-01 -8.175314217805862427e-02 4.539584219455718994e-01
4.305160343647003174e-01 -5.132756233215332031e-01 -4.473053812980651855e-01
3.394205868244171143e-01 7.127562910318374634e-02 1.318523138761520386e-01
-1.716146320104598999e-01 3.250004649162292480e-01 6.948097050189971924e-02
2.785269729793071747e-02 -5.301818251609802246e-01 -1.339684277772903442e-01
2.952511906623840332e-01 -2.549207806587219238e-01 3.657027184963226318e-01
8.323195576667785645e-02 1.816169470548629761e-01 3.999103605747222900e-01
-3.267627060413360596e-01 2.801246643066406250e-01 4.555207788944244385e-01
8.362364023923873901e-02 1.568158119916915894e-01 2.592109143733978271e-01
-1.143762692809104919e-01 -5.301818251609802246e-01 -3.502270877361297607e-01
-2.016851305961608887e-01 -5.301818251609802246e-01 1.110843047499656677e-01
3.496168181300163269e-02 -5.364456027746200562e-02 -3.640532195568084717e-01
1.005298942327499390e-01 9.695281088352203369e-02 2.589766085147857666e-01
3.394389450550079346e-01 1.512290537357330322e-01 -4.123116731643676758e-01
1.284076720476150513e-01 3.272692561149597168e-01 -3.982608914375305176e-01
-1.741903126239776611e-01 9.695281088352203369e-02 6.408036500215530396e-02
-8.426658064126968384e-02 1.568158119916915894e-01 -2.969003319740295410e-01
-1.363490521907806396e-01 3.250004649162292480e-01 -1.996393650770187378e-01
2.663203049451112747e-04 3.250004649162292480e-01 2.258032262325286865e-01
-1.027638763189315796e-01 9.946377575397491455e-02 -3.640532195568084717e-01
-3.402845561504364014e-01 2.565335631370544434e-01 -4.552317261695861816e-01
-3.903362154960632324e-01 1.950277537107467651e-01 -1.513957530260086060e-01
3.190530240535736084e-01 3.592081665992736816e-01 1.075337976217269897e-01
-2.095878869295120239e-01 3.934158384799957275e-01 2.565058469772338867e-01
2.465538084506988525e-01 1.568158119916915894e-01 9.583048522472381592e-02
-3.265213966369628906e-01 3.934158384799957275e-01 -3.183214366436004639e-01
3.736273944377899170e-01 2.966016232967376709e-01 -8.186872303485870361e-02
3.050056993961334229e-01 8.235437795519828796e-03 3.999103605747222900e-01
4.305990934371948242e-01 -3.559758663177490234e-01 -4.031455814838409424e-01
-2.226638346910476685e-01 -5.301818251609802246e-01 2.244812995195388794e-01
-3.187392950057983398e-01 1.568158119916915894e-01 2.741333842277526855e-01
-8.434649556875228882e-02 3.250004649162292480e-01 -1.501109916716814041e-02
-3.511520326137542725e-01 6.274512410163879395e-02 -3.376271948218345642e-02
-2.854424342513084412e-02 3.934158384799957275e-01 2.025950551033020020e-01
1.799010485410690308e-01 3.934158384799957275e-01 1.002325564622879028e-01
1.693990081548690796e-01 9.695281088352203369e-02 -2.612386941909790039e-01
-1.721173524856567383e-01 -5.602636933326721191e-01 3.999103605747222900e-01
2.693711817264556885e-01 -1.223540231585502625e-01 -3.640532195568084717e-01
-2.646816074848175049e-01 1.630844920873641968e-01 3.999103605747222900e-01
-1.916709542274475098e-01 -3.328481316566467285e-01 -3.982608914375305176e-01
4.168350696563720703e-01 -1.560685038566589355e-01 4.568864405155181885e-01
-3.656478524208068848e-01 -5.643895268440246582e-01 -3.026872873306274414e-01
4.305990934371948242e-01 -8.800261467695236206e-02 -3.788305521011352539e-01
3.797161579132080078e-02 3.250004649162292480e-01 -6.497856229543685913e-02
-1.284978836774826050e-01 2.575669884681701660e-01 3.999103605747222900e-01
-1.880018040537834167e-02 2.005882710218429565e-01 -3.383978903293609619e-01
-4.411729872226715088e-01 3.630533218383789062e-01 4.702605307102203369e-01
3.064325451850891113e-01 3.325998485088348389e-01 -3.982608914375305176e-01
-3.266394436359405518e-01 -2.171974927186965942e-01 -4.538581967353820801e-01
-3.384948670864105225e-01 1.167492568492889404e-02 -4.552317261695861816e-01
3.394511938095092773e-01 -6.255359649658203125e-01 4.165595769882202148e-01
1.899144984781742096e-02 2.200247198343276978e-01 3.400473594665527344e-01
-1.392742851749062538e-03 5.489483103156089783e-02 3.657027184963226318e-01
3.074537217617034912e-01 3.592081665992736816e-01 3.270474970340728760e-01
1.228130534291267395e-01 3.592081665992736816e-01 4.558373093605041504e-01
2.196106761693954468e-01 3.934158384799957275e-01 2.757394611835479736e-01
3.394205868244171143e-01 1.280549764633178711e-01 7.282357662916183472e-02
-2.538368403911590576e-01 1.568158119916915894e-01 -2.494007349014282227e-01
-3.601030707359313965e-01 -5.643895268440246582e-01 2.934706024825572968e-02
2.482009828090667725e-01 3.115161955356597900e-01 1.551321893930435181e-01
-2.698312103748321533e-01 -5.301818251609802246e-01 -2.798506915569305420e-01
-1.050204336643218994e-01 3.934158384799957275e-01 2.877444326877593994e-01
-2.643605694174766541e-02 9.695281088352203369e-02 -4.749929904937744141e-02
2.172649204730987549e-01 -3.285868167877197266e-01 3.657027184963226318e-01
-4.366039037704467773e-01 2.467904239892959595e-01 3.341148421168327332e-02
4.207055568695068359e-01 -2.129589021205902100e-01 3.657027184963226318e-01
9.328547865152359009e-02 -5.301818251609802246e-01 1.646418869495391846e-01
4.306401908397674561e-01 3.806126713752746582e-01 -4.623362123966217041e-01
2.600459158420562744e-01 -5.301818251609802246e-01 -2.069065123796463013e-01
-1.125874519348144531e-01 2.068578451871871948e-01 -3.383978903293609619e-01
4.151354432106018066e-01 -4.839849174022674561e-01 3.657062053680419922e-01
1.378378123044967651e-01 3.250004649162292480e-01 -2.870146632194519043e-01
-1.194733977317810059e-01 3.934158384799957275e-01 -2.554526031017303467e-01
4.268422126770019531e-01 2.043669670820236206e-01 -4.532339572906494141e-01
3.937676548957824707e-01 -1.331644207239151001e-01 -4.552553296089172363e-01
3.591962754726409912e-01 2.862692177295684814e-01 3.657027184963226318e-01
-3.493973314762115479e-01 -7.367909550666809082e-01 -4.552317261695861816e-01
-3.219514489173889160e-01 -4.644164741039276123e-01 -4.225724339485168457e-01
-1.940918862819671631e-01 -3.139458894729614258e-01 3.657027184963226318e-01
-2.990781366825103760e-01 -2.035007774829864502e-01 3.657027184963226318e-01
1.980986148118972778e-01 1.454123854637145996e-01 -1.099209189414978027e-01
-5.699416622519493103e-02 9.082224220037460327e-02 3.999103605747222900e-01
-2.752291262149810791e-01 -6.890276074409484863e-02 3.657027184963226318e-01
-2.949250862002372742e-02 -3.444989919662475586e-01 -3.640532195568084717e-01
-8.897868916392326355e-03 -5.392433330416679382e-02 3.657027184963226318e-01
4.130119085311889648e-02 3.934158384799957275e-01 -2.890246808528900146e-01
1.446041557937860489e-02 -4.957625567913055420e-01 -3.982608914375305176e-01
-4.541318118572235107e-01 3.934158384799957275e-01 1.828718185424804688e-01
2.482009828090667725e-01 2.188024967908859253e-01 -3.264322876930236816e-01
8.680869638919830322e-02 7.788094133138656616e-02 3.999103605747222900e-01
-3.219252228736877441e-01 1.913189888000488281e-01 4.407697021961212158e-01
-3.618297874927520752e-01 2.296480983495712280e-01 -3.396044075489044189e-01
2.576442360877990723e-01 -2.871915400028228760e-01 -3.640532195568084717e-01
-2.492844015359878540e-01 3.934158384799957275e-01 3.633499741554260254e-01
-2.267546802759170532e-01 3.934158384799957275e-01 -3.533483445644378662e-01
7.348286360502243042e-02 3.934158384799957275e-01 -4.257670938968658447e-01
-3.609249293804168701e-01 3.221502900123596191e-01 -1.009576544165611267e-01
-3.219321966171264648e-01 -6.090660095214843750e-01 4.279394149780273438e-01
9.368328005075454712e-02 3.250004649162292480e-01 9.634744375944137573e-03
-1.379376500844955444e-01 -5.301818251609802246e-01 2.799797952175140381e-01
-3.219217360019683838e-01 -2.773321270942687988e-01 -3.774552941322326660e-01
1.669815778732299805e-01 3.250004649162292480e-01 -6.564949452877044678e-02
1.642277278006076813e-02 1.454123854637145996e-01 -3.058959543704986572e-01
-3.411229848861694336e-01 -4.777016118168830872e-02 -3.640846908092498779e-01
1.621799468994140625e-01 -5.301818251609802246e-01 -1.972582377493381500e-02
-3.579252064228057861e-01 -4.174947738647460938e-01 3.657306730747222900e-01
2.818543612957000732e-01 2.145280390977859497e-01 -3.612021207809448242e-01
1.185447499155998230e-01 3.250004649162292480e-01 2.944966256618499756e-01
2.492064386606216431e-01 2.803948223590850830e-01 3.400473594665527344e-01
2.933084964752197266e-01 -4.312859177589416504e-01 -3.640532195568084717e-01
4.305990934371948242e-01 -7.798832058906555176e-01 4.003055691719055176e-01
1.876238547265529633e-02 -5.301818251609802246e-01 2.205670624971389771e-01
-9.563023597002029419e-02 1.568158119916915894e-01 -1.219739541411399841e-01
2.168863564729690552e-01 3.934158384799957275e-01 3.322324901819229126e-02
1.669728308916091919e-01 -1.140311658382415771e-01 -3.982608914375305176e-01
2.229434698820114136e-01 3.250004649162292480e-01 -8.062958717346191406e-02
1.132727414369583130e-01 -5.301818251609802246e-01 -1.611493825912475586e-01
2.318656593561172485e-01 3.592081665992736816e-01 -4.514748752117156982e-01
-3.188441991806030273e-01 3.250004649162292480e-01 2.747681438922882080e-01
-3.048537373542785645e-01 3.592081665992736816e-01 -2.419674992561340332e-01
9.892205893993377686e-02 3.934158384799957275e-01 -3.415628373622894287e-01
1.449099928140640259e-01 2.590489089488983154e-01 -3.383978903293609619e-01
2.191446572542190552e-01 -5.301818251609802246e-01 2.982377111911773682e-01
-3.356061875820159912e-01 3.868044316768646240e-01 -4.773251712322235107e-01
-4.473096430301666260e-01 3.650458157062530518e-01 1.229686066508293152e-01
-4.125039577484130859e-01 1.604861170053482056e-01 3.719670176506042480e-01
2.672571241855621338e-01 -5.301818251609802246e-01 -2.766184210777282715e-01
3.736273944377899170e-01 1.830333024263381958e-01 3.188579678535461426e-01
-3.104256391525268555e-01 -4.959750175476074219e-01 -1.015880182385444641e-01
3.860441446304321289e-01 -7.924389839172363281e-01 -4.462037384510040283e-01
-1.644576489925384521e-01 3.250004649162292480e-01 2.552354931831359863e-01
2.543411552906036377e-01 -5.301818251609802246e-01 2.512202784419059753e-02
1.259500235319137573e-01 -4.959750175476074219e-01 -2.354566156864166260e-01
3.955214917659759521e-01 -4.959750175476074219e-01 -6.655649095773696899e-02
-3.949549421668052673e-02 -5.425215959548950195e-01 3.999103605747222900e-01
2.206755578517913818e-01 -4.959750175476074219e-01 7.708393037319183350e-02
-3.234080076217651367e-01 -7.924389839172363281e-01 3.870835900306701660e-01
-3.351506888866424561e-01 -4.959750175476074219e-01 3.280301988124847412e-01
-2.985596954822540283e-01 -5.598143339157104492e-01 -3.982608914375305176e-01
-2.105426192283630371e-01 2.770025432109832764e-01 3.400473594665527344e-01
-1.641262769699096680e-01 -4.959750175476074219e-01 -5.754678696393966675e-02
3.697088062763214111e-01 3.934158384799957275e-01 -3.442215621471405029e-01
-3.603304028511047363e-01 -4.959750175476074219e-01 1.030407994985580444e-01
1.486922055482864380e-01 1.568158119916915894e-01 3.214108943939208984e-01
-4.130993485450744629e-01 -6.960994601249694824e-01 -4.202800095081329346e-01
-3.561285436153411865e-01 2.010455280542373657e-01 8.148187771439552307e-03
-3.799163699150085449e-01 -3.350968062877655029e-01 -3.640645742416381836e-01
-2.441583871841430664e-01 -1.899465769529342651e-01 -3.982608914375305176e-01
-9.747456014156341553e-02 3.277754783630371094e-01 3.999103605747222900e-01
-4.131037294864654541e-01 -7.561583518981933594e-01 3.825136423110961914e-01
-2.629207968711853027e-01 3.934158384799957275e-01 1.259648203849792480e-01
-1.068267300724983215e-01 3.047823905944824219e-01 -3.383978903293609619e-01
-2.661583125591278076e-01 -5.523521900177001953e-01 3.999103605747222900e-01
-3.219532072544097900e-01 -7.732219099998474121e-01 -3.703577518463134766e-01
3.554787635803222656e-01 3.934158384799957275e-01 6.532911956310272217e-02
-3.422150015830993652e-01 -5.643895268440246582e-01 -1.836213916540145874e-01
8.599472790956497192e-02 -5.301818251609802246e-01 -3.129051923751831055e-01
1.337478756904602051e-01 1.568158119916915894e-01 1.047727763652801514e-01
-1.495159417390823364e-01 1.454123854637145996e-01 -3.396699726581573486e-01
-2.706740200519561768e-01 9.465690702199935913e-02 -3.982608914375305176e-01
2.225736379623413086e-01 3.117951154708862305e-01 -3.612021207809448242e-01
2.267746478319168091e-01 -2.053742110729217529e-01 3.657027184963226318e-01
4.306305646896362305e-01 9.670013934373855591e-02 4.170404374599456787e-01
3.463607430458068848e-01 -3.317998647689819336e-01 4.565445780754089355e-01
-1.740783900022506714e-01 9.695281088352203369e-02 1.327712088823318481e-01
-3.639062643051147461e-01 -2.952700555324554443e-01 3.657263219356536865e-01
3.852495551109313965e-02 1.454123854637145996e-01 -1.914122402667999268e-01
3.082502186298370361e-01 -4.959750175476074219e-01 3.006665110588073730e-01
8.843138813972473145e-02 9.695281088352203369e-02 -1.782777011394500732e-01
6.225857883691787720e-02 -2.306639999151229858e-01 3.657027184963226318e-01
-2.845351099967956543e-01 3.592081665992736816e-01 1.952448487281799316e-01
1.085795313119888306e-01 -5.301818251609802246e-01 3.418492972850799561e-01
5.632919073104858398e-02 1.311604976654052734e-01 3.324147760868072510e-01
2.041120231151580811e-01 -4.959750175476074219e-01 -7.647729665040969849e-02
2.253958582878112793e-01 2.160729318857192993e-01 2.003454864025115967e-01
-3.903362154960632324e-01 2.143732905387878418e-01 9.207101166248321533e-02
-3.747999668121337891e-01 3.934158384799957275e-01 3.406594097614288330e-01
2.279909700155258179e-02 -5.301818251609802246e-01 -6.512614339590072632e-02
3.736273944377899170e-01 3.198045194149017334e-01 3.299973607063293457e-01
3.090213239192962646e-01 -3.755906820297241211e-01 -3.982608914375305176e-01
3.499741852283477783e-01 -5.726629495620727539e-01 -3.640829324722290039e-01
-1.588647812604904175e-01 -4.419429600238800049e-02 -3.982608914375305176e-01
-2.653495669364929199e-01 -4.959750175476074219e-01 3.050528466701507568e-01
-2.274829447269439697e-01 3.250004649162292480e-01 -2.342527061700820923e-01
3.625448346138000488e-01 -5.052521824836730957e-01 -2.131402343511581421e-01
4.058399200439453125e-01 -3.883492946624755859e-01 4.568864405155181885e-01
-1.386799216270446777e-01 -3.606376051902770996e-01 -3.640532195568084717e-01
-2.464044690132141113e-01 3.934158384799957275e-01 -1.232906430959701538e-01
-1.513099968433380127e-01 -2.688789367675781250e-01 -3.640532195568084717e-01
3.099769353866577148e-01 -2.179219275712966919e-01 -3.982608914375305176e-01
-4.030045866966247559e-02 8.510174602270126343e-02 -3.640532195568084717e-01
-8.034694194793701172e-02 -5.301818251609802246e-01 -3.161824867129325867e-02
3.397685587406158447e-01 8.667109906673431396e-02 4.498685002326965332e-01
2.249046973884105682e-02 3.250004649162292480e-01 -1.395813971757888794e-01
3.394205868244171143e-01 7.837227731943130493e-02 3.375259041786193848e-01
-1.544408351182937622e-01 -5.301818251609802246e-01 -3.196704983711242676e-01
-3.759573772549629211e-02 1.454123854637145996e-01 1.383055001497268677e-01
2.482009828090667725e-01 1.794128417968750000e-01 -7.465230301022529602e-03
-3.240689933300018311e-01 1.568158119916915894e-01 -5.017606075853109360e-03
-3.447268605232238770e-01 9.923385828733444214e-02 -3.076926469802856445e-01
-2.965645492076873779e-01 3.250004649162292480e-01 -1.899643987417221069e-01
-4.837256297469139099e-02 -4.959750175476074219e-01 -3.095977306365966797e-01
-8.142468333244323730e-02 -4.370361864566802979e-01 -3.640532195568084717e-01
-2.864952683448791504e-01 1.755956709384918213e-01 -3.383978903293609619e-01
-2.836826741695404053e-01 9.695281088352203369e-02 3.125490248203277588e-01
2.253958582878112793e-01 2.892653942108154297e-01 -2.275197654962539673e-01
-3.340412080287933350e-01 2.327474653720855713e-01 3.400473594665527344e-01
1.816059201955795288e-01 2.095637917518615723e-01 -3.383978903293609619e-01
-6.603376567363739014e-02 3.934158384799957275e-01 1.339112967252731323e-01
-2.001376301050186157e-01 3.592081665992736816e-01 1.803250014781951904e-01
4.245063289999961853e-03 -4.959750175476074219e-01 3.185318410396575928e-01
-3.789336383342742920e-01 1.281668841838836670e-01 7.727313041687011719e-02
1.791954934597015381e-01 3.223134949803352356e-02 -3.982608914375305176e-01
3.394240736961364746e-01 2.544265091419219971e-01 4.386880099773406982e-01
-1.945491433143615723e-01 1.568158119916915894e-01 -1.843715459108352661e-01
-1.480987071990966797e-01 1.968235671520233154e-01 -3.982608914375305176e-01
1.262955460697412491e-02 1.311604976654052734e-01 6.716153584420681000e-03
1.021700724959373474e-01 -4.791229665279388428e-01 -3.640532195568084717e-01
1.249629482626914978e-01 1.454123854637145996e-01 -4.739289730787277222e-02
6.257699429988861084e-02 -1.225059702992439270e-01 3.999103605747222900e-01
-3.219217360019683838e-01 3.462362289428710938e-01 3.942545652389526367e-01
-3.335752189159393311e-01 1.454123854637145996e-01 -1.898664832115173340e-01
-4.464902728796005249e-02 1.568158119916915894e-01 4.448592290282249451e-02
-2.217659503221511841e-01 3.424322009086608887e-01 -3.982608914375305176e-01
-2.448560893535614014e-01 3.250004649162292480e-01 -1.596849411725997925e-01
3.000886440277099609e-01 9.695281088352203369e-02 -9.976685792207717896e-02
-3.182811439037322998e-01 -4.959750175476074219e-01 2.753294408321380615e-01
-2.918581962585449219e-01 -4.959750175476074219e-01 -2.033420056104660034e-01
-2.316280007362365723e-01 -4.826839864253997803e-01 3.657027184963226318e-01
3.465644419193267822e-01 -6.302662193775177002e-02 -3.640846908092498779e-01
-2.067219465970993042e-01 5.570968240499496460e-02 3.999103605747222900e-01
-4.043633937835693359e-01 3.592081665992736816e-01 3.036417365074157715e-01
2.437884211540222168e-01 3.934158384799957275e-01 -2.637426853179931641e-01
-8.293179422616958618e-02 3.164831101894378662e-01 -3.982608914375305176e-01
-1.756827160716056824e-02 3.592081665992736816e-01 -3.830516636371612549e-01
-4.130993485450744629e-01 -3.535724282264709473e-01 -4.178293645381927490e-01
6.936758290976285934e-04 3.592081665992736816e-01 8.688434213399887085e-02
-8.520828932523727417e-02 9.695281088352203369e-02 5.200564861297607422e-02
1.952982544898986816e-01 -4.361688792705535889e-01 -3.982608914375305176e-01
-2.363404631614685059e-01 -2.430283725261688232e-01 3.999103605747222900e-01
3.394205868244171143e-01 3.138296008110046387e-01 -3.586474359035491943e-01
1.168792098760604858e-01 -3.437610864639282227e-01 3.657027184963226318e-01
4.305990934371948242e-01 -2.686391174793243408e-01 -3.731581270694732666e-01
2.253958582878112793e-01 2.814999222755432129e-01 -1.316314339637756348e-01
3.736273944377899170e-01 1.417587101459503174e-01 2.808488607406616211e-01
4.244939088821411133e-01 -5.999829173088073730e-01 -4.545847475528717041e-01
3.136008977890014648e-01 1.698602885007858276e-01 3.999103605747222900e-01
1.322965323925018311e-01 -5.321877822279930115e-02 3.999103605747222900e-01
4.214355945587158203e-01 3.592081665992736816e-01 6.816874444484710693e-02
3.421186804771423340e-01 -6.896200776100158691e-01 -3.640654683113098145e-01
2.275256514549255371e-01 3.592081665992736816e-01 2.019638121128082275e-01
2.466963231563568115e-01 1.568158119916915894e-01 -5.494812130928039551e-02
-3.810851601883769035e-03 3.250004649162292480e-01 -3.172897696495056152e-01
2.150485664606094360e-01 1.568158119916915894e-01 1.724169999361038208e-01
-2.284053415060043335e-01 1.454123854637145996e-01 6.895377486944198608e-02
-3.581437766551971436e-01 3.934158384799957275e-01 2.016578018665313721e-01
2.786107063293457031e-01 -4.959750175476074219e-01 2.009268999099731445e-01
2.253958582878112793e-01 1.867805272340774536e-01 3.369156718254089355e-01
3.746031224727630615e-01 -5.643895268440246582e-01 2.067304700613021851e-01
1.090210452675819397e-01 3.592081665992736816e-01 -1.151037514209747314e-01
-3.219365775585174561e-01 -4.952510893344879150e-01 4.210246205329895020e-01
-1.265989094972610474e-01 5.464391037821769714e-02 3.657027184963226318e-01
-1.551804989576339722e-01 9.695281088352203369e-02 2.335442304611206055e-01
1.879314333200454712e-01 3.934158384799957275e-01 2.315385937690734863e-01
3.394205868244171143e-01 1.305038779973983765e-01 -3.170843124389648438e-01
-1.106946021318435669e-01 -4.959750175476074219e-01 9.890275448560714722e-02
4.218954741954803467e-01 2.248657345771789551e-01 -3.640576004981994629e-01
5.069085955619812012e-02 -4.902011752128601074e-01 3.999103605747222900e-01
2.862161993980407715e-01 -5.619137734174728394e-02 3.657027184963226318e-01
2.204814553260803223e-01 -4.906680285930633545e-01 3.999103605747222900e-01
-3.561285436153411865e-01 2.407455295324325562e-01 2.774329781532287598e-01
-6.313888728618621826e-02 1.454123854637145996e-01 2.724075317382812500e-01
3.394205868244171143e-01 2.442059665918350220e-01 -2.935045957565307617e-01
-3.219217360019683838e-01 5.879943072795867920e-02 -3.711428642272949219e-01
-3.189351260662078857e-01 1.568158119916915894e-01 -2.984058856964111328e-01
3.624748587608337402e-01 3.592081665992736816e-01 -1.042047813534736633e-01
-4.131343364715576172e-01 1.770417541265487671e-01 -3.862882852554321289e-01
3.417365849018096924e-01 2.027451545000076294e-01 -4.516820609569549561e-01
2.698660194873809814e-01 3.934158384799957275e-01 4.094463288784027100e-01
-1.635947078466415405e-01 1.496946662664413452e-01 3.628524839878082275e-01
3.203050196170806885e-01 -4.959750175476074219e-01 -3.261131644248962402e-01
5.446764081716537476e-02 -3.804159164428710938e-01 -3.640532195568084717e-01
9.317619353532791138e-02 2.393282800912857056e-01 -3.982608914375305176e-01
-3.235610127449035645e-01 1.290805488824844360e-01 3.657105863094329834e-01
-4.131037294864654541e-01 -3.309395313262939453e-01 4.330995082855224609e-01
-3.500670492649078369e-01 3.592081665992736816e-01 6.879202276468276978e-02
-6.164051592350006104e-02 1.568158119916915894e-01 -1.571914404630661011e-01
8.146675676107406616e-02 3.315804302692413330e-01 -3.982608914375305176e-01
-1.718104630708694458e-01 3.592081665992736816e-01 4.029074609279632568e-01
1.504582613706588745e-01 -3.772474825382232666e-01 3.999103605747222900e-01
-1.321952790021896362e-01 -4.226312637329101562e-01 3.657027184963226318e-01
-1.161073669791221619e-01 3.934158384799957275e-01 -1.307886093854904175e-01
-1.653861403465270996e-01 1.454123854637145996e-01 -5.628859251737594604e-02
1.884499043226242065e-01 3.934158384799957275e-01 -1.170473098754882812e-01
3.715833127498626709e-01 3.934158384799957275e-01 1.233803927898406982e-01
2.336133569478988647e-01 -5.301818251609802246e-01 -3.427492678165435791e-01
-3.789336383342742920e-01 9.815409779548645020e-02 2.397491186857223511e-01
-2.639244794845581055e-01 3.872707718983292580e-03 3.657027184963226318e-01
1.246866658329963684e-01 3.934158384799957275e-01 -3.008219785988330841e-02
2.520227059721946716e-02 -5.301818251609802246e-01 -2.961414456367492676e-01
3.967525064945220947e-01 -5.603432655334472656e-01 3.856799378991127014e-02
4.059754312038421631e-01 8.977134525775909424e-02 -3.640619516372680664e-01
-3.903362154960632324e-01 2.159846276044845581e-01 1.611910462379455566e-01
-6.467467173933982849e-03 2.525537610054016113e-01 3.999103605747222900e-01
1.484867334365844727e-01 -3.233733773231506348e-01 -3.982608914375305176e-01
-2.466711401939392090e-01 9.695281088352203369e-02 -6.637673079967498779e-02
-3.903362154960632324e-01 2.591722011566162109e-01 -1.141787469387054443e-01
3.065671920776367188e-01 3.250004649162292480e-01 -3.208184540271759033e-01
-3.069126904010772705e-01 3.934158384799957275e-01 -6.164968013763427734e-02
-2.752446569502353668e-02 -3.806764483451843262e-01 3.657027184963226318e-01
-7.284338772296905518e-02 3.934158384799957275e-01 4.109098911285400391e-01
3.502749502658843994e-01 3.934158384799957275e-01 2.829864919185638428e-01
1.718758791685104370e-01 9.695281088352203369e-02 3.305219411849975586e-01
8.066327869892120361e-02 -4.959750175476074219e-01 -5.353964865207672119e-03
2.542065083980560303e-01 -4.959750175476074219e-01 -1.191517338156700134e-01
2.466115206480026245e-01 6.106823310256004333e-02 3.657027184963226318e-01
1.747645586729049683e-01 9.695281088352203369e-02 -3.595339655876159668e-01
3.736273944377899170e-01 2.916741073131561279e-01 1.747977137565612793e-01
8.294868469238281250e-02 3.934158384799957275e-01 1.255407780408859253e-01
-3.724690973758697510e-01 3.250004649162292480e-01 1.434367448091506958e-01
2.663139440119266510e-02 3.592081665992736816e-01 3.344956040382385254e-01
2.860905230045318604e-02 1.568158119916915894e-01 -7.661115378141403198e-02
-2.297631204128265381e-01 -4.775291085243225098e-01 -3.982608914375305176e-01
-2.649089097976684570e-01 -3.745406270027160645e-01 -3.982608914375305176e-01
-8.862809091806411743e-02 2.205379307270050049e-01 3.999103605747222900e-01
1.923536211252212524e-01 2.813731133937835693e-01 3.400473594665527344e-01
-7.123354822397232056e-02 3.250004649162292480e-01 1.338719427585601807e-01
-1.206253282725811005e-02 -5.398322939872741699e-01 -3.640532195568084717e-01
3.736273944377899170e-01 1.390824615955352783e-01 -3.905983408913016319e-03
-3.219365775585174561e-01 -5.730522051453590393e-02 -4.353074133396148682e-01
2.657918035984039307e-01 3.592081665992736816e-01 4.067502450197935104e-03
1.575015932321548462e-01 9.695281088352203369e-02 1.681683398783206940e-02
3.736273944377899170e-01 2.432390302419662476e-01 -1.981443166732788086e-01
1.941153258085250854e-01 3.380502164363861084e-01 -3.982608914375305176e-01
2.798793315887451172e-01 3.934158384799957275e-01 -3.983885347843170166e-01
1.499599218368530273e-01 -4.959750175476074219e-01 1.318575739860534668e-01
3.890718221664428711e-01 6.360280513763427734e-02 -4.552623033523559570e-01
-9.198695421218872070e-02 3.250004649162292480e-01 -2.708017528057098389e-01
2.711145281791687012e-01 -4.250163137912750244e-01 3.999103605747222900e-01
3.394205868244171143e-01 2.583695650100708008e-01 3.765863552689552307e-02
3.707596957683563232e-01 -7.884434461593627930e-01 3.657306730747222900e-01
3.505022823810577393e-01 -3.759220242500305176e-01 3.657420575618743896e-01
7.863141596317291260e-02 1.311604976654052734e-01 2.513811551034450531e-02
-2.357990853488445282e-02 3.934158384799957275e-01 -1.190861687064170837e-01
-1.359470561146736145e-02 -1.436999440193176270e-01 -3.640532195568084717e-01
3.394267261028289795e-01 -7.407007813453674316e-01 -4.336532354354858398e-01
3.547872006893157959e-01 -6.929310560226440430e-01 4.568864405155181885e-01
-1.934475302696228027e-01 9.695281088352203369e-02 3.171224892139434814e-01
-3.868836164474487305e-01 3.934158384799957275e-01 -1.229129508137702942e-01
-4.429958760738372803e-01 3.620941936969757080e-01 -2.948746085166931152e-01
-9.304616600275039673e-02 9.695281088352203369e-02 -2.686365880072116852e-02
-6.248115375638008118e-02 -5.301818251609802246e-01 -2.773388326168060303e-01
-3.261909186840057373e-01 1.568158119916915894e-01 -8.162505179643630981e-02
-9.817915409803390503e-02 3.934158384799957275e-01 -5.264006555080413818e-02
3.625448346138000488e-01 -4.966552257537841797e-01 6.895849853754043579e-02
-2.176392823457717896e-01 3.592081665992736816e-01 1.256435085088014603e-02
-3.792728781700134277e-01 -2.172487229108810425e-01 4.569039642810821533e-01
2.253958582878112793e-01 2.930580973625183105e-01 2.544084191322326660e-01
-3.258628770709037781e-02 -5.301818251609802246e-01 3.346337378025054932e-01
3.692165911197662354e-01 -2.894349992275238037e-01 3.657315671443939209e-01
-3.667555749416351318e-01 -5.026493668556213379e-01 -1.487020403146743774e-01
1.068221926689147949e-01 -1.605684682726860046e-02 -3.640532195568084717e-01
-3.797432482242584229e-01 3.934158384799957275e-01 3.954042792320251465e-01
1.211964860558509827e-01 3.934158384799957275e-01 1.926805377006530762e-01
-1.190327554941177368e-01 1.454123854637145996e-01 -2.172870188951492310e-01
3.677547574043273926e-01 1.207590028643608093e-01 -4.552640914916992188e-01
3.943831622600555420e-01 -5.643895268440246582e-01 -3.178659379482269287e-01
3.394205868244171143e-01 -2.129494547843933105e-01 3.676191568374633789e-01
2.431930154561996460e-01 1.311604976654052734e-01 -3.251610696315765381e-01
4.305990934371948242e-01 -4.502091705799102783e-01 -4.130216240882873535e-01
-2.127108722925186157e-01 3.592081665992736816e-01 -4.457613527774810791e-01
2.382952123880386353e-01 9.695281088352203369e-02 5.706405267119407654e-02
-3.561285436153411865e-01 2.286785095930099487e-01 -3.028779029846191406e-01
-2.000152319669723511e-01 3.981999587267637253e-03 3.657027184963226318e-01
3.463144004344940186e-01 -5.301818251609802246e-01 3.552811145782470703e-01
3.070620596408843994e-01 9.695281088352203369e-02 -3.466949462890625000e-01
-1.058614999055862427e-01 3.592081665992736816e-01 5.854274705052375793e-02
3.725948333740234375e-01 -3.402866423130035400e-01 -4.552317261695861816e-01
-3.903362154960632324e-01 1.865707039833068848e-01 -7.155938446521759033e-02
-2.540633082389831543e-01 3.592081665992736816e-01 -3.155455589294433594e-01
2.079423069953918457e-01 1.454123854637145996e-01 -2.151283621788024902e-01
-1.316470950841903687e-01 1.397845447063446045e-01 3.999103605747222900e-01
2.347071170806884766e-01 -5.301818251609802246e-01 2.283885031938552856e-01
-4.504903554916381836e-01 3.682850897312164307e-01 -3.897002339363098145e-02
-2.048152126371860504e-02 1.454123854637145996e-01 -2.508564591407775879e-01
3.182906210422515869e-01 3.250004649162292480e-01 -1.919411867856979370e-01
-3.219427168369293213e-01 -7.963909953832626343e-02 4.090275466442108154e-01
8.013869822025299072e-02 -5.301818251609802246e-01 5.055650323629379272e-02
4.259664274286478758e-04 1.568158119916915894e-01 2.169536054134368896e-01
-2.913493514060974121e-01 3.153823316097259521e-01 3.628524839878082275e-01
4.479303956031799316e-02 3.934158384799957275e-01 2.023528814315795898e-01
-2.837989330291748047e-01 1.568158119916915894e-01 1.551487892866134644e-01
2.475304156541824341e-01 3.592081665992736816e-01 -3.226990401744842529e-01
9.502969682216644287e-02 -2.053417861461639404e-01 3.999103605747222900e-01
-3.721464872360229492e-01 3.934158384799957275e-01 9.254477918148040771e-03
2.263173907995223999e-01 1.568158119916915894e-01 2.880547940731048584e-01
-2.136271297931671143e-01 -1.136880889534950256e-01 3.657027184963226318e-01
-1.190677359700202942e-01 -2.281057983636856079e-01 -3.982608914375305176e-01
5.178303271532058716e-02 -3.172882795333862305e-01 3.657027184963226318e-01
4.305990934371948242e-01 1.674166470766067505e-01 3.789430260658264160e-01
-3.736511468887329102e-01 -4.757158458232879639e-01 -4.552317261695861816e-01
-1.359818428754806519e-01 3.167585134506225586e-01 3.657027184963226318e-01
-1.259597986936569214e-01 9.695281088352203369e-02 -3.057429790496826172e-01
-6.540365517139434814e-02 2.588833309710025787e-02 3.999103605747222900e-01
3.736273944377899170e-01 2.603690922260284424e-01 -2.923763170838356018e-02
3.863273859024047852e-01 -5.643895268440246582e-01 -2.389721572399139404e-01
-2.480498850345611572e-01 9.695281088352203369e-02 1.107311025261878967e-01
3.394205868244171143e-01 3.478449285030364990e-01 3.955284357070922852e-01
-3.325479030609130859e-01 -5.245417356491088867e-01 -4.001699015498161316e-02
1.109070703387260437e-02 -9.158694410871248692e-06 3.999103605747222900e-01
3.389397263526916504e-01 3.934158384799957275e-01 4.089374840259552002e-01
-3.132933080196380615e-01 -2.031147778034210205e-01 -3.640532195568084717e-01
-2.201764732599258423e-01 1.568158119916915894e-01 2.646175622940063477e-01
-2.963975667953491211e-01 -3.822633028030395508e-01 3.657027184963226318e-01
-1.237714439630508423e-01 1.454123854637145996e-01 7.048772275447845459e-02
-2.404461354017257690e-01 -4.959750175476074219e-01 1.390092968940734863e-01
3.394424617290496826e-01 -5.049042105674743652e-01 -4.057046473026275635e-01
-1.764792054891586304e-01 -5.301818251609802246e-01 2.782648429274559021e-02
3.946797549724578857e-02 4.980642721056938171e-02 -3.640532195568084717e-01
2.691980600357055664e-01 1.311604976654052734e-01 -2.246494442224502563e-01
2.390033900737762451e-01 -4.913299083709716797e-01 -3.982608914375305176e-01
1.425572633743286133e-01 9.695281088352203369e-02 -7.992123067378997803e-02
1.053017973899841309e-01 -1.361848562955856323e-01 -3.640532195568084717e-01
-3.219226002693176270e-01 -7.283513545989990234e-01 4.453649818897247314e-01
-1.664492934942245483e-01 3.934158384799957275e-01 9.365261346101760864e-02
1.144512966275215149e-01 1.568158119916915894e-01 -3.404052853584289551e-01
-2.417977899312973022e-01 2.066331654787063599e-01 3.400473594665527344e-01
-1.031659636646509171e-02 -4.959750175476074219e-01 8.252318948507308960e-02
-3.005574643611907959e-01 1.454123854637145996e-01 -1.252980232238769531e-01
3.056719005107879639e-01 1.840116381645202637e-01 3.400473594665527344e-01
3.434965312480926514e-01 3.112775385379791260e-01 -4.533869624137878418e-01
6.478511542081832886e-02 -4.959750175476074219e-01 2.781918644905090332e-01
-3.631246387958526611e-01 2.907488262280821800e-03 3.657158315181732178e-01
-2.001918405294418335e-01 -4.959750175476074219e-01 -1.110024303197860718e-01
-3.013740479946136475e-01 1.638058125972747803e-01 3.628524839878082275e-01
3.836144506931304932e-01 3.592081665992736816e-01 -2.011483907699584961e-01
-3.219217360019683838e-01 4.475127160549163818e-02 3.731919229030609131e-01
-3.561285436153411865e-01 1.994534581899642944e-01 2.117506712675094604e-01
-3.325479030609130859e-01 -5.010555386543273926e-01 -2.932877540588378906e-01
3.394363224506378174e-01 -1.469146311283111572e-01 4.190705716609954834e-01
-1.890148520469665527e-01 3.592081665992736816e-01 -2.101431488990783691e-01
-3.506274521350860596e-01 -4.959750175476074219e-01 2.081232219934463501e-01
-1.639995127916336060e-01 3.592081665992736816e-01 -4.117849469184875488e-02
4.306261837482452393e-01 -3.320702910423278809e-02 4.090074300765991211e-01
-1.780363321304321289e-01 -4.642818272113800049e-01 3.999103605747222900e-01
-6.989587843418121338e-02 3.250004649162292480e-01 2.255155593156814575e-01
2.707866728305816650e-01 2.930301129817962646e-01 -3.640532195568084717e-01
-1.508772224187850952e-01 3.592081665992736816e-01 -3.957717716693878174e-01
-3.543509170413017273e-02 -3.566467389464378357e-02 -3.982608914375305176e-01
1.073196679353713989e-01 3.250004649162292480e-01 -3.400433063507080078e-01
-6.369730085134506226e-02 -4.657034277915954590e-01 3.999103605747222900e-01
-1.532188337296247482e-02 3.592081665992736816e-01 2.776961624622344971e-01
-1.417661756277084351e-01 -4.959750175476074219e-01 -2.609668076038360596e-01
6.333491951227188110e-02 1.171076577156782150e-02 -3.982608914375305176e-01
3.103353977203369141e-01 3.250004649162292480e-01 -2.393459342420101166e-02
1.645204275846481323e-01 -5.301818251609802246e-01 2.176058292388916016e-01
-3.984068334102630615e-01 3.592081665992736816e-01 -1.831615120172500610e-01
-3.512777388095855713e-02 -2.578091323375701904e-01 3.657027184963226318e-01
1.724251173436641693e-02 1.568158119916915894e-01 8.623736351728439331e-02
3.364357352256774902e-01 -5.301818251609802246e-01 2.347621172666549683e-01
1.477068662643432617e-01 3.934158384799957275e-01 4.360533133149147034e-02
1.462974995374679565e-01 1.311604976654052734e-01 -1.408386230468750000e-01
-2.183832973241806030e-01 1.454123854637145996e-01 -3.216446638107299805e-01
1.817877590656280518e-01 1.861580163240432739e-01 3.400473594665527344e-01
-4.304767027497291565e-02 3.592081665992736816e-01 -5.783828347921371460e-02
-2.800438404083251953e-01 9.695281088352203369e-02 -1.280870288610458374e-01
3.950834572315216064e-01 -4.959750175476074219e-01 -1.209466606378555298e-01
-2.016055732965469360e-01 2.352593243122100830e-01 -3.612021207809448242e-01
1.171913370490074158e-01 3.592081665992736816e-01 2.393652796745300293e-01
-1.876964122056961060e-01 4.600126761943101883e-03 -3.640532195568084717e-01
1.851870268583297729e-01 2.359683513641357422e-01 3.999103605747222900e-01
3.592749536037445068e-01 2.404675036668777466e-01 -3.640567064285278320e-01
-2.849915027618408203e-01 3.250004649162292480e-01 -2.876433134078979492e-01
1.185071468353271484e-01 9.695281088352203369e-02 3.251738548278808594e-01
1.935890018939971924e-01 9.695281088352203369e-02 -1.856165379285812378e-01
-3.521240502595901489e-02 2.945846319198608398e-01 3.400473594665527344e-01
3.394205868244171143e-01 2.275935411453247070e-01 1.787547618150711060e-01
1.419688612222671509e-01 3.934158384799957275e-01 -3.796454071998596191e-01
-6.254410371184349060e-03 1.947278827428817749e-01 -3.982608914375305176e-01
-3.609082996845245361e-01 -4.025801718235015869e-01 -4.552317261695861816e-01
-4.537837803363800049e-01 3.740659356117248535e-01 -4.341716766357421875e-01
3.954281285405158997e-02 2.523894011974334717e-01 -3.982608914375305176e-01
3.042677938938140869e-01 1.311604976654052734e-01 -1.705410629510879517e-01
1.412825435400009155e-01 2.542857527732849121e-01 -3.982608914375305176e-01
3.724715709686279297e-01 3.592081665992736816e-01 -4.322735965251922607e-01
-1.576005518436431885e-01 1.152622997760772705e-01 -3.982608914375305176e-01
2.796030640602111816e-01 3.250004649162292480e-01 -1.365607082843780518e-01
-2.856034934520721436e-01 3.592081665992736816e-01 4.269331097602844238e-01
-4.053749442100524902e-01 -5.017366409301757812e-01 -3.643242418766021729e-01
-1.655792817473411560e-02 3.107372224330902100e-01 3.999103605747222900e-01
4.306401908397674561e-01 3.652399182319641113e-01 4.191763699054718018e-01
3.987144231796264648e-01 -2.366447746753692627e-01 4.568864405155181885e-01
-2.414671517908573151e-02 1.568158119916915894e-01 3.369445204734802246e-01
3.583254814147949219e-01 3.592081665992736816e-01 -2.348074689507484436e-02
-4.007989168167114258e-01 -1.530682891607284546e-01 3.657210469245910645e-01
2.183481752872467041e-01 9.695281088352203369e-02 2.029806226491928101e-01
-2.124057412147521973e-01 1.311604976654052734e-01 2.404738683253526688e-03
3.394205868244171143e-01 3.448321223258972168e-01 -2.867261469364166260e-01
1.390530914068222046e-01 3.934158384799957275e-01 2.883258163928985596e-01
3.394205868244171143e-01 2.376820147037506104e-01 -1.273089200258255005e-01
-8.979641646146774292e-02 1.311604976654052734e-01 3.355998396873474121e-01
