2.222817540168762207e-01 -3.006718754768371582e-01 -1.070972457528114319e-01
4.229399859905242920e-01 5.339607596397399902e-01 3.598234951496124268e-01
4.545127451419830322e-01 7.663801908493041992e-01 -2.468697912991046906e-02
-1.758515983819961548e-01 -5.943898558616638184e-01 3.598234951496124268e-01
-4.834870994091033936e-01 5.111079216003417969e-01 3.463746905326843262e-01
2.961714565753936768e-01 4.962868392467498779e-01 -2.468697912991046906e-02
1.326415538787841797e-01 5.728920698165893555e-01 3.384615480899810791e-01
5.605874657630920410e-01 -4.626789689064025879e-01 -5.032147094607353210e-02
-1.042804494500160217e-01 7.717204093933105469e-01 -1.152551919221878052e-01
9.200738742947578430e-03 -3.006379902362823486e-01 -8.833162486553192139e-02
-5.416473150253295898e-01 4.183682501316070557e-01 2.645179629325866699e-01
-1.586750745773315430e-01 2.250656932592391968e-01 -1.830297261476516724e-01
2.894321084022521973e-01 7.019593119621276855e-01 -2.468697912991046906e-02
5.435286164283752441e-01 -4.066718220710754395e-01 4.016114398837089539e-02
9.411007910966873169e-02 4.320934787392616272e-02 -2.246696054935455322e-01
-2.037265300750732422e-01 -1.402832716703414917e-01 -3.140226006507873535e-01
1.343897283077239990e-01 3.209585845470428467e-01 -5.032147094607353210e-02
-2.813738584518432617e-01 -3.917680382728576660e-01 -3.921087086200714111e-01
4.879881739616394043e-01 -4.189349412918090820e-01 2.941819727420806885e-01
3.632659912109375000e-01 -3.448018729686737061e-01 -3.664745688438415527e-01
-5.375254526734352112e-02 -5.338850244879722595e-02 -2.717085778713226318e-01
4.879881739616394043e-01 -3.759487569332122803e-01 -2.123177498579025269e-01
5.204245448112487793e-01 -3.380465507507324219e-01 -1.518728584051132202e-01
1.106134578585624695e-01 -3.006379902362823486e-01 -1.714946180582046509e-01
-5.416473150253295898e-01 4.874692261219024658e-01 1.712598204612731934e-01
-4.585819542407989502e-01 -5.003917217254638672e-01 3.598234951496124268e-01
1.820978373289108276e-01 2.652735114097595215e-01 -2.468697912991046906e-02
4.598280489444732666e-01 -3.397179245948791504e-01 -3.664745688438415527e-01
-4.765104055404663086e-01 7.364081591367721558e-02 -2.468697912991046906e-02
-5.630092620849609375e-01 -4.669791162014007568e-01 3.418581783771514893e-01
4.879881739616394043e-01 -3.718241751194000244e-01 -4.975581541657447815e-02
2.270814776420593262e-01 -3.078061640262603760e-01 3.384615480899810791e-01
-1.191643029451370239e-01 -3.006718754768371582e-01 1.445077806711196899e-01
5.435286164283752441e-01 -6.542543172836303711e-01 3.398002684116363525e-02
4.196999669075012207e-01 -1.283243298530578613e-01 -3.081997036933898926e-01
3.445138335227966309e-01 -1.019342914223670959e-01 -2.953482270240783691e-01
-5.132966637611389160e-01 4.764068424701690674e-01 -5.032147094607353210e-02
-1.703208833932876587e-01 7.567249983549118042e-02 -2.088613063097000122e-01
-5.097554922103881836e-01 -3.006379902362823486e-01 -3.489370644092559814e-01
6.841551512479782104e-02 -5.865405797958374023e-01 3.363254666328430176e-01
5.648905634880065918e-01 -1.382758170366287231e-01 9.402975440025329590e-03
1.298738992772996426e-03 -3.168361783027648926e-01 3.363254666328430176e-01
2.761877179145812988e-01 -3.765640556812286377e-01 3.363254666328430176e-01
-5.117409825325012207e-01 -3.977993726730346680e-01 -3.278234601020812988e-01
-4.839707612991333008e-01 -5.634743571281433105e-01 -2.475802749395370483e-01
-5.630092620849609375e-01 -5.215292572975158691e-01 1.517288088798522949e-01
5.648905634880065918e-01 -3.294792175292968750e-01 7.784906029701232910e-02
-3.038507401943206787e-01 -3.027740418910980225e-01 -2.800854146480560303e-01
5.295482277870178223e-01 7.503584623336791992e-01 2.250710427761077881e-01
4.969733357429504395e-01 1.085791215300559998e-01 -2.468697912991046906e-02
5.444493517279624939e-02 -6.415175795555114746e-01 -4.268606603145599365e-01
3.930067420005798340e-01 7.292916774749755859e-01 3.384615480899810791e-01
-4.342871308326721191e-01 1.479961574077606201e-01 -5.032147094607353210e-02
5.435286164283752441e-01 -1.303377747535705566e-01 3.579018115997314453e-01
1.876537688076496124e-02 -1.273560076951980591e-01 -5.032147094607353210e-02
4.879881739616394043e-01 -4.539850652217864990e-01 1.575148105621337891e-01
3.052832782268524170e-01 5.354247093200683594e-01 -5.032147094607353210e-02
-1.870995014905929565e-01 7.478114962577819824e-01 3.598234951496124268e-01
-4.049581885337829590e-01 -6.364435553550720215e-01 -4.191888570785522461e-01
-2.008464783430099487e-01 -4.410278499126434326e-01 3.384615480899810791e-01
9.554570913314819336e-02 6.587687879800796509e-02 -2.468697912991046906e-02
-4.757305383682250977e-01 -3.006718754768371582e-01 1.627543270587921143e-01
-4.075320959091186523e-01 -3.006718754768371582e-01 3.318079411983489990e-01
3.681544661521911621e-01 3.937194347381591797e-01 -2.468697912991046906e-02
1.644625961780548096e-01 -3.006718754768371582e-01 1.602048054337501526e-02
3.299590647220611572e-01 5.898970365524291992e-01 3.384615480899810791e-01
2.658253610134124756e-01 3.147547245025634766e-01 -8.258721232414245605e-02
-8.514196425676345825e-02 -5.474560894072055817e-03 -2.483760714530944824e-01
9.635347872972488403e-02 -2.025850415229797363e-01 -2.468697912991046906e-02
-4.246325418353080750e-02 -5.675419792532920837e-02 -5.032147094607353210e-02
5.435286164283752441e-01 3.120492100715637207e-01 1.895502507686614990e-01
-5.074009895324707031e-01 -3.734656274318695068e-01 -3.877687156200408936e-01
-4.025717973709106445e-01 -2.033608853816986084e-01 -5.032147094607353210e-02
3.395535349845886230e-01 -3.746573328971862793e-01 3.598234951496124268e-01
-5.630092620849609375e-01 -4.024694263935089111e-01 2.584527432918548584e-01
3.839517831802368164e-01 7.717204093933105469e-01 1.259560585021972656e-01
-1.104922741651535034e-01 4.655149281024932861e-01 -1.528571546077728271e-01
9.887141734361648560e-02 -4.033769369125366211e-01 -3.664745688438415527e-01
-5.630092620849609375e-01 1.060242876410484314e-01 2.859736680984497070e-01
-3.758845627307891846e-01 -3.126855194568634033e-02 -9.660665690898895264e-02
-2.356662154197692871e-01 2.543447315692901611e-01 -1.528571546077728271e-01
4.576909542083740234e-01 -3.027740418910980225e-01 1.644985079765319824e-01
3.168712556362152100e-01 -4.738800227642059326e-01 3.363254666328430176e-01
-4.849450886249542236e-01 -5.954300165176391602e-01 1.335829794406890869e-01
-5.416473150253295898e-01 -9.082002192735671997e-02 8.429025113582611084e-02
1.024739593267440796e-01 -2.849423587322235107e-01 -3.844658434391021729e-01
-5.630092620849609375e-01 3.197050392627716064e-01 1.255661398172378540e-01
2.101652324199676514e-01 -2.287846058607101440e-01 -5.032147094607353210e-02
-3.303704261779785156e-01 -3.006718754768371582e-01 6.379989534616470337e-02
2.315790504217147827e-01 2.045903056859970093e-01 -1.896733492612838745e-01
-4.896251261234283447e-01 -6.210641264915466309e-01 -3.709502220153808594e-01
-5.125996470451354980e-01 -2.004259824752807617e-01 -2.468697912991046906e-02
3.016782402992248535e-01 -3.006718754768371582e-01 -2.692304253578186035e-01
-1.408942341804504395e-01 6.305825710296630859e-01 3.598234951496124268e-01
-2.020012885332107544e-01 -5.509888529777526855e-01 -3.921087086200714111e-01
3.100849986076354980e-01 -1.827458888292312622e-01 -5.032147094607353210e-02
5.460875034332275391e-01 3.616570532321929932e-01 -2.468697912991046906e-02
-1.048239469528198242e-01 -3.027740418910980225e-01 -8.943605236709117889e-03
-5.555908083915710449e-01 4.068531095981597900e-01 -5.032147094607353210e-02
-5.131012201309204102e-01 -3.031221032142639160e-01 -2.468697912991046906e-02
-5.305759310722351074e-01 7.717204093933105469e-01 2.900813221931457520e-01
5.648905634880065918e-01 -4.122304618358612061e-01 1.872007399797439575e-01
-5.630092620849609375e-01 7.305013537406921387e-01 2.806164622306823730e-01
-8.089051395654678345e-02 -3.006379902362823486e-01 -1.654762625694274902e-01
-2.557137906551361084e-01 -3.006030619144439697e-01 -2.544652521610260010e-01
3.363104760646820068e-01 7.424134016036987305e-01 3.384615480899810791e-01
-4.861068725585937500e-01 -4.093903005123138428e-01 8.977209031581878662e-02
-2.247451245784759521e-02 2.954261600971221924e-01 -1.528571546077728271e-01
-4.030883610248565674e-01 -4.222148656845092773e-01 3.384615480899810791e-01
-5.117409825325012207e-01 -4.996537566184997559e-01 -3.372683525085449219e-01
1.176589801907539368e-01 7.717204093933105469e-01 5.359629914164543152e-02
5.033118128776550293e-01 -6.637880206108093262e-01 -3.710898160934448242e-01
-5.042593926191329956e-02 -4.532520473003387451e-01 -3.664745688438415527e-01
3.854845464229583740e-01 -4.337778985500335693e-01 -3.921087086200714111e-01
1.775673478841781616e-01 1.503546386957168579e-01 -1.724938601255416870e-01
2.431799620389938354e-01 3.177085518836975098e-01 -2.468697912991046906e-02
4.412404298782348633e-01 5.335359573364257812e-01 -5.032147094607353210e-02
2.132347524166107178e-01 5.672078132629394531e-01 3.384615480899810791e-01
4.858520627021789551e-01 -5.835089683532714844e-01 -9.850440174341201782e-02
-1.355390399694442749e-01 -1.055911779403686523e-01 -5.032147094607353210e-02
4.879881739616394043e-01 -5.676687359809875488e-01 2.244751341640949249e-02
1.640935987234115601e-01 -8.378646522760391235e-02 -2.865106463432312012e-01
-1.073290258646011353e-01 -1.486730724573135376e-01 -5.032147094607353210e-02
5.435286164283752441e-01 3.189790546894073486e-01 3.232465982437133789e-01
-2.639440298080444336e-01 3.647624850273132324e-01 -1.262610703706741333e-01
2.535951435565948486e-01 -3.027740418910980225e-01 1.105566248297691345e-01
5.648905634880065918e-01 2.170498520135879517e-01 -1.376278139650821686e-02
5.435286164283752441e-01 7.294734939932823181e-03 2.438311725854873657e-01
-5.630092620849609375e-01 -9.190103411674499512e-02 -3.471828624606132507e-02
-1.430432796478271484e-01 6.464068293571472168e-01 -5.032147094607353210e-02
-4.134896099567413330e-01 -2.287177890539169312e-01 -3.570865392684936523e-01
4.909828901290893555e-01 7.717204093933105469e-01 1.770847141742706299e-01
6.012373417615890503e-02 -3.006379902362823486e-01 -4.248861074447631836e-01
3.296419382095336914e-01 -5.120605230331420898e-01 -3.921087086200714111e-01
-1.803471595048904419e-01 -5.788428187370300293e-01 -3.664745688438415527e-01
5.648905634880065918e-01 1.019264161586761475e-01 3.066953718662261963e-01
-7.104194164276123047e-02 -6.318443417549133301e-01 -4.054638147354125977e-01
-5.630092620849609375e-01 -2.489138022065162659e-02 7.026601582765579224e-02
2.458226531744003296e-01 5.664897561073303223e-01 -1.528571546077728271e-01
4.655125737190246582e-02 -3.027740418910980225e-01 2.183755636215209961e-01
-4.480859935283660889e-01 -1.744258701801300049e-01 -2.647109031677246094e-01
1.301168277859687805e-02 -3.006379902362823486e-01 -3.086324930191040039e-01
4.569759070873260498e-01 6.514897942543029785e-01 -5.032147094607353210e-02
3.341694176197052002e-01 -5.548271164298057556e-02 -2.468697912991046906e-02
-2.219740897417068481e-01 5.111079216003417969e-01 3.524588644504547119e-01
-1.785867288708686829e-02 1.946866810321807861e-01 -2.468697912991046906e-02
2.694932222366333008e-01 -3.027740418910980225e-01 -1.281819306313991547e-02
3.147032260894775391e-01 7.503584623336791992e-01 2.453928589820861816e-01
5.435286164283752441e-01 1.934431195259094238e-01 6.897658109664916992e-02
-7.077088952064514160e-02 -3.006718754768371582e-01 1.907339841127395630e-01
5.109606981277465820e-01 -4.851558506488800049e-01 3.598234951496124268e-01
-5.496332645416259766e-01 -3.201141357421875000e-01 -2.604068219661712646e-01
2.786927819252014160e-01 -5.852900147438049316e-01 -3.643394708633422852e-01
3.441677987575531006e-01 -5.870860815048217773e-01 3.384615480899810791e-01
-1.040500923991203308e-01 4.395517110824584961e-01 -2.468697912991046906e-02
3.322267830371856689e-01 5.902424454689025879e-02 -1.490117758512496948e-01
-1.137991324067115784e-01 2.250656932592391968e-01 -1.330870985984802246e-01
4.735922440886497498e-02 7.717204093933105469e-01 -4.575896635651588440e-02
1.842708289623260498e-01 -3.394705951213836670e-01 -3.664745688438415527e-01
-4.854745864868164062e-01 7.503584623336791992e-01 3.235368132591247559e-01
-1.676682084798812866e-01 -2.122034281492233276e-01 -3.490447700023651123e-01
1.202956959605216980e-01 -1.984135806560516357e-01 -3.423303365707397461e-01
-4.916116297245025635e-01 7.717204093933105469e-01 2.358582168817520142e-01
-1.854261159896850586e-01 -3.006718754768371582e-01 1.085721254348754883e-01
-3.040159866213798523e-02 5.460293889045715332e-01 3.598234951496124268e-01
-5.630092620849609375e-01 -2.143106162548065186e-01 3.079718351364135742e-01
5.648905634880065918e-01 -5.269024372100830078e-01 3.436053395271301270e-01
-5.117409825325012207e-01 -4.171109795570373535e-01 -1.527225226163864136e-01
-1.929762512445449829e-01 6.155441999435424805e-01 -2.468697912991046906e-02
-3.711097538471221924e-01 -3.006379902362823486e-01 -1.093394532799720764e-01
-3.802126049995422363e-01 -3.006030619144439697e-01 -3.352309763431549072e-01
-5.056578516960144043e-01 -2.885763347148895264e-01 -3.012070357799530029e-01
1.008145436644554138e-01 7.503584623336791992e-01 1.574848890304565430e-01
2.381139695644378662e-01 -3.972897827625274658e-01 3.598234951496124268e-01
-5.416473150253295898e-01 -1.292647272348403931e-01 3.010090887546539307e-01
-2.639440298080444336e-01 4.678086042404174805e-01 -9.930319339036941528e-02
-5.464510917663574219e-01 -2.464597523212432861e-01 -5.032147094607353210e-02
1.282476931810379028e-01 5.999253392219543457e-01 -2.468697912991046906e-02
-1.852785348892211914e-01 -3.931781351566314697e-01 -3.643394708633422852e-01
-3.472806513309478760e-01 -4.191583096981048584e-01 -3.921087086200714111e-01
-1.390632987022399902e-01 -3.420175611972808838e-01 -3.969583213329315186e-01
-1.041196100413799286e-02 -6.027247905731201172e-01 -3.921087086200714111e-01
-6.168451160192489624e-02 2.102785706520080566e-01 -1.948829591274261475e-01
5.435286164283752441e-01 -3.605014681816101074e-01 1.973057985305786133e-01
2.660537362098693848e-01 -3.406333923339843750e-01 -3.921087086200714111e-01
5.435286164283752441e-01 -3.182074129581451416e-01 -2.329133823513984680e-02
1.107181608676910400e-01 4.200296700000762939e-01 -5.032147094607353210e-02
-2.331471890211105347e-01 7.503584623336791992e-01 3.018298149108886719e-01
1.790751963853836060e-01 1.239485293626785278e-01 -5.032147094607353210e-02
-5.630092620849609375e-01 -2.842403054237365723e-01 -6.891677621752023697e-03
-3.023189604282379150e-01 1.592037677764892578e-01 -2.468697912991046906e-02
-2.790303528308868408e-01 -3.027740418910980225e-01 8.724907040596008301e-02
4.549477994441986084e-02 -4.927518367767333984e-01 3.384615480899810791e-01
-4.861068725585937500e-01 -6.362082362174987793e-01 3.826069459319114685e-02
3.184648454189300537e-01 7.503584623336791992e-01 -9.905357001116499305e-05
-3.438561260700225830e-01 7.225962281227111816e-01 -5.032147094607353210e-02
-9.888137131929397583e-02 7.569452524185180664e-01 3.598234951496124268e-01
-4.249609112739562988e-01 -6.210641264915466309e-01 -3.688111305236816406e-01
-4.832058846950531006e-01 -3.006379902362823486e-01 -1.390994787216186523e-01
1.300227940082550049e-01 1.491322219371795654e-01 -2.468697912991046906e-02
-7.429685443639755249e-03 7.503584623336791992e-01 6.295821815729141235e-02
-4.228617250919342041e-01 5.699881315231323242e-01 3.384615480899810791e-01
-2.300278097391128540e-01 8.552558720111846924e-03 -2.415459454059600830e-01
5.648905634880065918e-01 4.424915909767150879e-01 6.045258603990077972e-03
-1.692298948764801025e-01 -3.006379902362823486e-01 -2.537142932415008545e-01
-5.630092620849609375e-01 -6.215428113937377930e-01 2.405472546815872192e-01
9.248756617307662964e-02 -6.128538250923156738e-01 -3.664745688438415527e-01
-5.416473150253295898e-01 -6.072164177894592285e-01 3.359774053096771240e-01
3.731596171855926514e-01 5.564315915107727051e-01 -2.468697912991046906e-02
-1.243280246853828430e-01 -3.006379902362823486e-01 -2.909763157367706299e-01
-6.239065900444984436e-02 6.096175909042358398e-01 3.384615480899810791e-01
1.372976750135421753e-01 -6.637880206108093262e-01 -3.827097117900848389e-01
1.591423004865646362e-01 -3.006718754768371582e-01 2.377111166715621948e-01
-5.416473150253295898e-01 4.666657447814941406e-01 2.924308180809020996e-01
-4.719689488410949707e-01 7.682639360427856445e-01 -2.468697912991046906e-02
-4.861068725585937500e-01 -4.371744990348815918e-01 3.101009726524353027e-01
2.248566299676895142e-01 -5.421532988548278809e-01 3.384615480899810791e-01
4.879881739616394043e-01 -5.670703649520874023e-01 3.103941679000854492e-01
5.648905634880065918e-01 5.881868004798889160e-01 2.984067052602767944e-02
2.968455851078033447e-01 -5.839377641677856445e-01 3.598234951496124268e-01
-2.623571455478668213e-02 -2.743386626243591309e-01 -5.032147094607353210e-02
2.788267098367214203e-02 4.931844472885131836e-01 -2.468697912991046906e-02
-6.600875407457351685e-02 7.503584623336791992e-01 2.592265903949737549e-01
-5.416473150253295898e-01 3.956271409988403320e-01 1.416167616844177246e-01
-2.020010165870189667e-02 -4.241545200347900391e-01 -3.921087086200714111e-01
7.585983723402023315e-02 -3.006718754768371582e-01 8.867355063557624817e-03
3.199111297726631165e-02 7.503584623336791992e-01 1.201680675148963928e-01
5.648905634880065918e-01 3.705833852291107178e-01 1.627742797136306763e-01
2.420522738248109818e-03 7.359582781791687012e-01 -1.528571546077728271e-01
3.638872504234313965e-01 -4.933950603008270264e-01 3.384615480899810791e-01
-3.280996680259704590e-01 -5.102644562721252441e-01 -3.921087086200714111e-01
5.435286164283752441e-01 2.161335013806819916e-02 5.588098242878913879e-02
-4.043508768081665039e-01 -3.006718754768371582e-01 2.489081621170043945e-01
-1.271931082010269165e-01 7.717204093933105469e-01 1.403343081474304199e-01
-4.861068725585937500e-01 -3.574110269546508789e-01 -2.941256165504455566e-01
-4.839707612991333008e-01 -3.467783927917480469e-01 -1.853213906288146973e-01
1.686470210552215576e-01 -1.307436376810073853e-01 -5.032147094607353210e-02
-4.180659651756286621e-01 -3.006030619144439697e-01 -1.670060306787490845e-01
-5.416473150253295898e-01 1.845427155494689941e-01 3.349981307983398438e-01
-1.000408735126256943e-02 6.673210263252258301e-01 3.384615480899810791e-01
-1.307602375745773315e-01 7.503584623336791992e-01 -2.198544889688491821e-02
4.277008473873138428e-01 -4.640242755413055420e-01 3.363254666328430176e-01
-4.177218973636627197e-01 -1.142213121056556702e-01 -1.923898458480834961e-01
-5.569220781326293945e-01 9.440321475267410278e-02 -5.032147094607353210e-02
4.879881739616394043e-01 -3.895351886749267578e-01 -2.756127715110778809e-01
-3.374797403812408447e-01 4.487892240285873413e-02 -1.353121548891067505e-01
9.492712467908859253e-02 -5.057788491249084473e-01 -3.643394708633422852e-01
-3.853930532932281494e-02 -3.027740418910980225e-01 7.915046066045761108e-02
-5.416473150253295898e-01 5.930204391479492188e-01 9.171772003173828125e-02
-2.400700449943542480e-01 6.423146463930606842e-03 -5.032147094607353210e-02
-5.276988744735717773e-01 7.717204093933105469e-01 9.098074585199356079e-02
4.893254637718200684e-01 -3.266590237617492676e-01 -3.921087086200714111e-01
1.521665751934051514e-01 -4.454795718193054199e-01 3.363254666328430176e-01
3.636319637298583984e-01 -3.245125524699687958e-03 -5.447921529412269592e-02
-3.131619989871978760e-01 3.861712813377380371e-01 -2.468697912991046906e-02
1.468452960252761841e-01 -3.594083711504936218e-02 -5.032147094607353210e-02
4.879881739616394043e-01 -3.092721104621887207e-01 2.784893512725830078e-01
-2.342910170555114746e-01 7.717204093933105469e-01 -8.029495179653167725e-02
-3.412842452526092529e-01 -2.043899521231651306e-02 -5.032147094607353210e-02
-1.028374433517456055e-01 -3.027740418910980225e-01 -2.336717098951339722e-01
-5.417948961257934570e-01 5.486939549446105957e-01 -2.468697912991046906e-02
-2.736322581768035889e-01 -3.027740418910980225e-01 2.147445976734161377e-01
-7.170061767101287842e-02 5.675798058509826660e-01 -2.468697912991046906e-02
-5.630092620849609375e-01 1.233555674552917480e-01 1.349681466817855835e-01
4.879881739616394043e-01 -3.159007728099822998e-01 1.043198630213737488e-01
3.730090260505676270e-01 -3.006718754768371582e-01 8.514788001775741577e-02
2.818320989608764648e-01 1.936375796794891357e-01 -1.556065529584884644e-01
-5.630092620849609375e-01 -2.166481465101242065e-01 1.764604449272155762e-01
5.648905634880065918e-01 5.826889872550964355e-01 2.259087413549423218e-01
5.585570931434631348e-01 -6.463629193603992462e-03 3.598234951496124268e-01
2.293641716241836548e-01 6.703197360038757324e-01 3.598234951496124268e-01
-1.505794525146484375e-01 1.823417991399765015e-01 -1.324484646320343018e-01
5.648905634880065918e-01 -1.046497747302055359e-01 2.066539674997329712e-01
5.648905634880065918e-01 -5.036836266517639160e-01 2.773844301700592041e-01
5.575518608093261719e-01 3.078368604183197021e-01 -2.468697912991046906e-02
-4.839707612991333008e-01 -5.478315353393554688e-01 -1.648080945014953613e-01
-3.359988331794738770e-01 1.238028407096862793e-01 -5.032147094607353210e-02
-4.839707612991333008e-01 -5.676218867301940918e-01 -7.337249070405960083e-02
1.091768150217831135e-03 -3.006030619144439697e-01 -1.436216682195663452e-01
-4.654357209801673889e-02 -2.152151316404342651e-01 -5.032147094607353210e-02
-5.117409825325012207e-01 -3.606410622596740723e-01 -8.320908993482589722e-02
2.096257358789443970e-01 2.456926703453063965e-01 -1.528571546077728271e-01
-5.083812475204467773e-01 -6.210641264915466309e-01 -1.481212377548217773e-01
-3.023787736892700195e-01 -3.027740418910980225e-01 -2.593522891402244568e-02
3.825696110725402832e-01 -3.006718754768371582e-01 1.734537333250045776e-01
-4.379070997238159180e-01 -5.417334437370300293e-01 -3.664745688438415527e-01
-1.123132407665252686e-01 -4.685716927051544189e-01 3.384615480899810791e-01
-4.360260441899299622e-02 -4.211667478084564209e-01 3.598234951496124268e-01
2.712922394275665283e-01 -4.669023156166076660e-01 -3.643394708633422852e-01
1.203315854072570801e-01 6.884256601333618164e-01 -2.468697912991046906e-02
5.648905634880065918e-01 6.280815005302429199e-01 1.324899941682815552e-01
2.004959583282470703e-01 7.691315412521362305e-01 -2.468697912991046906e-02
-2.832725942134857178e-01 5.297695100307464600e-02 -2.199127525091171265e-01
3.942911922931671143e-01 1.782740503549575806e-01 -2.468697912991046906e-02
-5.357984900474548340e-01 3.574786186218261719e-01 -5.032147094607353210e-02
6.285399198532104492e-02 -3.027740418910980225e-01 -2.167455255985260010e-01
-3.822998404502868652e-01 2.025080621242523193e-01 -5.032147094607353210e-02
1.831938028335571289e-01 6.690482497215270996e-01 -5.032147094607353210e-02
5.648905634880065918e-01 -6.530905365943908691e-01 1.115877851843833923e-01
-1.746469140052795410e-01 -2.173701673746109009e-01 -5.032147094607353210e-02
6.975241750478744507e-02 7.229163646697998047e-01 3.384615480899810791e-01
3.678612709045410156e-01 -3.027740418910980225e-01 2.289423346519470215e-01
5.435286164283752441e-01 6.620355844497680664e-01 8.012276887893676758e-02
3.918808698654174805e-01 -3.006030619144439697e-01 -2.602951228618621826e-01
-1.279789358377456665e-01 -6.210641264915466309e-01 -3.722017407417297363e-01
-3.447566330432891846e-01 3.045052103698253632e-02 -6.482601165771484375e-02
-2.496266216039657593e-01 1.034491136670112610e-01 -1.953357011079788208e-01
-4.803936481475830078e-01 -2.384837865829467773e-01 -2.851972877979278564e-01
5.459801107645034790e-02 -3.359184265136718750e-01 3.384615480899810791e-01
2.657844722270965576e-01 5.645950436592102051e-01 -5.032147094607353210e-02
-4.174506664276123047e-01 7.503584623336791992e-01 8.390730619430541992e-02
-2.586815953254699707e-01 -3.008453845977783203e-01 3.363254666328430176e-01
1.015824228525161743e-01 7.526750564575195312e-01 -5.032147094607353210e-02
-2.793504595756530762e-01 -4.394551813602447510e-01 -3.643394708633422852e-01
2.627259194850921631e-01 -1.510465145111083984e-01 -3.192641139030456543e-01
1.332272309809923172e-02 6.845942735671997070e-01 -2.468697912991046906e-02
5.602753162384033203e-01 -5.892600417137145996e-01 -5.032147094607353210e-02
7.558469474315643311e-02 6.576497554779052734e-01 -2.468697912991046906e-02
1.149255335330963135e-01 1.862769275903701782e-01 -1.590839177370071411e-01
-2.301654368638992310e-01 -5.406444668769836426e-01 3.384615480899810791e-01
1.592958718538284302e-01 -3.586595654487609863e-01 3.384615480899810791e-01
4.963391125202178955e-01 -3.006379902362823486e-01 -1.788083910942077637e-01
5.648905634880065918e-01 3.216596543788909912e-01 3.063946589827537537e-02
-2.900329232215881348e-01 5.695443153381347656e-01 -2.468697912991046906e-02
-3.358702063560485840e-01 5.521245002746582031e-01 3.598234951496124268e-01
3.689363002777099609e-01 -6.637880206108093262e-01 -3.885415792465209961e-01
-2.150808461010456085e-02 6.353763341903686523e-01 -2.468697912991046906e-02
1.275187283754348755e-01 -3.027740418910980225e-01 2.799991667270660400e-01
6.008633971214294434e-02 -9.347866475582122803e-02 -2.912305891513824463e-01
7.018911093473434448e-02 4.593459963798522949e-01 -5.032147094607353210e-02
-5.061016082763671875e-01 6.102338433265686035e-01 3.384615480899810791e-01
4.532023370265960693e-01 -3.027740418910980225e-01 -2.657550275325775146e-01
-5.044112205505371094e-01 -6.637880206108093262e-01 -3.712194561958312988e-01
5.648905634880065918e-01 9.568198770284652710e-02 -1.545240916311740875e-02
-4.861068725585937500e-01 -3.251681625843048096e-01 1.244037877768278122e-02
3.643080890178680420e-01 -2.854539453983306885e-01 -5.032147094607353210e-02
5.121045112609863281e-01 -6.045248508453369141e-01 -3.905909061431884766e-01
2.092547416687011719e-01 -5.000586509704589844e-01 -3.643394708633422852e-01
-1.970878839492797852e-01 -6.637880206108093262e-01 -4.266003668308258057e-01
3.939122557640075684e-01 -3.006379902362823486e-01 -1.733614653348922729e-01
-4.795267805457115173e-02 3.275673091411590576e-01 -5.032147094607353210e-02
5.648905634880065918e-01 -3.005900979042053223e-01 1.628215983510017395e-02
-4.839707612991333008e-01 -3.519411385059356689e-01 9.363739937543869019e-02
-2.052629739046096802e-02 -3.006379902362823486e-01 -3.857104182243347168e-01
-4.861068725585937500e-01 -3.499895334243774414e-01 3.206338584423065186e-01
4.983627796173095703e-02 1.102558895945549011e-01 -5.032147094607353210e-02
5.648905634880065918e-01 3.514114022254943848e-01 2.395958751440048218e-01
-5.416473150253295898e-01 4.380937516689300537e-01 -1.114451885223388672e-02
-4.839707612991333008e-01 -4.931138455867767334e-01 2.884897291660308838e-01
-2.507884204387664795e-01 -3.006379902362823486e-01 -4.408389925956726074e-01
4.879881739616394043e-01 -4.775259792804718018e-01 -6.198157742619514465e-02
-4.600678384304046631e-01 -2.000211030244827271e-01 -3.431122004985809326e-01
1.324799954891204834e-01 5.578277111053466797e-01 -1.528571546077728271e-01
-1.620397716760635376e-01 -3.027740418910980225e-01 2.550720870494842529e-01
-5.416473150253295898e-01 3.123524785041809082e-02 2.913069128990173340e-01
5.583768337965011597e-02 6.614472866058349609e-01 3.384615480899810791e-01
-4.508433640003204346e-01 -3.006379902362823486e-01 -2.617371380329132080e-01
3.417756408452987671e-02 7.717204093933105469e-01 3.399494290351867676e-01
2.185291200876235962e-01 7.025396823883056641e-01 -1.528571546077728271e-01
2.518350481986999512e-01 -6.636095046997070312e-01 -3.664745688438415527e-01
5.648905634880065918e-01 5.146161913871765137e-01 3.949667513370513916e-02
-1.337928622961044312e-01 -3.014896214008331299e-01 3.363254666328430176e-01
-2.857976257801055908e-01 1.473498344421386719e-01 -9.413199126720428467e-02
-1.173273846507072449e-01 3.188345953822135925e-02 -2.468697912991046906e-02
5.648905634880065918e-01 4.195649623870849609e-01 3.441149294376373291e-01
3.930937871336936951e-02 2.629499733448028564e-01 -5.032147094607353210e-02
-3.365473449230194092e-01 -3.098664581775665283e-01 3.363254666328430176e-01
4.879881739616394043e-01 -4.899396002292633057e-01 2.355380952358245850e-01
4.584161937236785889e-02 -2.812246382236480713e-01 -5.032147094607353210e-02
-3.141691982746124268e-01 -3.006030619144439697e-01 -1.715095639228820801e-01
3.371920585632324219e-01 4.736793637275695801e-01 -2.468697912991046906e-02
-5.416473150253295898e-01 -3.755229413509368896e-01 1.301075816154479980e-01
-5.117409825325012207e-01 -5.989592075347900391e-01 -2.618827521800994873e-01
-5.630092620849609375e-01 -5.233134031295776367e-01 2.472836524248123169e-01
-2.917142510414123535e-01 -4.322202205657958984e-01 3.384615480899810791e-01
1.515881717205047607e-01 -8.279918879270553589e-02 -5.032147094607353210e-02
5.789988487958908081e-02 7.717204093933105469e-01 2.265808880329132080e-01
3.187570273876190186e-01 7.503584623336791992e-01 5.072992295026779175e-02
-5.416473150253295898e-01 -1.125878393650054932e-01 3.836351260542869568e-02
-3.706240952014923096e-01 -1.585966348648071289e-01 -2.468697912991046906e-02
-5.416473150253295898e-01 -6.127620935440063477e-01 2.854710519313812256e-01
-2.260208874940872192e-01 7.151737213134765625e-01 3.598234951496124268e-01
3.828139603137969971e-01 -4.127868264913558960e-02 -1.250408440828323364e-01
4.930611550807952881e-01 -6.637880206108093262e-01 3.429591357707977295e-01
-5.190986394882202148e-01 -6.637880206108093262e-01 2.547011077404022217e-01
5.435286164283752441e-01 5.402543544769287109e-01 1.092861518263816833e-01
-5.268951058387756348e-01 -3.006379902362823486e-01 -9.876886755228042603e-02
3.848006948828697205e-02 5.818612575531005859e-01 3.384615480899810791e-01
-5.416473150253295898e-01 2.307760342955589294e-02 2.157867103815078735e-01
5.435286164283752441e-01 -1.088392063975334167e-01 1.328051239252090454e-01
2.989816963672637939e-01 1.249405890703201294e-01 -7.415740936994552612e-02
-4.805412590503692627e-01 -2.865568995475769043e-01 -3.852517008781433105e-01
2.257431596517562866e-01 7.681075483560562134e-02 -2.468697912991046906e-02
-2.154192030429840088e-01 7.503584623336791992e-01 1.449764817953109741e-01
-3.260304033756256104e-01 -3.027740418910980225e-01 -3.261610269546508789e-01
5.435286164283752441e-01 1.943007558584213257e-01 1.647737473249435425e-01
-4.906871914863586426e-01 -6.637880206108093262e-01 1.451041251420974731e-01
-3.948242366313934326e-01 7.503584623336791992e-01 2.503990232944488525e-01
4.557672441005706787e-01 -3.027740418910980225e-01 -1.900702714920043945e-01
5.648905634880065918e-01 5.363411307334899902e-01 -1.075709052383899689e-02
1.109944060444831848e-01 -3.006718754768371582e-01 -3.295187652111053467e-01
-5.630092620849609375e-01 -6.069172620773315430e-01 8.825429528951644897e-02
-7.308090478181838989e-02 -5.344176888465881348e-01 -3.921087086200714111e-01
2.229668349027633667e-01 -3.027740418910980225e-01 -2.826872169971466064e-01
1.635132133960723877e-01 3.219727873802185059e-01 -1.528571546077728271e-01
-4.839707612991333008e-01 -5.422161221504211426e-01 -2.267125248908996582e-02
-3.578761219978332520e-02 -1.272273659706115723e-01 -3.076651692390441895e-01
-6.249977275729179382e-03 7.503584623336791992e-01 1.570899784564971924e-01
5.648905634880065918e-01 3.346319124102592468e-02 1.734627187252044678e-01
-2.990061044692993164e-01 -2.331525236368179321e-01 -2.468697912991046906e-02
4.090184867382049561e-01 6.754156351089477539e-01 -2.468697912991046906e-02
5.648905634880065918e-01 5.393413454294204712e-02 -4.266878217458724976e-02
-5.630092620849609375e-01 -2.227870188653469086e-02 1.816361248493194580e-01
-5.416473150253295898e-01 -3.040834367275238037e-01 3.025229275226593018e-01
-2.509699165821075439e-01 1.823417991399765015e-01 -1.274012327194213867e-01
-5.630092620849609375e-01 6.065331101417541504e-01 1.078730274457484484e-04
5.648905634880065918e-01 -3.129469454288482666e-01 2.633442282676696777e-01
1.236217934638261795e-02 -4.953105933964252472e-03 -5.032147094607353210e-02
5.058438181877136230e-01 -4.324037134647369385e-01 3.384615480899810791e-01
-4.567826399579644203e-04 2.193255573511123657e-01 -1.272235959768295288e-01
9.078009426593780518e-02 -4.189826548099517822e-02 -5.032147094607353210e-02
-2.190022915601730347e-01 -3.490420430898666382e-02 -2.627074420452117920e-01
3.145735859870910645e-01 6.574144363403320312e-01 -2.468697912991046906e-02
-1.967518031597137451e-01 1.928397864103317261e-01 -1.656527668237686157e-01
-2.296398729085922241e-01 -3.006718754768371582e-01 8.385844528675079346e-02
4.127025976777076721e-02 -3.027740418910980225e-01 1.691725850105285645e-01
5.136222839355468750e-01 -5.033944845199584961e-01 -3.731311857700347900e-01
-2.747940421104431152e-01 -1.234149038791656494e-01 -5.032147094607353210e-02
1.188905760645866394e-01 3.621666431427001953e-01 -5.032147094607353210e-02
-5.594600439071655273e-01 1.368670165538787842e-01 -2.468697912991046906e-02
4.234894812107086182e-01 3.170335665345191956e-02 -5.032147094607353210e-02
-5.227555632591247559e-01 -5.954300165176391602e-01 4.837992042303085327e-02
5.280464291572570801e-01 -6.637880206108093262e-01 2.380541414022445679e-01
1.738526225090026855e-01 5.465080738067626953e-01 3.598234951496124268e-01
5.648905634880065918e-01 6.780045032501220703e-01 -7.603609003126621246e-03
-1.477133780717849731e-01 2.439494878053665161e-01 -5.032147094607353210e-02
-4.678852260112762451e-01 2.916625738143920898e-01 -2.468697912991046906e-02
5.435286164283752441e-01 -2.822487950325012207e-01 1.109954118728637695e-01
-3.368085920810699463e-01 -2.839162051677703857e-01 -3.839662373065948486e-01
2.035585045814514160e-01 1.780456900596618652e-01 -5.032147094607353210e-02
2.658253610134124756e-01 7.609422206878662109e-01 -9.666897356510162354e-02
2.720581293106079102e-01 2.250656932592391968e-01 -1.189843863248825073e-01
-4.861068725585937500e-01 -6.255238056182861328e-01 3.293497264385223389e-01
-1.783905774354934692e-01 3.622574210166931152e-01 -1.528571546077728271e-01
3.509789407253265381e-01 7.503584623336791992e-01 2.785930633544921875e-01
4.340921640396118164e-01 -3.133069276809692383e-01 -3.921087086200714111e-01
4.280030131340026855e-01 2.795690000057220459e-01 -2.468697912991046906e-02
-5.153580307960510254e-01 7.503584623336791992e-01 1.394218206405639648e-01
5.435286164283752441e-01 2.583257555961608887e-01 1.164573132991790771e-01
3.510577082633972168e-01 -3.081621825695037842e-01 -3.921087086200714111e-01
-2.409655749797821045e-01 -3.454959392547607422e-01 -3.664745688438415527e-01
5.435286164283752441e-01 6.773532629013061523e-01 3.227729201316833496e-01
5.901320651173591614e-02 7.503584623336791992e-01 6.322149187326431274e-02
-8.025008440017700195e-02 -5.672488808631896973e-01 3.384615480899810791e-01
8.099033497273921967e-03 -7.975759357213973999e-02 -5.032147094607353210e-02
5.435286164283752441e-01 1.309472918510437012e-01 2.738421857357025146e-01
4.879881739616394043e-01 -5.649024248123168945e-01 -3.168378174304962158e-01
5.340638160705566406e-01 -6.388140916824340820e-01 -4.232257008552551270e-01
4.078277647495269775e-01 7.503584623336791992e-01 3.540439531207084656e-02
4.879881739616394043e-01 -4.026230275630950928e-01 -1.712981462478637695e-01
-1.100342534482479095e-02 4.517310559749603271e-01 -5.032147094607353210e-02
-5.416473150253295898e-01 6.029250621795654297e-01 4.405009374022483826e-02
4.541267752647399902e-01 -1.085370406508445740e-01 -5.032147094607353210e-02
-4.861068725585937500e-01 -5.655336380004882812e-01 2.048609256744384766e-01
5.645046234130859375e-01 2.219183892011642456e-01 3.598234951496124268e-01
3.841522634029388428e-01 7.503584623336791992e-01 2.381319552659988403e-01
1.973865628242492676e-01 3.598769605159759521e-01 -2.468697912991046906e-02
-5.416473150253295898e-01 2.542150914669036865e-01 1.145406141877174377e-01
-3.033588081598281860e-02 5.399196967482566833e-02 -5.032147094607353210e-02
-4.113884270191192627e-01 -1.016650423407554626e-01 -2.925300300121307373e-01
4.601411521434783936e-01 4.381785094738006592e-01 -2.468697912991046906e-02
-5.630092620849609375e-01 2.485288232564926147e-01 2.072832137346267700e-01
5.648905634880065918e-01 4.271599650382995605e-01 2.784604430198669434e-01
3.181689232587814331e-02 3.867576718330383301e-01 -5.032147094607353210e-02
2.060306817293167114e-01 -4.260413050651550293e-01 3.384615480899810791e-01
6.056611239910125732e-02 7.717204093933105469e-01 -9.239968657493591309e-02
-4.675731062889099121e-01 3.750799596309661865e-01 -5.032147094607353210e-02
-4.644646942615509033e-01 -2.069010883569717407e-01 -7.125354558229446411e-02
2.447257041931152344e-01 6.788023114204406738e-01 -5.032147094607353210e-02
5.648905634880065918e-01 -4.653147459030151367e-01 1.243345364928245544e-01
2.463033348321914673e-01 -4.229787588119506836e-01 -3.643394708633422852e-01
-5.630092620849609375e-01 -1.650099158287048340e-01 -2.713825786486268044e-03
5.159777998924255371e-01 -6.210641264915466309e-01 -3.066330254077911377e-01
3.111899495124816895e-01 -2.757597267627716064e-01 -2.468697912991046906e-02
-3.279979825019836426e-01 7.068397402763366699e-01 3.384615480899810791e-01
1.789076626300811768e-01 -4.692109227180480957e-01 -3.921087086200714111e-01
3.069227635860443115e-01 -1.022503152489662170e-02 -5.032147094607353210e-02
5.435286164283752441e-01 -7.712287455797195435e-02 2.698067761957645416e-02
-2.319395244121551514e-01 5.552927255630493164e-01 -2.468697912991046906e-02
1.709646135568618774e-01 -3.006379902362823486e-01 -3.678876757621765137e-01
5.759701132774353027e-03 -3.006718754768371582e-01 3.539402410387992859e-02
-4.560569226741790771e-01 5.904595255851745605e-01 -5.032147094607353210e-02
-5.416473150253295898e-01 -2.833527624607086182e-01 3.607783094048500061e-02
5.201113820075988770e-01 7.717204093933105469e-01 3.164982497692108154e-01
4.879881739616394043e-01 -3.983358740806579590e-01 1.787939816713333130e-01
2.954843640327453613e-01 -3.006718754768371582e-01 -3.452053666114807129e-01
-3.721319735050201416e-01 2.416687905788421631e-01 -2.468697912991046906e-02
2.502783238887786865e-01 7.503584623336791992e-01 1.981415003538131714e-01
-7.265518605709075928e-02 6.449907422065734863e-01 -1.528571546077728271e-01
-3.816037774085998535e-01 7.717204093933105469e-01 3.314678966999053955e-01
2.722176909446716309e-01 6.581664085388183594e-02 -2.468697912991046906e-02
3.781029582023620605e-01 -4.809215664863586426e-01 -3.921087086200714111e-01
-2.639440298080444336e-01 7.344275116920471191e-01 -7.838752120733261108e-02
-4.399491846561431885e-02 -3.006379902362823486e-01 -7.830793410539627075e-02
5.435026884078979492e-01 7.503584623336791992e-01 6.146634370088577271e-02
-1.846233308315277100e-01 -3.404150009155273438e-01 3.363254666328430176e-01
1.406424343585968018e-01 5.596786141395568848e-01 -5.032147094607353210e-02
1.758760362863540649e-01 5.035108923912048340e-01 -5.032147094607353210e-02
-5.630092620849609375e-01 7.211112976074218750e-01 -1.462938543409109116e-02
5.001475214958190918e-01 5.856149196624755859e-01 3.384615480899810791e-01
-4.652445316314697266e-01 2.740144915878772736e-02 -2.468697912991046906e-02
3.770259618759155273e-01 2.720807194709777832e-01 -2.468697912991046906e-02
1.207195147871971130e-01 -3.309561610221862793e-01 3.363254666328430176e-01
4.473744630813598633e-01 -3.640167415142059326e-01 3.363254666328430176e-01
-2.244751751422882080e-01 -3.006379902362823486e-01 -6.207112967967987061e-02
-5.630092620849609375e-01 -1.086926087737083435e-01 1.227668747305870056e-01
2.212206721305847168e-01 -3.359044790267944336e-01 -3.921087086200714111e-01
3.333686292171478271e-01 -4.129185676574707031e-01 3.384615480899810791e-01
-5.416473150253295898e-01 -1.517824828624725342e-01 1.159237921237945557e-01
5.377266407012939453e-01 1.128107234835624695e-01 -5.032147094607353210e-02
5.403793454170227051e-01 -6.362701058387756348e-01 -1.797547787427902222e-01
-4.407801628112792969e-01 7.717204093933105469e-01 1.312962919473648071e-01
2.762425839900970459e-01 -3.027740418910980225e-01 2.428977638483047485e-01
5.340179204940795898e-01 -5.954300165176391602e-01 2.506922185420989990e-01
-5.630092620849609375e-01 1.193491593003273010e-01 8.357622474431991577e-02
5.648905634880065918e-01 -1.031529158353805542e-01 3.050808310508728027e-01
-5.630092620849609375e-01 6.172025799751281738e-01 1.839098483324050903e-01
-1.087471023201942444e-01 -4.223822802305221558e-02 -2.662785947322845459e-01
7.471350580453872681e-02 1.941840648651123047e-01 -5.032147094607353210e-02
-4.861068725585937500e-01 -6.041658520698547363e-01 2.628146708011627197e-01
5.648905634880065918e-01 -5.219810009002685547e-01 1.033874526619911194e-01
5.435286164283752441e-01 5.999393463134765625e-01 2.684401273727416992e-01
-5.232621431350708008e-01 -4.955401420593261719e-01 -5.032147094607353210e-02
1.685313433408737183e-01 -4.366788864135742188e-01 -3.664745688438415527e-01
2.799034416675567627e-01 -3.006030619144439697e-01 -1.636044383049011230e-01
5.949657037854194641e-02 5.889745950698852539e-01 -2.468697912991046906e-02
-3.347403109073638916e-01 -1.763326078653335571e-01 -3.315770924091339111e-01
-3.154875338077545166e-01 -9.157691895961761475e-02 -2.903051674365997314e-01
-1.176066100597381592e-01 3.569011986255645752e-01 -1.528571546077728271e-01
1.629028916358947754e-01 7.717204093933105469e-01 -9.475626796483993530e-02
-5.416473150253295898e-01 -4.529060423374176025e-01 2.219706028699874878e-01
2.629213929176330566e-01 1.823417991399765015e-01 -5.266582965850830078e-02
4.879881739616394043e-01 -5.376746654510498047e-01 1.407451778650283813e-01
-1.657624691724777222e-01 6.964066028594970703e-01 -2.468697912991046906e-02
-5.416473150253295898e-01 3.956510722637176514e-01 3.054538071155548096e-01
2.708345055580139160e-01 6.329978704452514648e-01 -5.032147094607353210e-02
3.278748095035552979e-01 5.281118750572204590e-01 3.598234951496124268e-01
-5.630092620849609375e-01 3.919034302234649658e-01 1.874769777059555054e-01
8.361010998487472534e-02 2.250656932592391968e-01 -1.447924375534057617e-01
-1.121427193284034729e-01 2.183233350515365601e-01 -5.032147094607353210e-02
-4.861068725585937500e-01 -3.951057791709899902e-01 -7.831850647926330566e-02
-2.170464955270290375e-03 5.046557188034057617e-01 -1.528571546077728271e-01
2.740565836429595947e-01 7.251302003860473633e-01 3.598234951496124268e-01
-4.015206992626190186e-01 6.574184298515319824e-01 -5.032147094607353210e-02
1.435543894767761230e-01 6.682345271110534668e-01 3.598234951496124268e-01
2.012857943773269653e-01 1.024859696626663208e-01 -1.958044171333312988e-01
-5.416473150253295898e-01 7.055194377899169922e-01 2.360651083290576935e-02
-5.416473150253295898e-01 -2.414007186889648438e-01 6.237283349037170410e-02
-5.630092620849609375e-01 -3.028249442577362061e-01 2.215128839015960693e-01
-1.716302633285522461e-01 -6.153020262718200684e-01 -3.921087086200714111e-01
-2.400062233209609985e-01 -8.738750219345092773e-02 -5.032147094607353210e-02
-2.090039402246475220e-01 -3.027740418910980225e-01 1.853842101991176605e-02
1.158429980278015137e-01 -2.359438091516494751e-01 -5.032147094607353210e-02
4.277507066726684570e-01 -5.653721094131469727e-01 -3.921087086200714111e-01
-5.079524517059326172e-01 -6.210641264915466309e-01 -2.053839266300201416e-01
-9.746529161930084229e-02 7.350478172302246094e-01 -5.032147094607353210e-02
-5.416473150253295898e-01 -3.222871124744415283e-01 1.248979866504669189e-01
5.960407108068466187e-02 -3.027740418910980225e-01 1.210416480898857117e-01
2.903106808662414551e-01 -4.013854563236236572e-01 -3.664745688438415527e-01
5.241432189941406250e-01 7.503584623336791992e-01 1.423736810684204102e-01
2.412702441215515137e-01 -3.006379902362823486e-01 -7.200476527214050293e-02
-5.630092620849609375e-01 4.537222906947135925e-02 1.232206225395202637e-01
-4.088983237743377686e-01 -3.006718754768371582e-01 8.853650093078613281e-02
4.879881739616394043e-01 -4.749301671981811523e-01 -2.910560667514801025e-01
-3.561461269855499268e-01 6.313245296478271484e-01 -5.032147094607353210e-02
-5.416473150253295898e-01 -5.363782644271850586e-01 8.353478275239467621e-03
5.435286164283752441e-01 5.787718296051025391e-01 3.148857355117797852e-01
5.519852638244628906e-01 -6.637880206108093262e-01 -2.606680691242218018e-01
-4.702224954962730408e-02 7.569462060928344727e-01 -5.032147094607353210e-02
-3.781902194023132324e-01 5.022104978561401367e-01 -5.032147094607353210e-02
1.415768563747406006e-01 -2.569597065448760986e-01 -3.708395063877105713e-01
4.858520627021789551e-01 -4.685288369655609131e-01 5.488005280494689941e-02
2.022152096033096313e-01 7.717204093933105469e-01 2.011052966117858887e-01
2.449081987142562866e-01 -6.250230967998504639e-02 -5.032147094607353210e-02
9.400366805493831635e-03 -3.917082250118255615e-01 -3.921087086200714111e-01
1.439652442932128906e-01 7.717204093933105469e-01 3.368919193744659424e-01
4.074977040290832520e-01 -9.021966904401779175e-02 -7.322508841753005981e-02
-2.236993163824081421e-01 -3.482124209403991699e-01 3.363254666328430176e-01
-9.714208543300628662e-02 3.981262445449829102e-01 -1.528571546077728271e-01
-3.922543227672576904e-01 7.503584623336791992e-01 -5.292498972266912460e-03
5.234470963478088379e-01 -1.878198534250259399e-01 -5.032147094607353210e-02
-4.595223665237426758e-01 1.196804344654083252e-01 -2.468697912991046906e-02
-1.742589920759201050e-01 2.644408047199249268e-01 -1.528571546077728271e-01
2.794666588306427002e-01 -3.006379902362823486e-01 -4.271109402179718018e-01
4.808997809886932373e-01 5.160891413688659668e-01 -2.468697912991046906e-02
-2.476111948490142822e-01 -3.917221426963806152e-01 3.384615480899810791e-01
-4.621271491050720215e-01 -4.048698246479034424e-01 -3.921087086200714111e-01
2.866258323192596436e-01 5.750459432601928711e-02 -2.177078574895858765e-01
5.435286164283752441e-01 4.978430643677711487e-02 3.028151094913482666e-01
5.435286164283752441e-01 4.686742126941680908e-01 2.086374908685684204e-01
5.318997502326965332e-01 2.366745918989181519e-01 -5.032147094607353210e-02
3.566801846027374268e-01 8.598937839269638062e-02 -2.468697912991046906e-02
-3.178500235080718994e-01 -1.892887949943542480e-01 -5.032147094607353210e-02
2.251570858061313629e-02 7.717204093933105469e-01 3.632963448762893677e-02
-5.416473150253295898e-01 8.330250531435012817e-02 3.189783990383148193e-01
3.896999061107635498e-01 7.217904329299926758e-01 -5.032147094607353210e-02
6.725701689720153809e-02 -3.804872035980224609e-01 3.598234951496124268e-01
-4.140012264251708984e-01 -3.006379902362823486e-01 -2.942831814289093018e-01
4.044254496693611145e-02 2.406146973371505737e-01 -1.528571546077728271e-01
-3.191065490245819092e-01 -3.027740418910980225e-01 2.150148451328277588e-01
-3.369512259960174561e-01 -5.557985901832580566e-01 3.363254666328430176e-01
5.034813880920410156e-01 -3.970524370670318604e-01 -2.468697912991046906e-02
-3.179118335247039795e-01 7.503584623336791992e-01 3.331098333001136780e-02
5.231998562812805176e-01 -5.634145140647888184e-01 -5.032147094607353210e-02
5.648905634880065918e-01 -1.809418648481369019e-01 2.416252940893173218e-01
-2.639440298080444336e-01 3.486380577087402344e-01 -8.271993696689605713e-02
1.807675212621688843e-01 -3.006379902362823486e-01 -1.534305512905120850e-01
4.449312090873718262e-01 -4.964584857225418091e-02 -5.032147094607353210e-02
4.940035343170166016e-01 -3.006379902362823486e-01 -2.155837267637252808e-01
-4.820460677146911621e-01 -3.006379902362823486e-01 -2.257137298583984375e-01
-5.416473150253295898e-01 -2.899922616779804230e-02 2.870008349418640137e-01
-5.416473150253295898e-01 -3.655026555061340332e-01 2.775140702724456787e-01
-3.199878334999084473e-02 7.307686209678649902e-01 3.384615480899810791e-01
4.683035910129547119e-01 5.111079216003417969e-01 3.391855657100677490e-01
-2.684276700019836426e-01 2.250656932592391968e-01 -1.625832468271255493e-01
5.648905634880065918e-01 -8.913267403841018677e-02 -2.907205931842327118e-02
