-2.936931848526000977e-01 5.668565630912780762e-01 2.086047679185867310e-01
-2.561835572123527527e-02 1.293676625937223434e-02 3.597573041915893555e-01
-2.431484609842300415e-01 -5.123692378401756287e-02 -2.673370838165283203e-01
2.087935358285903931e-01 6.859480738639831543e-01 -2.541188597679138184e-01
-2.205744944512844086e-02 7.795541286468505859e-01 8.462788164615631104e-02
-3.279712796211242676e-01 7.060728669166564941e-01 2.556182630360126495e-02
2.819034755229949951e-01 -3.849403858184814453e-01 2.242012172937393188e-01
3.531093299388885498e-01 5.436852574348449707e-01 7.736345380544662476e-02
1.414391845464706421e-01 -2.072655260562896729e-01 3.311556279659271240e-01
3.438472449779510498e-01 -4.350731968879699707e-01 -1.111754700541496277e-01
3.100498616695404053e-01 -3.614325076341629028e-02 -1.876665651798248291e-01
2.319572865962982178e-01 6.300963759422302246e-01 2.759147882461547852e-01
-3.270352780818939209e-01 -2.506218850612640381e-02 1.511874198913574219e-01
3.540085852146148682e-01 -8.841684460639953613e-02 -7.067924737930297852e-02
1.836616098880767822e-01 7.387993931770324707e-01 -1.761714071035385132e-01
-2.278677672147750854e-01 -1.271733790636062622e-01 -2.790631949901580811e-01
1.705470383167266846e-01 7.795541286468505859e-01 5.066716670989990234e-02
4.437804222106933594e-02 3.936384022235870361e-01 -3.073132634162902832e-01
-8.419990539550781250e-02 -9.320994019508361816e-01 -1.554292142391204834e-01
2.866344451904296875e-01 -4.298285245895385742e-01 -2.181817442178726196e-01
3.063765168190002441e-01 -5.871655941009521484e-01 1.923079341650009155e-01
-9.569091349840164185e-02 6.637796759605407715e-01 -3.490370512008666992e-01
-2.547312676906585693e-01 -5.827305912971496582e-01 2.583030164241790771e-01
3.524372577667236328e-01 -7.825285196304321289e-01 -8.261969685554504395e-02
-3.586862003430724144e-03 4.538109600543975830e-01 3.626586794853210449e-01
-1.943682730197906494e-01 7.179657816886901855e-01 -1.652880012989044189e-01
-2.730151414871215820e-01 -1.950558722019195557e-01 -2.356992512941360474e-01
3.525616824626922607e-01 -3.426575958728790283e-01 -8.166944980621337891e-02
-6.990943104028701782e-02 2.160323709249496460e-01 2.444683164358139038e-01
1.012462079524993896e-01 3.788534998893737793e-01 -2.353401035070419312e-01
-3.057077229022979736e-01 -3.467900454998016357e-01 1.929470300674438477e-01
2.042671144008636475e-01 -2.244276702404022217e-01 2.971612811088562012e-01
2.711162269115447998e-01 5.416058897972106934e-01 2.382602542638778687e-01
-3.167004883289337158e-01 -8.906744122505187988e-01 -1.762845218181610107e-01
1.241054907441139221e-01 3.936384022235870361e-01 3.182022571563720703e-01
-1.177169308066368103e-01 4.865177273750305176e-01 -2.257282882928848267e-01
-1.894748955965042114e-02 -9.320994019508361816e-01 -1.825726777315139771e-01
-8.619268238544464111e-02 -3.548880219459533691e-01 3.517828285694122314e-01
-1.683125942945480347e-01 -1.108285784721374512e-01 3.199508190155029297e-01
-2.447310835123062134e-01 4.442802369594573975e-01 2.659768462181091309e-01
3.514343202114105225e-01 6.296354532241821289e-01 9.008844196796417236e-02
-1.562622338533401489e-01 -2.789888679981231689e-01 -3.250890374183654785e-01
1.255976408720016479e-01 -4.441260695457458496e-01 3.377171456813812256e-01
5.834971740841865540e-02 -6.186205744743347168e-01 -3.556183576583862305e-01
3.955582156777381897e-02 4.266015291213989258e-01 -2.527953982353210449e-01
2.943864762783050537e-01 9.859513491392135620e-02 -2.080797702074050903e-01
3.525089025497436523e-01 -1.754523813724517822e-01 -8.207137137651443481e-02
-3.547838926315307617e-01 5.842298269271850586e-01 6.329600512981414795e-02
-1.230832263827323914e-01 7.264728546142578125e-01 3.045796155929565430e-01
2.508274614810943604e-01 -8.087002038955688477e-01 2.614353299140930176e-01
-3.068567812442779541e-01 -3.068892098963260651e-02 -1.915972530841827393e-01
-2.542373538017272949e-01 5.096899271011352539e-01 1.064282003790140152e-02
-2.983732819557189941e-01 -1.482447236776351929e-01 2.025060504674911499e-01
-3.280325531959533691e-01 -9.069052338600158691e-01 1.487799882888793945e-01
-3.538968861103057861e-01 5.355599522590637207e-01 7.003115862607955933e-02
4.667480662465095520e-02 5.177295207977294922e-01 -2.508875727653503418e-01
-1.680430024862289429e-01 7.358122467994689941e-01 2.851052582263946533e-01
3.139353394508361816e-01 -6.364915370941162109e-01 -1.826037913560867310e-01
3.538342118263244629e-01 -8.837631940841674805e-01 7.185708731412887573e-02
1.871002614498138428e-01 -9.320994019508361816e-01 -3.647741675376892090e-02
-1.094002649188041687e-01 -9.320994019508361816e-01 1.455751061439514160e-01
1.824041754007339478e-01 1.620885431766510010e-01 2.044798880815505981e-01
2.793103456497192383e-01 1.620885431766510010e-01 -1.206147894263267517e-01
-4.486140969675034285e-04 4.426787197589874268e-01 -3.632177114486694336e-01
-2.888217866420745850e-01 5.122322589159011841e-02 -2.151003479957580566e-01
-2.448649406433105469e-01 6.492596864700317383e-01 -6.853292137384414673e-02
2.852393686771392822e-01 6.385921239852905273e-01 2.198538929224014282e-01
-3.187025785446166992e-01 -5.215588212013244629e-01 -1.714498698711395264e-01
1.807536482810974121e-01 -7.385132312774658203e-01 -3.150181770324707031e-01
-2.858214378356933594e-01 1.620885431766510010e-01 -7.004999555647373199e-03
2.544150352478027344e-01 2.640085220336914062e-01 -3.594402456656098366e-03
1.257003843784332275e-01 5.026910305023193359e-01 3.376747369766235352e-01
2.480599433183670044e-01 6.501513719558715820e-01 5.712736025452613831e-02
1.164948493242263794e-01 6.988496184349060059e-01 -2.265361100435256958e-01
-2.501040101051330566e-01 6.486366391181945801e-01 -2.620000243186950684e-01
-1.962600946426391602e-01 6.192139387130737305e-01 1.632490903139114380e-01
-2.147852480411529541e-01 5.692074298858642578e-01 -1.365524679422378540e-01
-3.532964587211608887e-01 -6.488915681838989258e-01 -7.474002242088317871e-02
-1.365038659423589706e-02 -6.704311966896057129e-01 3.613333404064178467e-01
-2.542373538017272949e-01 4.329368472099304199e-01 2.106434106826782227e-02
-1.856858730316162109e-01 -7.928397655487060547e-01 -3.114296495914459229e-01
9.682347625494003296e-02 1.620885431766510010e-01 -2.436030507087707520e-01
2.813542075455188751e-02 7.795541286468505859e-01 -1.316838860511779785e-01
2.573324143886566162e-01 -3.198567628860473633e-01 -2.563697993755340576e-01
-1.584688872098922729e-01 -9.320994019508361816e-01 -8.312530815601348877e-02
1.028373390436172485e-01 5.847379937767982483e-02 3.471451699733734131e-01
-3.496202826499938965e-01 -8.301512002944946289e-01 -9.680911898612976074e-02
7.498522102832794189e-02 4.414495825767517090e-01 -3.534286916255950928e-01
-2.811168730258941650e-01 -2.515070438385009766e-01 2.249948829412460327e-01
-2.221470624208450317e-01 -1.302634477615356445e-01 2.833057940006256104e-01
2.275694310665130615e-01 -7.577764391899108887e-01 -2.794279754161834717e-01
-2.173526585102081299e-02 -7.215424776077270508e-01 -3.604153394699096680e-01
-1.725401147268712521e-03 7.795541286468505859e-01 2.576875090599060059e-01
-1.949753165245056152e-01 6.781432628631591797e-01 2.644394040107727051e-01
3.836238384246826172e-02 7.387512922286987305e-01 2.529687881469726562e-01
1.793585866689682007e-01 6.664869189262390137e-01 1.803282797336578369e-01
4.988779500126838684e-02 6.637796759605407715e-01 -3.522221446037292480e-01
1.638940870761871338e-01 2.445190548896789551e-01 1.957927793264389038e-01
-1.690817624330520630e-01 1.067939773201942444e-01 3.196312785148620605e-01
3.564876616001129150e-01 -1.213669031858444214e-01 5.170045793056488037e-02
-1.925716549158096313e-01 4.009521007537841797e-01 -3.061463236808776855e-01
2.819807827472686768e-01 -6.461467146873474121e-01 2.241003513336181641e-01
1.003611013293266296e-01 2.707444131374359131e-01 -2.358510345220565796e-01
-5.655771866440773010e-02 4.126376509666442871e-01 2.480455189943313599e-01
3.360772728919982910e-01 6.637796759605407715e-01 -1.206562593579292297e-01
2.899910807609558105e-01 6.605691313743591309e-01 -2.138080298900604248e-01
-3.502263426780700684e-01 -1.788806617259979248e-01 -9.534618258476257324e-02
-2.452448308467864990e-01 4.097070991992950439e-01 -6.711711734533309937e-02
-3.077529370784759521e-02 1.620885431766510010e-01 2.806108891963958740e-01
-2.378528714179992676e-01 7.795541286468505859e-01 -1.810079514980316162e-01
2.416888028383255005e-01 3.091322779655456543e-01 -8.104949444532394409e-02
-2.300103306770324707e-01 4.778532683849334717e-01 1.100358068943023682e-01
2.803135477006435394e-02 -9.320994019508361816e-01 1.968956291675567627e-01
-1.316807866096496582e-01 -9.004512429237365723e-01 3.351240158081054688e-01
1.509086638689041138e-01 5.519472956657409668e-01 -3.273796141147613525e-01
3.443722426891326904e-01 -4.421314895153045654e-01 1.097615063190460205e-01
-2.174764126539230347e-01 -9.320994019508361816e-01 -1.130248755216598511e-01
3.533186018466949463e-01 5.936682224273681641e-01 -7.591970264911651611e-02
1.758275628089904785e-01 4.933874607086181641e-01 -1.840063929557800293e-01
-2.391241677105426788e-02 7.032855153083801270e-01 -3.283486068248748779e-01
-1.141425520181655884e-01 3.364934921264648438e-01 -2.277916818857192993e-01
-8.667341619729995728e-02 -2.951179146766662598e-01 -3.518667817115783691e-01
1.546850427985191345e-02 3.936384022235870361e-01 3.011777102947235107e-01
3.489232063293457031e-01 -9.320994019508361816e-01 4.881955310702323914e-02
-1.611035019159317017e-01 5.861716270446777344e-01 3.229370117187500000e-01
2.862404286861419678e-01 6.296723335981369019e-02 2.185493111610412598e-01
1.004591286182403564e-01 -9.320994019508361816e-01 2.580008469521999359e-03
2.914794981479644775e-01 4.241102337837219238e-01 2.117210328578948975e-01
-1.819672733545303345e-01 -3.738580644130706787e-01 3.141367733478546143e-01
-2.251125127077102661e-01 3.753121197223663330e-01 -1.186664104461669922e-01
-4.657027125358581543e-02 -9.320994019508361816e-01 2.437349408864974976e-01
7.142497599124908447e-02 -9.320994019508361816e-01 1.459417790174484253e-01
2.669857144355773926e-01 -7.257701158523559570e-01 2.436425834894180298e-01
-6.914912164211273193e-02 7.442411184310913086e-01 2.446718961000442505e-01
-2.492848634719848633e-01 -3.960801661014556885e-01 2.624825537204742432e-01
2.354063093662261963e-01 -2.201991230249404907e-01 -2.734141051769256592e-01
-3.201834261417388916e-01 6.693967580795288086e-01 8.471450954675674438e-02
2.932619452476501465e-01 7.795541286468505859e-01 3.700277581810951233e-02
1.375169754028320312e-01 2.178600877523422241e-01 -2.143990397453308105e-01
3.568543195724487305e-01 -3.665867745876312256e-01 4.891683161258697510e-02
1.429181545972824097e-01 -4.067420363426208496e-01 -3.306900560855865479e-01
-2.224069461226463318e-02 5.308883786201477051e-01 -3.603484034538269043e-01
-2.542373538017272949e-01 7.508355975151062012e-01 -1.161884982138872147e-02
4.904971644282341003e-02 -2.057149410247802734e-01 3.566966652870178223e-01
-3.240038454532623291e-01 -2.070091366767883301e-01 -1.586510837078094482e-01
2.402364916633814573e-04 -4.321190416812896729e-01 -3.632686138153076172e-01
1.653560847043991089e-01 -8.338792324066162109e-01 3.212487697601318359e-01
-1.269328594207763672e-01 7.795541286468505859e-01 1.747574359178543091e-01
3.558608293533325195e-01 -1.305783260613679886e-02 -5.661397054791450500e-02
2.423675060272216797e-01 3.103935532271862030e-02 2.679261565208435059e-01
-2.331445217132568359e-01 2.733460366725921631e-01 1.046063601970672607e-01
3.626561164855957031e-01 -3.711612820625305176e-01 -4.992164205759763718e-03
-1.339345872402191162e-01 -1.890457868576049805e-01 -3.343370258808135986e-01
-3.491451740264892578e-01 6.343155503273010254e-01 -9.795439243316650391e-02
5.926132574677467346e-02 8.196170926094055176e-01 -2.777559868991374969e-02
4.947370663285255432e-02 7.581804394721984863e-01 -2.501381933689117432e-01
1.087399721145629883e-01 4.323288202285766602e-01 3.447000384330749512e-01
-2.768185734748840332e-01 -5.750407576560974121e-01 -2.307429909706115723e-01
-2.678156495094299316e-01 7.050378322601318359e-01 -1.907168477773666382e-01
2.775564230978488922e-02 8.111024498939514160e-01 -5.926053971052169800e-02
1.619032919406890869e-01 7.795541286468505859e-01 -1.716515719890594482e-01
-2.056654840707778931e-01 7.513597011566162109e-01 1.522026211023330688e-01
1.296348422765731812e-01 3.936384022235870361e-01 2.259865254163742065e-01
-3.087240755558013916e-01 -6.697403192520141602e-01 1.890163272619247437e-01
-1.271374076604843140e-01 2.870987057685852051e-01 2.201432734727859497e-01
-2.607432603836059570e-01 -9.320994019508361816e-01 -1.957249492406845093e-01
2.544150352478027344e-01 7.068985104560852051e-01 -2.856400050222873688e-02
-2.200704813003540039e-01 -9.320994019508361816e-01 6.064990907907485962e-02
-9.071382880210876465e-02 1.620885431766510010e-01 -2.889153659343719482e-01
7.471441477537155151e-02 -3.391586244106292725e-01 3.533173799514770508e-01
-3.120062649250030518e-01 -8.274675607681274414e-01 -1.848858445882797241e-01
-1.966022551059722900e-01 7.732490301132202148e-01 -2.633375823497772217e-01
-1.277039200067520142e-01 -6.178720593452453613e-01 3.367716968059539795e-01
3.568366542458534241e-02 2.740520238876342773e-01 2.536870539188385010e-01
-9.349585324525833130e-02 -6.582065224647521973e-01 3.508213460445404053e-01
1.273558847606182098e-02 -5.539535284042358398e-01 3.614775836467742920e-01
4.692686349153518677e-02 1.620885431766510010e-01 3.132987916469573975e-01
-2.878669202327728271e-01 1.620885431766510010e-01 -6.663364917039871216e-02
-2.408861815929412842e-01 4.771679639816284180e-01 -8.338424563407897949e-02
2.179236710071563721e-01 -1.455274522304534912e-01 2.866822481155395508e-01
6.766047328710556030e-02 -9.320994019508361816e-01 -9.652822464704513550e-02
-3.214305043220520020e-01 7.192345261573791504e-01 7.523749023675918579e-02
3.271528705954551697e-02 3.169531226158142090e-01 -2.543987929821014404e-01
-7.615056633949279785e-02 7.795541286468505859e-01 -5.949845910072326660e-02
3.332145810127258301e-01 -6.941313147544860840e-01 1.366966515779495239e-01
-9.795036166906356812e-02 7.735715061426162720e-02 3.490954339504241943e-01
3.563547432422637939e-01 -7.082780003547668457e-01 -5.285926535725593567e-02
1.959080249071121216e-01 7.034466862678527832e-01 2.638597488403320312e-01
3.295355737209320068e-01 -8.586255908012390137e-01 1.455788910388946533e-01
2.974593937397003174e-01 3.936384022235870361e-01 1.846501529216766357e-01
3.216421306133270264e-01 -1.262216269969940186e-01 1.646366268396377563e-01
1.842450797557830811e-01 2.055608928203582764e-01 1.754417717456817627e-01
1.564201265573501587e-01 1.756725460290908813e-01 -2.034128904342651367e-01
2.626468539237976074e-01 7.795541286468505859e-01 1.520376503467559814e-01
-1.668534278869628906e-01 7.795541286468505859e-01 -6.112040579319000244e-02
-3.576720654964447021e-01 -3.255152702331542969e-01 4.136198386549949646e-02
-1.893281191587448120e-01 -4.293600618839263916e-01 -3.086357712745666504e-01
-3.333281576633453369e-01 -4.701119959354400635e-01 1.359934657812118530e-01
2.145821154117584229e-01 -6.910187602043151855e-01 -2.893932759761810303e-01
2.781782746315002441e-01 -1.523129343986511230e-01 -2.292027622461318970e-01
8.340510725975036621e-02 1.711366772651672363e-01 2.408995926380157471e-01
-6.498806178569793701e-02 8.564713001251220703e-01 4.081979393959045410e-02
1.063667424023151398e-02 -9.320994019508361816e-01 3.222863748669624329e-02
2.207477390766143799e-01 -9.320994019508361816e-01 1.544780731201171875e-01
2.511243522167205811e-01 2.521815299987792969e-01 4.569093137979507446e-02
-3.550761044025421143e-01 1.105012670159339905e-01 6.107926741242408752e-02
2.084221541881561279e-01 5.592242479324340820e-01 -1.478817313909530640e-01
-2.820189595222473145e-01 -6.263338923454284668e-01 -2.239656150341033936e-01
-3.597712814807891846e-01 -8.059374094009399414e-01 2.541845478117465973e-02
3.394263684749603271e-01 -5.120130181312561035e-01 -1.218477264046669006e-01
-2.144685387611389160e-01 -8.628249168395996094e-01 2.891971468925476074e-01
-1.836375743150711060e-01 7.795541286468505859e-01 -2.012448906898498535e-01
-2.481716275215148926e-01 4.008013010025024414e-01 5.604599788784980774e-02
9.763344191014766693e-03 8.345112949609756470e-02 -3.620149493217468262e-01
-1.500240266323089600e-01 -4.922322630882263184e-01 -3.276727497577667236e-01
-3.506872951984405518e-01 4.267183840274810791e-01 -9.423380345106124878e-02
-2.032552212476730347e-01 -6.108317375183105469e-01 -2.979484200477600098e-01
-8.333600312471389771e-02 3.607261925935745239e-02 -3.523060381412506104e-01
3.614071607589721680e-01 -7.491384148597717285e-01 -1.447996124625205994e-02
-9.936333447694778442e-02 7.795541286468505859e-01 -1.202954631298780441e-02
-1.668232679367065430e-01 5.441025830805301666e-03 3.205672800540924072e-01
-1.110470145940780640e-01 -1.882568150758743286e-01 3.436706960201263428e-01
1.506466269493103027e-01 7.522042393684387207e-01 -2.933824062347412109e-01
1.063872203230857849e-01 7.795541286468505859e-01 -1.703990623354911804e-02
-3.309961259365081787e-01 -1.265074312686920166e-01 -1.417726576328277588e-01
-4.501203820109367371e-02 -5.734665989875793457e-01 -3.573508858680725098e-01
-2.853671014308929443e-01 1.485347300767898560e-01 -2.196031957864761353e-01
-2.111891806125640869e-01 2.427195906639099121e-01 1.426351070404052734e-01
-2.484459280967712402e-01 7.795541286468505859e-01 8.621882647275924683e-02
-1.228287220001220703e-01 6.950376629829406738e-01 -3.048323392868041992e-01
-3.569877147674560547e-01 -7.537270188331604004e-01 4.655624926090240479e-02
1.934610158205032349e-01 -7.015480101108551025e-02 3.054534196853637695e-01
8.336354047060012817e-02 -8.223274946212768555e-01 -3.523258268833160400e-01
3.548267781734466553e-01 -5.459885001182556152e-01 -6.446573883295059204e-02
1.855769902467727661e-01 2.974608540534973145e-01 -1.742569655179977417e-01
2.544150352478027344e-01 4.655766487121582031e-01 -3.977103158831596375e-03
-1.251513212919235229e-01 -7.820374369621276855e-01 3.378283977508544922e-01
-3.253602385520935059e-01 3.936384022235870361e-01 3.883917629718780518e-02
1.620248854160308838e-01 1.073227822780609131e-01 -3.227759003639221191e-01
-1.737080961465835571e-01 -9.320994019508361816e-01 1.612168252468109131e-01
1.587201058864593506e-01 -8.144529461860656738e-01 -3.241445720195770264e-01
-1.139785349369049072e-01 4.640817046165466309e-01 2.277407348155975342e-01
-1.785226911306381226e-02 3.966349661350250244e-01 -2.543987929821014404e-01
-3.731853142380714417e-02 7.887285947799682617e-01 -5.364003032445907593e-02
2.346739023923873901e-01 6.368304491043090820e-01 -1.024120077490806580e-01
5.577186495065689087e-02 5.551106929779052734e-01 2.483038008213043213e-01
1.443791836500167847e-01 6.322267055511474609e-01 3.299377858638763428e-01
-1.982509046792984009e-01 7.079910635948181152e-01 1.612582802772521973e-01
-5.438593775033950806e-02 2.562809586524963379e-01 2.486280351877212524e-01
1.666681915521621704e-01 4.639704525470733643e-01 3.207048773765563965e-01
1.943583637475967407e-01 2.022504210472106934e-01 -1.654755920171737671e-01
2.256662845611572266e-01 1.620885431766510010e-01 -2.255737185478210449e-01
2.736358344554901123e-01 -3.904772698879241943e-01 -2.351223677396774292e-01
-3.535009920597076416e-01 -5.106971263885498047e-01 -7.318857312202453613e-02
-1.224752441048622131e-01 1.163181290030479431e-01 -3.390840291976928711e-01
-3.160623013973236084e-01 -8.819184899330139160e-01 1.776776611804962158e-01
2.566668987274169922e-01 -7.967600226402282715e-02 -2.571003139019012451e-01
-3.605931997299194336e-01 1.361968815326690674e-01 1.917251758277416229e-02
2.757812142372131348e-01 -9.308938384056091309e-01 2.321804314851760864e-01
3.353430032730102539e-01 -5.064996480941772461e-01 1.315594017505645752e-01
-2.523040473461151123e-01 1.378577649593353271e-01 2.601656317710876465e-01
3.419365584850311279e-01 1.372045278549194336e-01 1.156415194272994995e-01
1.900157630443572998e-01 9.588140062987804413e-03 -3.082436323165893555e-01
2.218232601881027222e-01 1.650549471378326416e-01 1.245228126645088196e-01
-2.823460400104522705e-01 1.025220602750778198e-01 2.233933955430984497e-01
1.082271933555603027e-01 7.795541286468505859e-01 2.191855907440185547e-01
-1.538830846548080444e-01 4.016364812850952148e-01 2.047014087438583374e-01
3.953848034143447876e-02 -1.625517904758453369e-01 -3.580946326255798340e-01
-3.524386882781982422e-01 1.613683998584747314e-01 8.111411333084106445e-02
-2.816994190216064453e-01 -9.150758385658264160e-01 -2.243822515010833740e-01
-1.475119739770889282e-01 -8.307855725288391113e-01 3.285662829875946045e-01
2.044169902801513672e-01 4.203567206859588623e-01 -2.971934080123901367e-01
2.845314741134643555e-01 -2.381794303655624390e-01 -2.209238111972808838e-01
2.693384587764739990e-01 -5.644156336784362793e-01 -2.407233864068984985e-01
-2.620676457881927490e-01 -3.425576984882354736e-01 2.498213946819305420e-01
2.974427118897438049e-02 6.920477151870727539e-01 3.274568021297454834e-01
-1.529150158166885376e-01 -6.750076413154602051e-01 3.263285160064697266e-01
-6.799857318401336670e-02 -4.713231697678565979e-02 -3.543251156806945801e-01
-2.406014949083328247e-01 2.034088969230651855e-01 8.430060744285583496e-02
-1.784868724644184113e-02 3.936384022235870361e-01 -3.221113383769989014e-01
2.185099869966506958e-01 2.618913948535919189e-01 1.302623748779296875e-01
2.555395662784576416e-01 4.380675405263900757e-02 -2.579656243324279785e-01
-2.353822737932205200e-01 3.936384022235870361e-01 2.279405593872070312e-01
-9.947079420089721680e-02 -1.366818845272064209e-01 3.484657704830169678e-01
3.150325119495391846e-01 -3.230126202106475830e-01 -1.807402521371841431e-01
-3.372465968132019043e-01 -5.115529894828796387e-01 1.265352815389633179e-01
3.526125848293304443e-01 4.334524571895599365e-01 -8.128382265567779541e-02
-9.902776777744293213e-02 -9.320994019508361816e-01 -2.690790295600891113e-01
-1.715985387563705444e-01 1.345878392457962036e-01 -3.187367916107177734e-01
2.279370427131652832e-01 1.335349529981613159e-01 2.789990007877349854e-01
3.607793748378753662e-01 -6.188618391752243042e-02 -1.924703456461429596e-02
5.786625295877456665e-02 7.795541286468505859e-01 2.325631380081176758e-01
1.392099112272262573e-01 -2.251186072826385498e-01 -3.322265148162841797e-01
1.367572247982025146e-01 1.620885431766510010e-01 3.115474283695220947e-01
-3.606280684471130371e-01 6.239722967147827148e-01 -1.905144192278385162e-02
1.053710803389549255e-01 6.671977043151855469e-02 -3.462421894073486328e-01
-7.388830184936523438e-02 7.795541286468505859e-01 6.972801685333251953e-02
3.593287169933319092e-01 -4.398862123489379883e-01 3.012481890618801117e-02
7.573610544204711914e-02 -9.320994019508361816e-01 -3.422813713550567627e-01
-1.359923034906387329e-01 -7.294839620590209961e-02 -3.334849178791046143e-01
-2.033124305307865143e-02 1.431797593832015991e-01 -3.606000542640686035e-01
-2.770570218563079834e-01 7.795541286468505859e-01 1.404209136962890625e-01
-2.067608088254928589e-01 1.866002380847930908e-01 -1.504522413015365601e-01
1.009379774332046509e-01 3.988303244113922119e-01 -3.480783998966217041e-01
6.236091628670692444e-02 7.795541286468505859e-01 -2.071399837732315063e-01
1.299006640911102295e-01 1.620885431766510010e-01 -3.336564600467681885e-01
3.224886059761047363e-01 -7.360454797744750977e-01 -1.627391874790191650e-01
-1.531242877244949341e-01 2.745977938175201416e-01 -2.052858620882034302e-01
2.402579337358474731e-01 4.316482543945312500e-01 -8.639033138751983643e-02
-3.555059432983398438e-01 -3.769941627979278564e-01 -5.796228349208831787e-02
3.523269593715667725e-01 -2.181140631437301636e-01 -8.345428109169006348e-02
2.000649422407150269e-01 3.936384022235870361e-01 2.602956891059875488e-01
9.293915331363677979e-02 7.767187952995300293e-01 -3.172861039638519287e-01
3.151597678661346436e-01 -8.587076663970947266e-01 -1.804329454898834229e-01
1.381617188453674316e-01 -7.131155133247375488e-01 3.325129747390747070e-01
3.620698153972625732e-01 -8.542622327804565430e-01 -9.443038143217563629e-03
9.998593479394912720e-02 7.795541286468505859e-01 2.804374396800994873e-01
3.560399115085601807e-01 -1.767494082450866699e-01 5.510536208748817444e-02
3.240976333618164062e-01 -5.152272582054138184e-01 -1.588546782732009888e-01
7.551073282957077026e-02 -8.438351154327392578e-01 3.532127737998962402e-01
2.642078399658203125e-01 -9.320994019508361816e-01 5.874233692884445190e-02
2.520481348037719727e-01 6.472283601760864258e-01 -4.238976538181304932e-02
-1.345189958810806274e-01 -9.320994019508361816e-01 2.639002501964569092e-01
-2.345933020114898682e-01 -9.002429246902465820e-01 2.737552821636199951e-01
-8.242129534482955933e-02 7.185030579566955566e-01 3.204984664916992188e-01
3.193694651126861572e-01 -6.771821975708007812e-01 1.701226085424423218e-01
-2.766149640083312988e-01 -2.658234238624572754e-01 -2.310087978839874268e-01
8.492629975080490112e-02 -4.702100157737731934e-01 -3.521203398704528809e-01
1.220949068665504456e-01 -9.140756726264953613e-01 -3.393149673938751221e-01
2.433808147907257080e-01 5.254881381988525391e-01 -2.672956287860870361e-01
3.537757396697998047e-01 6.977195292711257935e-02 7.230077683925628662e-02
3.283441066741943359e-01 7.450649142265319824e-01 2.407947368919849396e-02
-3.619298338890075684e-01 -4.276397526264190674e-01 9.019454009830951691e-03
1.269748061895370483e-01 -3.725666701793670654e-01 -3.372939825057983398e-01
3.287967666983604431e-02 4.633784890174865723e-01 -3.589712381362915039e-01
2.380616515874862671e-01 -2.745369374752044678e-01 2.712309360504150391e-01
-1.492642760276794434e-01 -5.829117819666862488e-02 3.278404474258422852e-01
-8.371134847402572632e-02 7.352146506309509277e-01 -2.409166097640991211e-01
-2.304703146219253540e-01 5.343185067176818848e-01 2.769186794757843018e-01
2.975706160068511963e-01 1.620885431766510010e-01 1.649910360574722290e-01
-4.966156557202339172e-02 -6.822025775909423828e-01 3.565919995307922363e-01
-2.489926517009735107e-01 -7.969561219215393066e-01 2.627069056034088135e-01
1.873236596584320068e-01 4.001047313213348389e-01 1.723632067441940308e-01
-9.431564062833786011e-02 3.936384022235870361e-01 -2.858311235904693604e-01
3.359264731407165527e-01 -1.339895129203796387e-01 1.301511526107788086e-01
-2.563422024250030518e-01 9.839436411857604980e-02 -2.572134435176849365e-01
-2.186638116836547852e-02 -1.415767818689346313e-01 3.602521717548370361e-01
-1.920588761568069458e-01 4.185761511325836182e-01 1.674503237009048462e-01
3.067912757396697998e-01 5.978015661239624023e-01 -1.919130235910415649e-01
3.337820172309875488e-01 -2.050258591771125793e-02 -1.354750692844390869e-01
1.144767180085182190e-01 -9.320994019508361816e-01 -2.770723998546600342e-01
-3.434442579746246338e-01 -4.547389149665832520e-01 -1.117184087634086609e-01
-3.569453060626983643e-01 -8.298467397689819336e-01 -4.702392965555191040e-02
-3.621984720230102539e-01 -1.606071740388870239e-01 -7.125540636479854584e-03
-9.246482700109481812e-02 1.620885431766510010e-01 3.305938541889190674e-01
2.130362391471862793e-01 5.467516183853149414e-01 1.397441178560256958e-01
-9.421855956315994263e-02 6.682976484298706055e-01 2.379548698663711548e-01
4.394387081265449524e-02 1.997402459383010864e-01 -2.516199946403503418e-01
2.619785666465759277e-01 -2.687068879604339600e-01 2.501682639122009277e-01
4.804621636867523193e-02 5.551172494888305664e-01 -2.505199611186981201e-01
2.109794467687606812e-01 3.446056246757507324e-01 1.433053016662597656e-01
-9.449379891157150269e-02 5.501402616500854492e-01 2.378813177347183228e-01
-2.388492077589035034e-01 7.481133341789245605e-01 -2.284675240516662598e-01
-3.260351419448852539e-01 7.724214196205139160e-01 -4.041065648198127747e-02
1.356638073921203613e-01 -1.559773534536361694e-01 -3.336950838565826416e-01
2.298392355442047119e-01 6.026089191436767578e-01 -2.776860594749450684e-01
-2.005640715360641479e-01 2.764557003974914551e-01 1.589451134204864502e-01
9.099049866199493408e-02 -1.854704618453979492e-01 3.511748313903808594e-01
-5.412351340055465698e-02 -9.320994019508361816e-01 1.141399368643760681e-01
3.249799013137817383e-01 -1.812371909618377686e-01 -1.567234247922897339e-01
2.833437919616699219e-01 -2.674917876720428467e-02 -2.224706262350082397e-01
-3.611031770706176758e-01 5.539711192250251770e-02 1.529941894114017487e-02
1.850566715002059937e-01 -9.320994019508361816e-01 1.168895363807678223e-01
-3.553183376789093018e-01 -7.341687679290771484e-01 -5.938439816236495972e-02
3.228213191032409668e-01 7.496337890625000000e-01 -6.617450714111328125e-02
3.632895350456237793e-01 -5.191872119903564453e-01 -1.835624716477468610e-04
3.313708007335662842e-01 5.356805920600891113e-01 -1.412957012653350830e-01
-9.889485687017440796e-02 3.936384022235870361e-01 3.169221878051757812e-01
1.674675345420837402e-01 -9.320994019508361816e-01 -2.330966889858245850e-01
2.465394884347915649e-01 -4.820699691772460938e-01 2.647250294685363770e-01
1.614734530448913574e-01 6.204214096069335938e-01 -1.983595639467239380e-01
-1.252700835466384888e-01 4.155503511428833008e-01 -3.379264771938323975e-01
-1.115152239799499512e-02 8.544673323631286621e-01 7.015595585107803345e-02
-1.410720348358154297e-01 -4.372016191482543945e-01 3.312338590621948242e-01
-2.280166894197463989e-01 6.952073574066162109e-01 1.134885922074317932e-01
-1.832228302955627441e-01 4.001565277576446533e-01 -1.764334440231323242e-01
-3.247560262680053711e-01 -9.320994019508361816e-01 -9.959547966718673706e-02
-9.916161000728607178e-02 -5.311979651451110840e-01 -3.487410843372344971e-01
-1.356944441795349121e-01 -7.366864681243896484e-01 -3.336083590984344482e-01
2.787287533283233643e-01 4.787741601467132568e-01 2.283383458852767944e-01
-3.544190824031829834e-01 -3.023958206176757812e-01 -6.621805578470230103e-02
3.414454460144042969e-01 -9.282563924789428711e-01 1.168263852596282959e-01
-1.763596683740615845e-01 5.456581711769104004e-01 1.831495165824890137e-01
-3.524452447891235352e-01 -1.039687171578407288e-01 8.106226474046707153e-02
2.100679576396942139e-01 7.522193789482116699e-01 -2.531413733959197998e-01
2.535449862480163574e-01 7.109771966934204102e-01 3.665740787982940674e-02
1.518946290016174316e-01 -5.323640108108520508e-01 3.268243074417114258e-01
2.676587402820587158e-01 -9.320994019508361816e-01 -4.122130572795867920e-02
2.675097882747650146e-01 1.620885431766510010e-01 -2.734746597707271576e-02
1.074080690741539001e-01 -2.792075872421264648e-01 -3.453985750675201416e-01
3.442167341709136963e-01 1.308777183294296265e-01 -1.102818772196769714e-01
3.318722844123840332e-01 4.068085551261901855e-01 -1.400853842496871948e-01
3.078708238899707794e-02 -6.934762001037597656e-01 -3.592474460601806641e-01
8.100606501102447510e-02 5.305339694023132324e-01 -3.526359498500823975e-01
-1.913478597998619080e-02 4.794867932796478271e-01 -2.543987929821014404e-01
3.020913898944854736e-01 3.936384022235870361e-01 -1.099842227995395660e-02
-4.084465280175209045e-02 7.795541286468505859e-01 -3.118236660957336426e-01
-3.104735612869262695e-01 5.381256937980651855e-01 -1.868823021650314331e-01
3.587678372859954834e-01 4.373350441455841064e-01 -3.453167900443077087e-02
-1.864559948444366455e-01 -8.502778410911560059e-01 3.106915056705474854e-01
-3.374181687831878662e-01 7.812260184437036514e-03 1.261214762926101685e-01
3.510563373565673828e-01 4.507559537887573242e-01 9.296227246522903442e-02
2.231853455305099487e-01 6.882998943328857422e-01 -1.223105415701866150e-01
3.373865783214569092e-01 6.637796759605407715e-01 9.331141412258148193e-02
2.217610478401184082e-01 4.036602377891540527e-01 -1.247783005237579346e-01
2.922081053256988525e-01 -5.866277590394020081e-02 2.107727676630020142e-01
2.177615463733673096e-01 -2.785109579563140869e-01 -2.869538068771362305e-01
2.018078416585922241e-01 4.184724390506744385e-01 -1.580261141061782837e-01
-2.542373538017272949e-01 6.686530113220214844e-01 1.372223999351263046e-02
-3.270428180694580078e-01 -7.139572501182556152e-01 -1.513165980577468872e-01
3.022921681404113770e-01 -4.988767206668853760e-01 -1.977770179510116577e-01
2.212039679288864136e-01 7.769554257392883301e-01 2.444503903388977051e-01
-3.534237146377563477e-01 -4.243707954883575439e-01 7.363193482160568237e-02
2.165531218051910400e-01 -6.851211935281753540e-02 -2.878803908824920654e-01
-2.543372809886932373e-01 -1.430407464504241943e-01 -2.587517797946929932e-01
-3.250077068805694580e-01 7.505631446838378906e-01 4.806998744606971741e-02
2.065972536802291870e-01 1.876870542764663696e-01 1.508952230215072632e-01
1.820195764303207397e-01 5.368795990943908691e-01 -3.143800199031829834e-01
3.150570392608642578e-01 -7.579640746116638184e-01 1.805337667465209961e-01
-2.765772640705108643e-01 -5.943661928176879883e-01 2.309107333421707153e-01
2.544150352478027344e-01 5.634659528732299805e-01 1.034316420555114746e-02
-1.112543866038322449e-01 7.281723618507385254e-01 2.293130010366439819e-01
3.578751981258392334e-01 5.488554835319519043e-01 4.116374999284744263e-02
-4.489609599113464355e-02 -8.967788219451904297e-01 3.572198152542114258e-01
3.399891257286071777e-01 6.637796759605407715e-01 -4.074434190988540649e-02
-2.943134307861328125e-01 -7.666134834289550781e-01 2.077969312667846680e-01
3.163993060588836670e-01 -5.707725882530212402e-01 -1.774401664733886719e-01
-3.532370626926422119e-01 -2.239044755697250366e-02 -7.519605755805969238e-02
3.025532662868499756e-01 -4.628255963325500488e-01 1.972896456718444824e-01
1.119816228747367859e-01 6.747649312019348145e-01 -3.093983232975006104e-01
-2.105830907821655273e-01 -5.727049708366394043e-01 2.921786010265350342e-01
2.347059398889541626e-01 7.393074631690979004e-01 -1.023573279380798340e-01
-2.680446021258831024e-03 5.172808170318603516e-01 3.627774417400360107e-01
2.120012491941452026e-01 -3.487271070480346680e-01 -2.913736999034881592e-01
-3.242536485195159912e-01 -5.839022397994995117e-01 1.579016596078872681e-01
-2.542166113853454590e-01 1.668883413076400757e-01 -3.363317996263504028e-02
-2.379789017140865326e-02 6.606954336166381836e-01 -2.543987929821014404e-01
-4.405999928712844849e-02 -5.097073912620544434e-01 3.573300838470458984e-01
5.133894830942153931e-02 -6.899998188018798828e-01 3.563950359821319580e-01
-3.283860385417938232e-01 -6.717517971992492676e-01 1.479250490665435791e-01
2.450143396854400635e-01 4.836870729923248291e-01 -2.660419642925262451e-01
-2.224288880825042725e-01 -4.332897961139678955e-01 2.830899357795715332e-01
1.441444754600524902e-01 -3.311436474323272705e-01 3.300348818302154541e-01
-1.525832116603851318e-01 3.487465083599090576e-01 -2.055978626012802124e-01
-7.417201995849609375e-02 7.795541286468505859e-01 1.507479511201381683e-02
-9.915946051478385925e-03 -8.150345683097839355e-01 3.618254065513610840e-01
-2.173557579517364502e-01 -4.564959406852722168e-01 -2.871291339397430420e-01
1.659973338246345520e-02 -5.979716777801513672e-01 3.609685897827148438e-01
1.565784811973571777e-01 -8.983718156814575195e-01 -3.250315785408020020e-01
-1.621526181697845459e-01 6.037598252296447754e-01 1.973565667867660522e-01
7.670888304710388184e-02 -9.320994019508361816e-01 -2.621037065982818604e-01
2.435127645730972290e-01 1.872779875993728638e-01 7.409588992595672607e-02
3.574434816837310791e-01 -4.820708930492401123e-01 4.444224759936332703e-02
3.612525463104248047e-01 -6.335034370422363281e-01 -1.565473899245262146e-02
-4.634979367256164551e-02 -9.320994019508361816e-01 -2.433798648416996002e-02
-1.707624346017837524e-01 -3.717664480209350586e-01 -3.190827369689941406e-01
1.694583296775817871e-01 -3.824293017387390137e-01 3.195492327213287354e-01
-3.585505783557891846e-01 -3.627333939075469971e-01 3.468781709671020508e-02
-1.029301807284355164e-01 1.620885431766510010e-01 2.747487723827362061e-01
-2.787591144442558289e-02 5.202311873435974121e-01 2.542526423931121826e-01
1.236879229545593262e-01 3.936384022235870361e-01 -2.601034939289093018e-01
9.720052033662796021e-02 -1.499789357185363770e-01 -3.496271371841430664e-01
-2.718245983123779297e-01 5.738281011581420898e-01 2.371046394109725952e-01
7.219301909208297729e-02 4.370842874050140381e-01 2.439036965370178223e-01
7.451646775007247925e-02 7.795541286468505859e-01 2.002701759338378906e-01
-1.194032654166221619e-01 -5.642629265785217285e-01 -3.403565585613250732e-01
-2.369027137756347656e-01 -9.269385784864425659e-02 -2.721293270587921143e-01
2.609674073755741119e-02 -2.379928231239318848e-01 3.597177267074584961e-01
-1.075131595134735107e-01 -2.031340450048446655e-02 -3.452816903591156006e-01
-2.265732921659946442e-02 -5.138717889785766602e-01 -3.602937161922454834e-01
-8.176184445619583130e-02 6.637796759605407715e-01 3.293740749359130859e-01
1.108391731977462769e-01 7.795541286468505859e-01 -2.858886420726776123e-01
1.071988046169281006e-01 -8.074200749397277832e-01 3.453381657600402832e-01
1.507323980331420898e-01 -5.226427912712097168e-01 -3.274531364440917969e-01
-2.893147766590118408e-01 1.620885431766510010e-01 6.415830552577972412e-02
-2.793051600456237793e-01 -3.831229731440544128e-02 -2.275022864341735840e-01
-3.609382212162017822e-01 5.554670095443725586e-01 -1.669472083449363708e-02
1.475397646427154541e-01 7.795541286468505859e-01 -1.096003651618957520e-01
-9.863536804914474487e-03 -3.592080175876617432e-01 3.618320226669311523e-01
-5.834926385432481766e-03 7.777226567268371582e-01 -3.307287096977233887e-01
1.119458004832267761e-01 4.773856997489929199e-01 -2.291631698608398438e-01
2.270123511552810669e-01 7.795541286468505859e-01 1.390748471021652222e-01
-3.085025846958160400e-01 -5.183633565902709961e-01 1.893047839403152466e-01
2.228412777185440063e-01 -8.556054830551147461e-01 2.829089760780334473e-01
-3.430464863777160645e-01 4.567424952983856201e-01 -1.126779913902282715e-01
3.544346392154693604e-01 -6.185885071754455566e-01 -6.744288653135299683e-02
-3.539515435695648193e-01 4.096589982509613037e-01 6.961942464113235474e-02
-3.230866789817810059e-01 -6.259521842002868652e-01 -1.608671396970748901e-01
1.699673384428024292e-01 -6.760256290435791016e-01 -3.194852173328399658e-01
-2.269854843616485596e-01 -9.320994019508361816e-01 1.534289568662643433e-01
-2.704643905162811279e-01 -3.418554663658142090e-01 -2.390238493680953979e-01
-2.705379426479339600e-01 -7.333524823188781738e-01 -2.389286458492279053e-01
-1.648258566856384277e-01 -5.544823408126831055e-01 3.213948905467987061e-01
-3.272633850574493408e-01 -4.379717409610748291e-01 1.506369411945343018e-01
-1.483131796121597290e-01 7.795541286468505859e-01 -2.766946144402027130e-02
-3.397803306579589844e-01 -4.806917905807495117e-02 1.204177439212799072e-01
3.282026946544647217e-01 2.806249260902404785e-02 -1.489431113004684448e-01
-2.693549692630767822e-01 -5.354529023170471191e-01 2.403236478567123413e-01
2.244776636362075806e-01 -4.848403036594390869e-01 -2.818005383014678955e-01
-1.075310707092285156e-01 5.320929884910583496e-01 -2.316092550754547119e-01
-2.505055367946624756e-01 4.291777014732360840e-01 -2.616917788982391357e-01
1.248237639665603638e-01 8.559557795524597168e-02 3.380376398563385010e-01
-1.787029951810836792e-01 9.895898401737213135e-02 -3.157939612865447998e-01
1.309130340814590454e-01 -9.320994019508361816e-01 3.350109159946441650e-01
1.864658892154693604e-01 -9.320994019508361816e-01 -1.685258746147155762e-01
-3.234005570411682129e-01 -5.362956523895263672e-01 1.599612683057785034e-01
-2.525481581687927246e-01 7.197161912918090820e-01 -3.985866159200668335e-02
1.605518534779548645e-02 3.936384022235870361e-01 -3.485902547836303711e-01
-1.879085451364517212e-01 2.456671148538589478e-01 1.716006398200988770e-01
-2.515829503536224365e-01 3.000945150852203369e-01 -4.346292838454246521e-02
-3.631455451250076294e-02 5.404954552650451660e-01 3.583499789237976074e-01
1.734729111194610596e-01 7.795541286468505859e-01 -8.125695586204528809e-02
2.617457211017608643e-01 1.620885431766510010e-01 2.463299781084060669e-01
-2.756912112236022949e-01 7.795541286468505859e-01 -1.657668501138687134e-01
2.805904150009155273e-01 -9.320994019508361816e-01 9.199109673500061035e-02
1.453199237585067749e-01 -7.478111982345581055e-01 3.295475244522094727e-01
2.496350258588790894e-01 5.643445253372192383e-01 -5.139368772506713867e-02
1.485021710395812988e-01 7.031347155570983887e-01 -2.080571502447128296e-01
3.583860695362091064e-01 -4.533052146434783936e-01 -3.743087127804756165e-02
-1.809907108545303345e-01 6.637796759605407715e-01 -3.044486641883850098e-01
3.288502991199493408e-01 6.692242622375488281e-01 2.023135311901569366e-02
-2.566710812970995903e-03 3.349852859973907471e-01 -2.543987929821014404e-01
3.441639542579650879e-01 1.620885431766510010e-01 5.279869586229324341e-02
2.441254854202270508e-01 7.562066316604614258e-01 7.180976867675781250e-02
2.125319242477416992e-01 1.620885431766510010e-01 2.627493143081665039e-01
1.109541729092597961e-01 2.375239133834838867e-01 -2.297353297472000122e-01
1.227663084864616394e-02 8.771682977676391602e-01 -4.275078698992729187e-02
2.441320568323135376e-01 2.293269485235214233e-01 7.178695499897003174e-02
3.129710257053375244e-01 7.485374808311462402e-01 -1.033781841397285461e-01
-3.612718880176544189e-01 3.589729592204093933e-02 -1.416644733399152756e-02
2.425456345081329346e-01 2.470282912254333496e-01 -7.785233855247497559e-02
3.372678160667419434e-01 -9.208295345306396484e-01 -1.270594298839569092e-01
-3.145343661308288574e-01 5.032971501350402832e-01 1.813670396804809570e-01
-1.240965425968170166e-01 7.594595551490783691e-01 -3.043072819709777832e-01
-2.542373538017272949e-01 3.978923857212066650e-01 1.036427915096282959e-02
3.219409286975860596e-01 7.795541286468505859e-01 -3.055451437830924988e-02
-3.585251271724700928e-01 -5.773633718490600586e-01 -3.502485156059265137e-02
3.465827107429504395e-01 -1.742656230926513672e-01 1.044244319200515747e-01
-3.620146811008453369e-01 5.203866958618164062e-01 8.373378776013851166e-03
-3.316851854324340820e-01 -5.437724590301513672e-01 -1.401080042123794556e-01
1.986434906721115112e-01 4.480271041393280029e-01 3.014765381813049316e-01
6.995752453804016113e-02 -4.596206843852996826e-01 3.539432585239410400e-01
1.191162541508674622e-01 7.795541286468505859e-01 1.135960519313812256e-01
2.440491318702697754e-01 7.522306442260742188e-01 -2.219210863113403320e-01
-4.731550067663192749e-02 1.689762175083160400e-01 2.505227029323577881e-01
-9.577574580907821655e-02 7.795541286468505859e-01 -1.733869165182113647e-01
-8.689984679222106934e-03 1.620885431766510010e-01 -2.948462963104248047e-01
-2.542373538017272949e-01 2.263473719358444214e-01 4.755114205181598663e-03
1.073449105024337769e-01 7.795541286468505859e-01 -5.199724808335304260e-02
1.125955302268266678e-02 -8.181790709495544434e-01 -3.618179261684417725e-01
1.214680597186088562e-01 1.826865077018737793e-01 -2.236649096012115479e-01
-1.716315150260925293e-01 5.283980369567871094e-01 -1.880238056182861328e-01
9.780284762382507324e-02 5.810720920562744141e-01 3.492302000522613525e-01
-7.987841218709945679e-02 -9.320994019508361816e-01 8.218793570995330811e-02
-2.010118067264556885e-01 1.620885431766510010e-01 -2.614401280879974365e-01
-1.072718501091003418e-01 -4.996185600757598877e-01 3.452344834804534912e-01
1.604101955890655518e-01 -9.320994019508361816e-01 2.595774531364440918e-01
3.554903864860534668e-01 5.448993444442749023e-01 -5.942719429731369019e-02
1.323090344667434692e-01 -9.320994019508361816e-01 8.709102869033813477e-02
3.300947695970535278e-02 5.369201302528381348e-01 -3.589542806148529053e-01
-1.373506039381027222e-01 -8.743304610252380371e-01 -3.329221606254577637e-01
-2.642017006874084473e-01 -4.722828269004821777e-01 -2.471859306097030640e-01
-1.127540767192840576e-01 1.967191845178604126e-01 2.284467369318008423e-01
2.943054437637329102e-01 -1.297261565923690796e-01 -2.081853300333023071e-01
1.015160698443651199e-02 7.365747690200805664e-01 -3.301838636398315430e-01
-3.188901841640472412e-01 -4.827203750610351562e-01 -1.709983497858047485e-01
-3.507872223854064941e-01 -5.713061094284057617e-01 9.365725517272949219e-02
3.033563792705535889e-01 7.144300341606140137e-01 1.264448016881942749e-01
2.893680334091186523e-01 6.908477544784545898e-01 -1.603619158267974854e-01
-7.897491753101348877e-02 -4.599167108535766602e-01 -3.528800904750823975e-01
3.354740142822265625e-01 4.772414565086364746e-01 -1.313907206058502197e-01
5.334444716572761536e-02 -7.601273655891418457e-01 -3.562772572040557861e-01
-2.470056116580963135e-01 6.085379719734191895e-01 2.642311155796051025e-01
2.382699549198150635e-01 7.210415005683898926e-01 9.366358071565628052e-02
2.047101408243179321e-01 7.456502318382263184e-01 2.571059167385101318e-01
-1.088299900293350220e-01 1.898984313011169434e-01 -2.308589369058609009e-01
2.205516844987869263e-01 1.620885431766510010e-01 -1.912871301174163818e-01
2.853543758392333984e-01 -9.320994019508361816e-01 1.505718976259231567e-01
2.918555736541748047e-01 -1.309195160865783691e-01 2.112318128347396851e-01
1.994503736495971680e-01 -8.679065704345703125e-01 -3.010043799877166748e-01
-2.784690856933593750e-01 5.851356983184814453e-01 -2.285928875207901001e-01
1.279440801590681076e-02 6.343947052955627441e-01 3.614690899848937988e-01
-2.848901450634002686e-01 -3.204440474510192871e-01 2.200772911310195923e-01
2.171799540519714355e-01 -3.974017202854156494e-01 -2.873996496200561523e-01
-1.479229480028152466e-01 -9.320994019508361816e-01 -2.680695056915283203e-01
-3.566333055496215820e-01 4.465962052345275879e-01 4.925042018294334412e-02
2.626883387565612793e-01 -8.174254558980464935e-03 2.492426335811614990e-01
-2.181107848882675171e-01 -7.833646535873413086e-01 -2.865494191646575928e-01
-5.048041418194770813e-02 -7.859275937080383301e-01 -3.566316664218902588e-01
-1.908919215202331543e-01 7.548304200172424316e-01 2.675726711750030518e-01
1.020945608615875244e-01 -1.401118119247257710e-03 3.474524617195129395e-01
7.877997122704982758e-03 -6.435573697090148926e-01 3.621166646480560303e-01
-1.834170073270797729e-01 -7.045104503631591797e-01 3.130235373973846436e-01
2.432262301445007324e-01 -9.320994019508361816e-01 9.060686826705932617e-02
7.628668844699859619e-02 7.271863818168640137e-01 -2.429535984992980957e-01
7.107913494110107422e-02 7.327129244804382324e-01 2.442024797201156616e-01
2.544150352478027344e-01 1.666479706764221191e-01 8.013394661247730255e-03
1.266166120767593384e-01 2.559274435043334961e-01 2.205467075109481812e-01
-3.203314244747161865e-01 -9.320994019508361816e-01 -2.371435426175594330e-02
3.515474498271942139e-01 3.881185129284858704e-02 8.922981470823287964e-02
2.282763868570327759e-01 -9.320994019508361816e-01 5.932487547397613525e-02
-3.494572043418884277e-01 -6.231762170791625977e-01 -9.720218181610107422e-02
1.582054197788238525e-01 5.809071063995361328e-01 3.242104649543762207e-01
3.354881405830383301e-01 -2.761752009391784668e-01 -1.313558518886566162e-01
-1.814148873090744019e-01 4.536224603652954102e-01 -3.146703541278839111e-01
2.982417643070220947e-01 6.652624607086181641e-01 -1.389363408088684082e-01
-3.570885956287384033e-01 -4.894534647464752197e-01 4.579047113656997681e-02
-2.157994955778121948e-01 2.531307041645050049e-01 -1.347963809967041016e-01
-3.243516683578491211e-01 -7.815039157867431641e-01 -1.578130871057510376e-01
-1.536059677600860596e-01 -4.773097932338714600e-01 3.260419666767120361e-01
-9.383463114500045776e-02 -9.320994019508361816e-01 2.889586389064788818e-01
5.945003405213356018e-02 -1.333939731121063232e-01 -3.554741442203521729e-01
2.556149661540985107e-01 -9.320994019508361816e-01 -1.493380665779113770e-01
2.447900027036666870e-01 2.852106392383575439e-01 6.933183223009109497e-02
-3.144334852695465088e-01 -1.257373988628387451e-01 1.815753579139709473e-01
-3.533596098423004150e-01 -2.504003942012786865e-01 7.411370426416397095e-02
2.544150352478027344e-01 5.318715572357177734e-01 -4.334946628659963608e-03
