4.512907862663269043e-01 -3.840058743953704834e-01 -5.559850931167602539e-01
-4.191145002841949463e-01 -3.840058743953704834e-01 5.165103673934936523e-01
-3.398536741733551025e-01 -3.840058743953704834e-01 6.373006105422973633e-02
3.688113689422607422e-01 -3.840058743953704834e-01 -3.482765257358551025e-01
-3.498092293739318848e-02 3.464048206806182861e-01 6.005657911300659180e-01
-1.377283334732055664e-01 1.871847361326217651e-01 7.792648077011108398e-01
-3.749990761280059814e-01 3.275217115879058838e-01 1.974733918905258179e-01
-4.354251176118850708e-02 1.260703951120376587e-01 7.918887734413146973e-01
4.720238745212554932e-01 -7.424145191907882690e-02 -7.618944644927978516e-01
2.038476616144180298e-01 1.770573705434799194e-01 -7.618944644927978516e-01
2.984726727008819580e-01 -3.840058743953704834e-01 3.096128702163696289e-01
1.464626044034957886e-01 -3.840058743953704834e-01 7.230292558670043945e-01
9.090012311935424805e-02 4.819833338260650635e-01 -1.365843862295150757e-01
2.554740570485591888e-02 5.189229249954223633e-01 -1.065320074558258057e-01
7.305067498236894608e-03 -3.840058743953704834e-01 6.542460322380065918e-01
1.312478096224367619e-03 1.815839558839797974e-01 7.698037028312683105e-01
-5.205895304679870605e-01 -3.394971489906311035e-01 -4.152205288410186768e-01
-4.901752173900604248e-01 -3.840058743953704834e-01 3.813887238502502441e-01
-4.373108446598052979e-01 2.933506965637207031e-01 6.063015460968017578e-01
4.105847477912902832e-01 3.012895882129669189e-01 -3.051325678825378418e-01
3.266692161560058594e-01 -3.840058743953704834e-01 6.640534996986389160e-01
-3.356352448463439941e-01 7.117803394794464111e-02 7.792648077011108398e-01
5.681779384613037109e-01 -2.592786252498626709e-01 -6.331933736801147461e-01
4.504064023494720459e-01 2.787818610668182373e-01 2.652685344219207764e-01
2.792412638664245605e-01 3.755287826061248779e-01 4.272591769695281982e-01
-1.865757852792739868e-01 2.550248801708221436e-01 -7.486757040023803711e-01
-5.205895304679870605e-01 1.372405886650085449e-01 6.873741745948791504e-01
-5.132679343223571777e-01 2.086857855319976807e-01 -7.618944644927978516e-01
-4.621492698788642883e-02 3.275608420372009277e-01 -6.183751225471496582e-01
2.096714824438095093e-01 4.148505330085754395e-01 1.137358993291854858e-01
-5.030593872070312500e-01 -3.840058743953704834e-01 -2.634951770305633545e-01
-2.331750839948654175e-01 4.052964746952056885e-01 1.510716229677200317e-02
2.560565471649169922e-01 3.886331319808959961e-01 -8.575001358985900879e-02
2.445263117551803589e-01 -3.840058743953704834e-01 8.019222617149353027e-01
4.152913391590118408e-01 2.986296117305755615e-01 1.187770739197731018e-01
-5.205895304679870605e-01 5.203024484217166901e-03 -6.453751325607299805e-01
-2.040041685104370117e-01 -3.840058743953704834e-01 -5.603687763214111328e-01
-5.205895304679870605e-01 -8.308458141982555389e-03 5.880367159843444824e-01
-5.205895304679870605e-01 -3.532050848007202148e-01 -5.055412650108337402e-03
1.115823388099670410e-01 4.702937006950378418e-01 3.470827043056488037e-01
5.054855346679687500e-01 6.538064032793045044e-02 1.650095134973526001e-01
-4.629911780357360840e-01 -3.840058743953704834e-01 -3.376522064208984375e-01
-5.205895304679870605e-01 1.557510048151016235e-01 -5.642057061195373535e-01
-5.205895304679870605e-01 1.733232140541076660e-01 -4.695376455783843994e-01
5.054855346679687500e-01 -3.289227187633514404e-01 3.619763255119323730e-01
-8.489559590816497803e-02 2.495297491550445557e-01 7.759034037590026855e-01
4.425151273608207703e-03 -2.037787586450576782e-01 7.792648077011108398e-01
-5.655755996704101562e-01 -2.375183254480361938e-01 -6.597728133201599121e-01
5.054855346679687500e-01 -2.583472728729248047e-01 -6.864548921585083008e-01
-1.146825477480888367e-01 -3.840058743953704834e-01 5.498840212821960449e-01
-5.205895304679870605e-01 1.118517890572547913e-01 -4.131250083446502686e-01
5.054855346679687500e-01 -2.593294978141784668e-01 1.652325689792633057e-01
1.555744856595993042e-01 1.623789668083190918e-01 -7.618944644927978516e-01
-4.876981377601623535e-01 2.657186388969421387e-01 3.984565555583685637e-04
2.924199402332305908e-01 -3.840058743953704834e-01 1.204734519124031067e-01
6.241548433899879456e-02 4.980841875076293945e-01 -2.130638808012008667e-01
1.980649530887603760e-01 -3.840058743953704834e-01 1.558800488710403442e-01
4.592766463756561279e-01 -3.840058743953704834e-01 4.810802936553955078e-01
3.261526525020599365e-01 3.466327786445617676e-01 -5.841140747070312500e-01
1.217840388417243958e-01 2.947340309619903564e-01 -6.773440241813659668e-01
-5.205895304679870605e-01 -3.152764439582824707e-01 -1.241247653961181641e-01
-1.899088472127914429e-01 4.290231466293334961e-01 2.400440722703933716e-01
-4.045123755931854248e-01 -3.840058743953704834e-01 -6.069876551628112793e-01
-3.517243862152099609e-01 -3.840058743953704834e-01 3.573147356510162354e-01
3.125826716423034668e-01 -3.840058743953704834e-01 -3.411858081817626953e-01
-2.348049432039260864e-01 1.577839106321334839e-01 7.792648077011108398e-01
2.686374783515930176e-01 2.905322313308715820e-01 -6.848925352096557617e-01
2.109197825193405151e-01 4.141451716423034668e-01 2.573462724685668945e-01
-5.127269625663757324e-01 2.519930899143218994e-01 6.041972637176513672e-01
5.054855346679687500e-01 1.168029606342315674e-01 8.829475939273834229e-02
4.030870497226715088e-01 -3.840058743953704834e-01 -1.429325640201568604e-01
4.089627265930175781e-01 -2.809166312217712402e-01 7.792648077011108398e-01
1.716896146535873413e-02 -3.840058743953704834e-01 5.045868754386901855e-01
3.545106053352355957e-01 3.329845368862152100e-01 4.459153413772583008e-01
4.645428061485290527e-01 -3.840058743953704834e-01 3.195259571075439453e-01
-8.492141962051391602e-02 -3.840058743953704834e-01 2.064365595579147339e-01
-2.733264267444610596e-01 3.326685428619384766e-01 6.254283189773559570e-01
-1.230332925915718079e-01 -3.840058743953704834e-01 9.431578963994979858e-02
1.550657749176025391e-01 -3.840058743953704834e-01 5.952966809272766113e-01
2.661903761327266693e-02 -3.840058743953704834e-01 2.469381392002105713e-01
-5.205895304679870605e-01 -4.229593276977539062e-02 4.330585598945617676e-01
5.054855346679687500e-01 -3.659572303295135498e-01 6.088226437568664551e-01
2.649238705635070801e-01 3.836212754249572754e-01 2.623307108879089355e-01
4.722155928611755371e-01 -1.828861832618713379e-01 7.792648077011108398e-01
5.054855346679687500e-01 -1.506614238023757935e-01 4.264237284660339355e-01
-4.336289316415786743e-02 5.093874335289001465e-01 -2.573191523551940918e-01
5.054855346679687500e-01 -6.551621109247207642e-02 -6.893810033798217773e-01
-5.205895304679870605e-01 2.339963316917419434e-01 -5.508323311805725098e-01
-5.205895304679870605e-01 7.797819375991821289e-02 -7.050171494483947754e-01
-4.914557933807373047e-01 2.636573910713195801e-01 -2.819497883319854736e-01
5.025233030319213867e-01 -2.018495351076126099e-01 -7.601051330566406250e-01
-5.205895304679870605e-01 -1.628709882497787476e-01 8.435171097517013550e-02
-1.636835783720016479e-01 -3.840058743953704834e-01 -7.174826860427856445e-01
4.133689701557159424e-01 2.997165024280548096e-01 -5.360110998153686523e-01
4.123965501785278320e-01 -3.840058743953704834e-01 2.200094908475875854e-01
2.371734231710433960e-01 3.581395447254180908e-01 5.793269276618957520e-01
9.446797519922256470e-02 1.690264940261840820e-01 -2.494135349988937378e-01
3.123987317085266113e-01 3.567875325679779053e-01 2.466388046741485596e-01
3.365715444087982178e-01 1.876445263624191284e-01 -7.601051330566406250e-01
3.788643777370452881e-01 1.352810710668563843e-01 7.792648077011108398e-01
5.054855346679687500e-01 1.651504933834075928e-01 6.362423896789550781e-01
2.535237371921539307e-01 -3.840058743953704834e-01 -4.283933043479919434e-01
-3.478962779045104980e-01 3.423849940299987793e-01 -3.406115472316741943e-01
-1.083382815122604370e-01 -3.840058743953704834e-01 -1.469787955284118652e-01
5.220125615596771240e-02 -3.840058743953704834e-01 7.411101460456848145e-01
5.054855346679687500e-01 -2.532464563846588135e-01 4.398195743560791016e-01
-3.041633665561676025e-01 -3.840058743953704834e-01 -6.958387494087219238e-01
1.678521484136581421e-01 4.384891688823699951e-01 8.592824637889862061e-02
-2.165890187025070190e-01 3.925335705280303955e-01 5.170758366584777832e-01
-2.419494539499282837e-01 -3.840058743953704834e-01 2.513052523136138916e-01
-1.408931314945220947e-01 4.559029042720794678e-01 1.432042121887207031e-01
2.456053793430328369e-01 -3.840058743953704834e-01 3.562620878219604492e-01
-5.205895304679870605e-01 -3.740193843841552734e-01 5.308727622032165527e-01
-5.205895304679870605e-01 3.196291998028755188e-02 -1.758259087800979614e-01
1.839187443256378174e-01 4.294075965881347656e-01 -3.488928377628326416e-01
-9.103930741548538208e-02 2.275698781013488770e-01 -2.526908218860626221e-01
4.709463566541671753e-02 -3.840058743953704834e-01 -2.133485674858093262e-01
5.054855346679687500e-01 -1.147913038730621338e-01 -4.303861260414123535e-01
-1.366783119738101959e-02 -3.840058743953704834e-01 -7.152266502380371094e-01
5.054855346679687500e-01 -4.842624813318252563e-02 6.692058593034744263e-02
-5.205895304679870605e-01 -6.396371871232986450e-02 -1.274128258228302002e-01
-3.525128662586212158e-01 3.398531675338745117e-01 -1.924021989107131958e-01
-2.846511900424957275e-01 2.984740734100341797e-01 -6.706260442733764648e-01
-5.111303925514221191e-01 2.651330456137657166e-02 2.612712383270263672e-01
-2.557033598423004150e-01 3.883660137653350830e-01 -5.091470479965209961e-01
6.814830750226974487e-02 2.718995511531829834e-01 -7.183641195297241211e-01
-2.942267954349517822e-01 3.718161582946777344e-01 3.716898560523986816e-01
-2.751108407974243164e-01 -3.840058743953704834e-01 8.248721361160278320e-01
-4.289649724960327148e-01 -7.086296379566192627e-02 7.792648077011108398e-01
5.260862410068511963e-02 3.666341006755828857e-01 5.639529228210449219e-01
1.165472120046615601e-01 4.674869477748870850e-01 1.475625336170196533e-01
-4.481063485145568848e-01 -3.840058743953704834e-01 6.229864358901977539e-01
-2.337933778762817383e-01 4.049579799175262451e-01 -1.862956583499908447e-01
2.842090725898742676e-01 -3.840058743953704834e-01 -5.618215799331665039e-01
3.278588056564331055e-01 3.480483889579772949e-01 5.204225778579711914e-01
3.771826624870300293e-01 2.651394903659820557e-01 -7.305067777633666992e-01
3.967007398605346680e-01 -3.840058743953704834e-01 1.696045994758605957e-01
3.177940845489501953e-01 3.113983571529388428e-01 6.639253497123718262e-01
-5.187993049621582031e-01 7.405228167772293091e-02 7.758045792579650879e-01
-5.205895304679870605e-01 -2.181988656520843506e-01 1.145361512899398804e-01
-1.743959486484527588e-01 4.375304579734802246e-01 2.868498265743255615e-01
-3.792184591293334961e-01 -8.866760134696960449e-02 -7.618944644927978516e-01
4.984144568443298340e-01 2.419988065958023071e-01 -7.146720290184020996e-01
2.311461269855499268e-01 4.027137458324432373e-01 -2.451246678829193115e-01
4.226628243923187256e-01 -3.840058743953704834e-01 -3.142904043197631836e-01
5.054855346679687500e-01 1.070121526718139648e-01 -4.973193705081939697e-01
3.439146280288696289e-01 1.061424389481544495e-01 -7.618944644927978516e-01
-2.223492413759231567e-01 4.112337529659271240e-01 4.386876821517944336e-01
-3.864592174068093300e-03 1.769341081380844116e-01 -6.157855391502380371e-01
-5.205895304679870605e-01 -5.436256900429725647e-02 2.301701009273529053e-01
5.022425055503845215e-01 2.059729397296905518e-01 5.260360240936279297e-01
-9.859598428010940552e-02 4.790983498096466064e-01 3.590189218521118164e-01
5.661313533782958984e-01 -2.632231414318084717e-01 -2.082921005785465240e-02
5.054855346679687500e-01 -2.227978408336639404e-01 -2.183691859245300293e-01
-5.197159647941589355e-01 -3.840058743953704834e-01 2.817499637603759766e-01
-5.183893442153930664e-01 1.748914122581481934e-01 -1.189035847783088684e-01
-5.205895304679870605e-01 8.042491972446441650e-02 4.407078623771667480e-01
-4.431561827659606934e-01 -3.840058743953704834e-01 1.985778957605361938e-01
1.973957866430282593e-01 3.452993631362915039e-01 6.025674343109130859e-01
-2.635316848754882812e-01 1.756730675697326660e-01 -7.618944644927978516e-01
-5.641663074493408203e-02 -3.840058743953704834e-01 -1.816966831684112549e-01
-2.761952020227909088e-02 2.395609021186828613e-01 2.585574388504028320e-01
1.457797437906265259e-01 -3.840058743953704834e-01 3.240848481655120850e-01
4.952907264232635498e-01 -3.840058743953704834e-01 6.422360241413116455e-02
-2.173413187265396118e-01 4.139798581600189209e-01 1.576145738363265991e-01
4.960498809814453125e-01 1.722294688224792480e-01 -7.618944644927978516e-01
-3.541025817394256592e-01 -3.840058743953704834e-01 7.035151124000549316e-01
2.514444664120674133e-02 -3.840058743953704834e-01 4.161369204521179199e-01
-3.747577546164393425e-03 -3.840058743953704834e-01 -2.269390821456909180e-01
5.054855346679687500e-01 -2.406684309244155884e-01 -6.206212639808654785e-01
5.054855346679687500e-01 -2.861632704734802246e-01 -1.009381040930747986e-01
-1.712663769721984863e-01 3.634340763092041016e-01 5.697435140609741211e-01
5.054855346679687500e-01 -2.117577642202377319e-01 2.988574504852294922e-01
1.739185750484466553e-01 4.350592494010925293e-01 -2.037553638219833374e-01
-3.217199146747589111e-01 -3.840058743953704834e-01 -1.317447423934936523e-01
-5.205895304679870605e-01 -2.864215373992919922e-01 -6.709654927253723145e-01
1.460894849151372910e-02 3.422088921070098877e-01 -5.920617580413818359e-01
-4.626027941703796387e-01 2.325601875782012939e-01 -2.492834180593490601e-01
-5.205895304679870605e-01 1.442765295505523682e-01 3.721750974655151367e-01
-5.205895304679870605e-01 -2.523469366133213043e-02 6.620401144027709961e-01
-3.029043078422546387e-01 3.670577108860015869e-01 1.442901343107223511e-01
-1.655364781618118286e-01 -3.840058743953704834e-01 4.624789357185363770e-01
-5.184128284454345703e-01 1.542659401893615723e-01 -2.366780489683151245e-01
5.054855346679687500e-01 2.186018377542495728e-01 6.535847187042236328e-01
-5.879868287593126297e-03 5.299434661865234375e-01 2.499327361583709717e-01
5.054855346679687500e-01 -3.092736005783081055e-01 5.396500825881958008e-01
5.263405665755271912e-02 -3.840058743953704834e-01 -1.097134351730346680e-01
-1.149809285998344421e-01 3.365543484687805176e-01 -6.022194623947143555e-01
-3.131709620356559753e-02 1.206369176506996155e-01 -7.711012363433837891e-01
-5.205895304679870605e-01 -3.388925790786743164e-01 1.684580296277999878e-01
-5.205895304679870605e-01 -9.132847189903259277e-02 -5.979599356651306152e-01
4.165963828563690186e-01 -3.840058743953704834e-01 -6.438490152359008789e-01
-1.710540801286697388e-01 3.235527276992797852e-01 6.419273018836975098e-01
5.054855346679687500e-01 -1.755900382995605469e-01 1.483491063117980957e-01
-4.752267599105834961e-01 -3.840058743953704834e-01 1.125374883413314819e-01
1.167356222867965698e-02 1.581918448209762573e-01 2.662262916564941406e-01
4.832439720630645752e-01 2.434740811586380005e-01 -2.450219541788101196e-01
-4.880849644541740417e-02 4.449694454669952393e-01 -4.074665606021881104e-01
-3.717416664585471153e-03 1.942509710788726807e-01 4.467387124896049500e-02
5.054855346679687500e-01 -2.892791330814361572e-01 6.452208757400512695e-02
-5.205895304679870605e-01 -1.449865996837615967e-01 3.026248812675476074e-01
-5.205895304679870605e-01 -3.426022827625274658e-01 -4.762957394123077393e-01
-1.262959390878677368e-01 -3.840058743953704834e-01 3.953519761562347412e-01
5.054855346679687500e-01 1.493010520935058594e-01 4.658530950546264648e-01
5.366978049278259277e-02 5.030265450477600098e-01 -2.737481519579887390e-02
-1.702003413811326027e-03 1.749608814716339111e-01 -1.185063943266868591e-01
5.054855346679687500e-01 1.533238291740417480e-01 6.089132651686668396e-02
-5.205895304679870605e-01 -2.124425619840621948e-01 3.029144704341888428e-01
-5.339016392827033997e-02 3.793236315250396729e-01 -5.253907442092895508e-01
4.982441961765289307e-01 -2.589420676231384277e-01 -2.450219541788101196e-01
-2.843860983848571777e-01 -3.840058743953704834e-01 5.679933428764343262e-01
-3.311458528041839600e-01 -3.840058743953704834e-01 -2.832714617252349854e-01
3.835318684577941895e-01 -3.840058743953704834e-01 -5.093137174844741821e-02
5.054855346679687500e-01 -8.049586415290832520e-02 1.011483296751976013e-01
7.778749614953994751e-02 -3.840058743953704834e-01 5.755977034568786621e-01
-3.108608126640319824e-01 -3.840058743953704834e-01 3.902892768383026123e-01
1.044681519269943237e-01 2.229797095060348511e-01 -2.458975166082382202e-01
5.054855346679687500e-01 1.311937272548675537e-01 2.796319127082824707e-01
3.218412995338439941e-01 3.514499366283416748e-01 3.395840525627136230e-01
1.285343021154403687e-01 -3.840058743953704834e-01 4.183987379074096680e-01
2.842413485050201416e-01 -3.840058743953704834e-01 -2.085235863924026489e-01
1.875325739383697510e-01 2.828085422515869141e-01 7.156714797019958496e-01
7.595171034336090088e-02 4.409280717372894287e-01 4.294857978820800781e-01
5.054855346679687500e-01 -3.729540109634399414e-01 2.323155105113983154e-01
5.054855346679687500e-01 -9.621977061033248901e-02 -3.851671814918518066e-01
-4.246957004070281982e-01 -3.165384531021118164e-01 7.792648077011108398e-01
-2.758729159832000732e-01 3.818818628787994385e-01 -3.493995964527130127e-01
3.185904026031494141e-01 -3.840058743953704834e-01 7.988005876541137695e-03
-5.205895304679870605e-01 -2.971143424510955811e-01 3.925755620002746582e-01
-4.604348838329315186e-01 2.806699872016906738e-01 -3.098317235708236694e-02
4.128152430057525635e-01 -3.840058743953704834e-01 -8.298571221530437469e-03
-1.038809493184089661e-01 -3.840058743953704834e-01 6.246378421783447266e-01
-4.094743132591247559e-01 3.086160719394683838e-01 -2.820887267589569092e-01
1.769483685493469238e-01 4.333472251892089844e-01 -2.915488481521606445e-01
3.548882305622100830e-01 3.327712714672088623e-01 2.280677407979965210e-01
4.930142164230346680e-01 2.546990811824798584e-01 -6.246312856674194336e-01
-3.266789317131042480e-01 3.540199100971221924e-01 -2.978305220603942871e-01
1.830852329730987549e-01 3.351807892322540283e-01 -6.046876907348632812e-01
3.692173659801483154e-01 -3.840058743953704834e-01 3.441253304481506348e-01
4.083806276321411133e-01 3.025359511375427246e-01 6.649545431137084961e-01
5.054855346679687500e-01 -2.798483371734619141e-01 -3.825776278972625732e-01
-1.971365213394165039e-01 -3.840058743953704834e-01 -6.231824159622192383e-01
-2.532002888619899750e-02 -3.840058743953704834e-01 -7.815896272659301758e-01
-5.205895304679870605e-01 1.820985525846481323e-01 5.704420208930969238e-01
-5.205895304679870605e-01 8.610393851995468140e-02 -6.064167246222496033e-02
-4.797151982784271240e-01 -3.840058743953704834e-01 -1.569956094026565552e-01
-2.435356564819812775e-02 -3.840058743953704834e-01 5.942294001579284668e-01
2.336658351123332977e-02 -3.840058743953704834e-01 1.296313107013702393e-01
2.233833223581314087e-01 4.071014225482940674e-01 4.689836502075195312e-01
5.054855346679687500e-01 8.607655018568038940e-02 4.170163869857788086e-01
2.424118109047412872e-02 5.196605324745178223e-01 -2.277657538652420044e-01
5.054855346679687500e-01 -2.086829543113708496e-01 -1.496661901473999023e-01
2.337982952594757080e-01 -3.840058743953704834e-01 -4.430083557963371277e-03
-4.255380034446716309e-01 -3.840058743953704834e-01 4.223256409168243408e-01
1.082166004925966263e-02 3.140544295310974121e-01 -6.426379084587097168e-01
5.054855346679687500e-01 -1.628492213785648346e-02 1.247691735625267029e-02
-1.803195476531982422e-01 2.155104130506515503e-01 7.774725556373596191e-01
7.220473140478134155e-02 1.169868856668472290e-01 -7.618944644927978516e-01
-2.194984704256057739e-01 1.602110415697097778e-01 -7.618944644927978516e-01
-1.524018496274948120e-01 4.495919048786163330e-01 -2.036115527153015137e-01
-4.206787645816802979e-01 -3.840058743953704834e-01 7.308967113494873047e-01
4.689608216285705566e-01 2.682945132255554199e-01 -3.681604564189910889e-01
3.367945849895477295e-01 -3.840058743953704834e-01 -1.191824004054069519e-01
-5.187993049621582031e-01 -2.213392257690429688e-01 2.594691812992095947e-01
5.054855346679687500e-01 -1.867974400520324707e-01 5.302515625953674316e-01
5.054855346679687500e-01 -3.502154350280761719e-01 4.009380638599395752e-01
-3.309726715087890625e-01 3.516651690006256104e-01 -1.033809036016464233e-01
5.054855346679687500e-01 2.502424083650112152e-02 -7.099115848541259766e-01
-4.981581270694732666e-01 2.599819004535675049e-01 -1.035247147083282471e-01
-5.205895304679870605e-01 -1.620251387357711792e-01 -5.096136927604675293e-01
-5.569098591804504395e-01 -2.353063821792602539e-01 1.400030404329299927e-02
-1.563842967152595520e-02 5.245921611785888672e-01 1.194217801094055176e-01
5.054855346679687500e-01 -1.448206901550292969e-01 -3.465057909488677979e-01
-3.269029855728149414e-01 -3.840058743953704834e-01 5.514258146286010742e-01
4.536699950695037842e-01 1.632115095853805542e-01 -2.450219541788101196e-01
-1.816823184490203857e-01 4.335350394248962402e-01 -2.397968769073486328e-01
4.059349000453948975e-01 3.039183020591735840e-01 5.654380321502685547e-01
2.383679300546646118e-01 -3.840058743953704834e-01 -7.541003823280334473e-01
-4.286264777183532715e-01 1.710574477910995483e-01 -7.524353265762329102e-01
-4.130646884441375732e-01 1.732478737831115723e-01 -2.450219541788101196e-01
3.371869027614593506e-01 3.427763283252716064e-01 -1.563156843185424805e-01
-5.111303925514221191e-01 1.951862275600433350e-01 -2.244643680751323700e-02
4.087083637714385986e-01 -3.840058743953704834e-01 -4.771664142608642578e-01
-1.465334091335535049e-02 -3.840058743953704834e-01 -6.033171415328979492e-01
4.760916233062744141e-01 -3.840058743953704834e-01 -3.072535097599029541e-01
-2.920207381248474121e-01 -3.840058743953704834e-01 1.444564312696456909e-01
-3.580197095870971680e-01 -3.098132088780403137e-02 7.792648077011108398e-01
-1.551440060138702393e-01 -3.840058743953704834e-01 -1.617511212825775146e-01
-2.862335182726383209e-02 -3.840058743953704834e-01 3.226610645651817322e-02
-5.205895304679870605e-01 -1.018406897783279419e-01 2.874612510204315186e-01
-1.205542981624603271e-01 2.824426591396331787e-01 -6.994252204895019531e-01
1.154612973332405090e-01 -3.840058743953704834e-01 1.076968610286712646e-01
5.054855346679687500e-01 3.525391966104507446e-02 5.032142996788024902e-01
-4.943094849586486816e-01 -6.362672150135040283e-02 -7.618944644927978516e-01
-4.399874806404113770e-01 -3.840058743953704834e-01 -4.161812067031860352e-01
-1.209417060017585754e-01 4.618421494960784912e-01 -3.771559000015258789e-01
5.054855346679687500e-01 2.113653272390365601e-01 3.235761523246765137e-01
-9.762013703584671021e-02 4.211155474185943604e-01 -4.503169953823089600e-01
5.034683346748352051e-01 2.487901598215103149e-01 6.930972337722778320e-01
3.999643325805664062e-01 3.072934150695800781e-01 -4.095526412129402161e-02
4.130970239639282227e-01 -2.720650136470794678e-01 -7.618944644927978516e-01
5.213604569435119629e-01 -2.264273315668106079e-01 6.488566398620605469e-01
-4.573923945426940918e-01 1.145332977175712585e-01 7.792648077011108398e-01
2.719147801399230957e-01 1.709107011556625366e-01 7.792648077011108398e-01
-4.364049434661865234e-01 2.809918522834777832e-01 -7.020303606986999512e-01
4.814214110374450684e-01 2.612517476081848145e-01 1.894591748714447021e-01
-4.531612396240234375e-01 2.846585214138031006e-01 3.868495821952819824e-01
-5.205895304679870605e-01 5.723825469613075256e-02 -1.404740959405899048e-01
-2.305424809455871582e-01 -3.840058743953704834e-01 -7.839227914810180664e-01
5.054855346679687500e-01 -1.596194058656692505e-01 -1.532119140028953552e-02
-3.378647863864898682e-01 1.829193383455276489e-01 2.592588365077972412e-01
3.523671627044677734e-01 -3.840058743953704834e-01 2.469127178192138672e-01
-2.896056510508060455e-03 1.533385217189788818e-01 -7.601051330566406250e-01
3.021148741245269775e-01 2.180989831686019897e-01 -7.618944644927978516e-01
3.242885693907737732e-02 4.883902072906494141e-01 -3.294648230075836182e-01
5.054855346679687500e-01 -2.717372775077819824e-01 -4.274071753025054932e-01
-4.610218703746795654e-01 2.803471684455871582e-01 -8.758089691400527954e-02
1.001734212040901184e-01 4.767426252365112305e-01 -3.316023945808410645e-01
-5.205895304679870605e-01 -2.104527056217193604e-01 4.621874094009399414e-01
-9.340209886431694031e-03 4.792245924472808838e-01 3.601703941822052002e-01
3.468759655952453613e-01 3.372997939586639404e-01 5.938722491264343262e-01
-3.363944292068481445e-01 1.844895184040069580e-01 -7.618944644927978516e-01
-5.205895304679870605e-01 1.060191690921783447e-01 6.061822175979614258e-01
5.703243017196655273e-01 -2.284534126520156860e-01 -6.633602380752563477e-01
1.498514413833618164e-01 4.486625492572784424e-01 -6.744926422834396362e-02
-2.275068163871765137e-01 1.970127075910568237e-01 7.698037028312683105e-01
-4.035429060459136963e-01 3.118689358234405518e-01 -5.610154271125793457e-01
5.054855346679687500e-01 1.722245812416076660e-01 -4.393473267555236816e-01
-5.205895304679870605e-01 9.011479560285806656e-04 -1.661195978522300720e-02
7.564648240804672241e-02 4.906050860881805420e-01 2.702255845069885254e-01
3.146699815988540649e-02 -3.840058743953704834e-01 -3.523609042167663574e-01
-1.286820024251937866e-01 -3.840058743953704834e-01 -7.424586415290832520e-01
-5.205895304679870605e-01 -2.672977447509765625e-01 -3.573600351810455322e-01
4.686170443892478943e-02 4.662269055843353271e-01 3.836955428123474121e-01
-5.205895304679870605e-01 -3.672926127910614014e-01 -7.399893999099731445e-01
-5.205895304679870605e-01 -1.981564462184906006e-01 1.785090714693069458e-01
5.054855346679687500e-01 2.162284851074218750e-01 -1.122423484921455383e-01
-1.819102764129638672e-01 -3.840058743953704834e-01 -2.135393321514129639e-01
-5.111303925514221191e-01 -1.903378814458847046e-01 7.698584198951721191e-01
1.025829687714576721e-01 1.744922697544097900e-01 7.774725556373596191e-01
1.522189229726791382e-01 4.473241865634918213e-01 2.331089228391647339e-01
1.112536340951919556e-01 1.788251698017120361e-01 2.585574388504028320e-01
-5.205895304679870605e-01 -1.752535104751586914e-01 -2.284407764673233032e-01
5.054855346679687500e-01 -2.171765565872192383e-01 7.514651119709014893e-02
-3.430028259754180908e-01 3.450684845447540283e-01 -2.035150676965713501e-02
-1.595267951488494873e-01 -3.840058743953704834e-01 7.437942922115325928e-02
5.054855346679687500e-01 1.993058472871780396e-01 9.800583869218826294e-02
1.734685599803924561e-01 2.824641764163970947e-01 -6.993851065635681152e-01
1.457347422838211060e-01 -3.840058743953704834e-01 -5.682865157723426819e-02
3.460982143878936768e-01 -3.840058743953704834e-01 -6.782382130622863770e-01
2.703964710235595703e-01 -3.840058743953704834e-01 -7.216697335243225098e-01
-5.205895304679870605e-01 2.859601192176342010e-02 3.873797953128814697e-01
-3.400963246822357178e-01 3.466621041297912598e-01 5.359814167022705078e-01
-1.018336713314056396e-01 -3.840058743953704834e-01 7.329120039939880371e-01
5.054855346679687500e-01 -2.066549509763717651e-01 2.934216521680355072e-02
-4.682280421257019043e-01 2.763957977294921875e-01 1.844972372055053711e-01
5.054855346679687500e-01 1.002090498805046082e-01 7.787541747093200684e-01
-9.527534991502761841e-02 1.887519657611846924e-01 7.792648077011108398e-01
3.574895262718200684e-01 -3.840058743953704834e-01 -5.438590049743652344e-01
-2.340399026870727539e-01 4.048229753971099854e-01 3.871919810771942139e-01
-1.050819158554077148e-01 4.755422174930572510e-01 2.436774820089340210e-01
-3.400747776031494141e-01 2.939856350421905518e-01 6.954412460327148438e-01
5.054855346679687500e-01 -3.394238054752349854e-01 4.674251973628997803e-01
1.652479022741317749e-01 -3.840058743953704834e-01 -3.418226838111877441e-01
3.848052350804209709e-03 -3.840058743953704834e-01 -4.013355374336242676e-01
-2.935811281204223633e-01 1.173292919993400574e-01 7.792648077011108398e-01
-5.205895304679870605e-01 -2.668281495571136475e-01 -6.228302121162414551e-01
-5.205895304679870605e-01 2.423598021268844604e-01 3.781172931194305420e-01
2.717494368553161621e-01 3.209103643894195557e-01 6.467092633247375488e-01
5.054855346679687500e-01 -3.428292572498321533e-01 -7.076047658920288086e-01
1.325502097606658936e-01 3.959713280200958252e-01 5.108538269996643066e-01
-1.263702809810638428e-01 4.218326508998870850e-01 4.640461504459381104e-01
2.984325587749481201e-01 -3.840058743953704834e-01 -6.444535851478576660e-01
-5.116742849349975586e-01 2.193238139152526855e-01 -3.754908442497253418e-01
-4.598527848720550537e-01 2.809889018535614014e-01 -5.477076768875122070e-01
2.611319720745086670e-01 3.857647478580474854e-01 -5.023214221000671387e-01
-3.320125937461853027e-01 -3.840058743953704834e-01 2.227131277322769165e-02
5.107269436120986938e-02 -3.840058743953704834e-01 2.715743845328688622e-03
4.528922438621520996e-01 2.773770391941070557e-01 3.083224892616271973e-01
4.026615023612976074e-01 -3.840058743953704834e-01 4.693857431411743164e-01
-5.205895304679870605e-01 2.421347796916961670e-01 -6.089824438095092773e-01
5.054855346679687500e-01 8.612350374460220337e-02 -3.796456754207611084e-01
2.197939455509185791e-01 4.091294407844543457e-01 -3.039644658565521240e-01
4.906848967075347900e-01 -3.840058743953704834e-01 2.865553498268127441e-01
1.503024399280548096e-01 -3.840058743953704834e-01 6.811727285385131836e-01
-5.205895304679870605e-01 -1.099698618054389954e-01 -6.509661078453063965e-01
-5.205895304679870605e-01 1.161377131938934326e-01 2.410986870527267456e-01
5.054855346679687500e-01 5.460409913212060928e-03 2.840733826160430908e-01
1.970113068819046021e-01 -3.840058743953704834e-01 4.568136036396026611e-01
-3.395230174064636230e-01 3.084722757339477539e-01 -6.526644229888916016e-01
5.054855346679687500e-01 -2.557381689548492432e-01 2.181057184934616089e-01
-3.529550433158874512e-01 1.954611390829086304e-01 7.792648077011108398e-01
-5.205895304679870605e-01 -3.820208907127380371e-01 2.009140700101852417e-01
-1.521807461977005005e-01 3.627384901046752930e-01 -5.551828145980834961e-01
1.045072823762893677e-01 -3.840058743953704834e-01 -7.692884802818298340e-01
5.054855346679687500e-01 -1.560803204774856567e-01 7.344372272491455078e-01
-4.001110196113586426e-01 3.137501776218414307e-01 2.536698281764984131e-01
-5.009452700614929199e-01 -3.840058743953704834e-01 -3.050777912139892578e-01
-4.923675358295440674e-01 2.631574869155883789e-01 -7.200525999069213867e-01
5.054855346679687500e-01 -1.796206384897232056e-01 3.965269029140472412e-01
-7.689800113439559937e-02 -3.840058743953704834e-01 4.593640267848968506e-01
1.326773911714553833e-01 -3.840058743953704834e-01 4.953497350215911865e-01
-2.758631706237792969e-01 3.818867504596710205e-01 5.199099183082580566e-01
1.760091930627822876e-01 -3.840058743953704834e-01 -8.008209466934204102e-01
-5.111489892005920410e-01 2.528589069843292236e-01 -6.628387570381164551e-01
-5.205895304679870605e-01 1.292743235826492310e-01 -7.108898758888244629e-01
4.114094674587249756e-01 -1.691910028457641602e-01 -7.618944644927978516e-01
6.334456801414489746e-02 2.123230844736099243e-01 -7.618944644927978516e-01
-3.695372343063354492e-01 2.240538597106933594e-01 -2.469902932643890381e-01
4.406371116638183594e-01 2.843043804168701172e-01 -5.650225877761840820e-01
2.557098492980003357e-02 2.952466607093811035e-01 -6.764234304428100586e-01
5.054855346679687500e-01 3.682213276624679565e-02 1.273822039365768433e-01
-1.881557255983352661e-01 1.219703331589698792e-01 -7.721245288848876953e-01
4.960254430770874023e-01 1.725004464387893677e-01 -6.617127656936645508e-01
3.299230337142944336e-01 -3.824445009231567383e-01 7.792648077011108398e-01
-2.039024382829666138e-01 4.213493764400482178e-01 4.299501329660415649e-02
-5.118768215179443359e-01 -3.840058743953704834e-01 -6.592738628387451172e-01
-3.289407491683959961e-01 2.614571750164031982e-01 -7.371229529380798340e-01
-4.294423758983612061e-01 8.602079004049301147e-02 -7.618944644927978516e-01
5.054855346679687500e-01 1.597444117069244385e-01 5.117793083190917969e-01
4.715127870440483093e-02 -3.840058743953704834e-01 9.602018445730209351e-02
4.975701868534088135e-01 2.521242201328277588e-01 4.929059743881225586e-01
-3.454515337944030762e-01 3.437252640724182129e-01 -5.211272835731506348e-01
-4.104535877704620361e-01 3.080790042877197266e-01 -5.191051363945007324e-01
5.806312710046768188e-02 -3.840058743953704834e-01 6.768095493316650391e-01
-2.499815775081515312e-03 2.174513489007949829e-01 -2.526908218860626221e-01
-5.205895304679870605e-01 -1.586273163557052612e-01 1.265673805028200150e-02
5.054855346679687500e-01 -3.125880658626556396e-01 -6.795178055763244629e-01
2.831104397773742676e-01 3.733423054218292236e-01 1.413004547357559204e-01
3.681383132934570312e-01 -3.840058743953704834e-01 9.842699021100997925e-02
4.728055298328399658e-01 1.552745699882507324e-01 7.792648077011108398e-01
3.925683796405792236e-01 3.114736974239349365e-01 4.246764779090881348e-01
4.144001305103302002e-01 -3.840058743953704834e-01 -7.616313099861145020e-01
-2.386897653341293335e-01 2.505589425563812256e-01 7.740406990051269531e-01
-1.825627982616424561e-01 2.754312157630920410e-01 7.290233373641967773e-01
5.054855346679687500e-01 -1.155812814831733704e-01 -2.059721946716308594e-01
-5.111303925514221191e-01 1.712149828672409058e-01 3.429034054279327393e-01
1.094854529947042465e-02 4.178216457366943359e-01 4.713061153888702393e-01
-3.351304531097412109e-01 -3.840058743953704834e-01 -6.186842322349548340e-01
-2.072061449289321899e-01 4.195375740528106689e-01 -3.483772873878479004e-01
3.917955458164215088e-01 3.119100034236907959e-01 -3.397408425807952881e-01
5.054855346679687500e-01 3.895873576402664185e-02 -2.157493084669113159e-01
5.054855346679687500e-01 -3.610618114471435547e-01 1.744510829448699951e-01
5.054855346679687500e-01 2.050494402647018433e-01 1.731431037187576294e-01
2.609226107597351074e-01 3.858830928802490234e-01 6.351776421070098877e-02
-1.813966631889343262e-01 1.836863309144973755e-01 -2.452714294195175171e-01
5.054855346679687500e-01 -3.012779951095581055e-01 1.252397149801254272e-01
9.769637137651443481e-02 4.781425595283508301e-01 -2.478961944580078125e-01
-2.128695249557495117e-01 3.319876492023468018e-01 -6.104224920272827148e-01
-4.482452869415283203e-01 -3.840058743953704834e-01 -5.522225499153137207e-01
1.350918412208557129e-01 -3.840058743953704834e-01 5.547332111746072769e-03
-4.307669997215270996e-01 2.969391047954559326e-01 3.399058878421783447e-01
-5.187728404998779297e-01 2.486776560544967651e-01 -4.996448159217834473e-01
4.094450175762176514e-01 -3.840058743953704834e-01 3.688694238662719727e-01
2.150912582874298096e-01 -3.840058743953704834e-01 7.739320993423461914e-01
2.559597194194793701e-01 -3.840058743953704834e-01 6.181654334068298340e-01
-3.486906588077545166e-01 3.419486880302429199e-01 -4.146726727485656738e-01
-2.259053438901901245e-01 -3.840058743953704834e-01 1.510120183229446411e-01
5.054855346679687500e-01 -2.832410633563995361e-01 -1.513410508632659912e-01
-4.999826848506927490e-01 -3.840058743953704834e-01 7.660352587699890137e-01
6.157825514674186707e-02 3.272399604320526123e-01 6.352533102035522461e-01
5.054855346679687500e-01 -3.682327568531036377e-01 -1.838450282812118530e-01
4.960254430770874023e-01 2.094331830739974976e-01 5.658987760543823242e-01
4.062508642673492432e-01 3.037402331829071045e-01 -4.235125780105590820e-01
-4.469079375267028809e-01 -3.840058743953704834e-01 1.839333772659301758e-02
4.960254430770874023e-01 2.186311632394790649e-01 -3.947721123695373535e-01
4.682036340236663818e-01 -3.840058743953704834e-01 4.320333003997802734e-01
1.891263236757367849e-04 -3.840058743953704834e-01 -5.266243219375610352e-01
2.399674355983734131e-01 3.977273702621459961e-01 3.743107318878173828e-01
-5.205895304679870605e-01 5.668257921934127808e-02 -5.372614264488220215e-01
-2.735191285610198975e-01 2.705837190151214600e-01 7.377986311912536621e-01
-4.126381278038024902e-01 1.009525582194328308e-01 7.792648077011108398e-01
-1.624137461185455322e-01 -3.840058743953704834e-01 5.184708833694458008e-01
7.491824030876159668e-02 3.388680219650268555e-01 -5.980636477470397949e-01
5.054855346679687500e-01 -3.206844925880432129e-01 -3.737259805202484131e-01
5.438143610954284668e-01 -2.597873210906982422e-01 6.684724688529968262e-01
-3.589070141315460205e-01 3.363469243049621582e-01 3.153887689113616943e-01
-3.830631673336029053e-01 3.230988085269927979e-01 4.563035070896148682e-02
-3.526645004749298096e-01 2.879749238491058350e-01 -6.894866824150085449e-01
-5.200729966163635254e-01 2.486629784107208252e-01 1.702390238642692566e-02
1.465134769678115845e-01 4.505496621131896973e-01 -2.675541341304779053e-01
-1.618727594614028931e-01 -3.840058743953704834e-01 -4.436146914958953857e-01
3.805065527558326721e-02 5.118557214736938477e-01 1.745371818542480469e-01
-5.205895304679870605e-01 2.238895148038864136e-01 2.945460975170135498e-01
-4.363746345043182373e-01 -3.840058743953704834e-01 -1.455612480640411377e-01
5.054855346679687500e-01 1.113049164414405823e-01 1.367318034172058105e-01
-8.004068583250045776e-02 -3.840058743953704834e-01 2.940354347229003906e-01
2.093760222196578979e-01 4.150178432464599609e-01 -2.138191163539886475e-01
-3.763011991977691650e-01 -4.852779209613800049e-02 -7.618944644927978516e-01
6.206280365586280823e-02 -3.840058743953704834e-01 -4.785810410976409912e-01
1.791906207799911499e-01 4.320793747901916504e-01 -1.357205361127853394e-01
-3.750557899475097656e-01 3.274903893470764160e-01 -1.006172150373458862e-01
-4.712206423282623291e-01 2.747542262077331543e-01 5.439415201544761658e-02
-2.245327979326248169e-01 4.100363254547119141e-01 2.908334732055664062e-01
5.054855346679687500e-01 1.179358288645744324e-01 2.366797029972076416e-01
4.960254430770874023e-01 1.626157164573669434e-01 -2.518348097801208496e-01
4.763215184211730957e-01 5.012014880776405334e-02 -7.618944644927978516e-01
4.348367750644683838e-01 -3.840058743953704834e-01 6.474152207374572754e-02
4.436023235321044922e-01 -3.840058743953704834e-01 1.417954713106155396e-01
-5.182719826698303223e-01 2.499097399413585663e-02 7.698037028312683105e-01
-2.414691001176834106e-01 4.007483720779418945e-01 -2.501766085624694824e-01
2.105274945497512817e-01 -3.840058743953704834e-01 1.966682523488998413e-01
-5.205895304679870605e-01 1.062627658247947693e-01 2.801044583320617676e-01
-4.618479683995246887e-02 3.025193214416503906e-01 6.799948811531066895e-01
-3.226855099201202393e-01 -3.840058743953704834e-01 2.310769855976104736e-01
3.475187122821807861e-01 2.342203557491302490e-01 -7.618944644927978516e-01
4.744657278060913086e-01 2.119601666927337646e-01 7.792648077011108398e-01
-5.205895304679870605e-01 -3.269211351871490479e-01 5.454993247985839844e-01
3.825227916240692139e-02 -3.840058743953704834e-01 6.294422745704650879e-01
-3.138495385646820068e-01 3.610558509826660156e-01 -4.789068102836608887e-01
5.054855346679687500e-01 8.430288732051849365e-02 -4.648183286190032959e-01
-5.111303925514221191e-01 2.453504651784896851e-01 2.610148787498474121e-01
1.231174692511558533e-01 4.637732803821563721e-01 5.180469155311584473e-02
-3.508615195751190186e-01 3.407580852508544922e-01 6.017524600028991699e-01
3.613944724202156067e-02 2.545190751552581787e-01 7.668736577033996582e-01
4.505942463874816895e-01 2.786762416362762451e-01 -2.866945564746856689e-01
-5.205895304679870605e-01 -2.650075554847717285e-01 -8.617517352104187012e-02
2.880029082298278809e-01 3.705766201019287109e-01 -3.098968863487243652e-01
3.052082359790802002e-01 1.144746094942092896e-01 -7.617878317832946777e-01
-2.388071566820144653e-01 -3.840058743953704834e-01 -2.784093320369720459e-01
3.931984305381774902e-01 3.111175894737243652e-01 3.971868753433227539e-02
1.445197016000747681e-01 3.394197821617126465e-01 -5.970716476440429688e-01
2.632959783077239990e-01 -3.840058743953704834e-01 6.894712895154953003e-02
-5.205895304679870605e-01 -1.266171783208847046e-01 4.503578245639801025e-01
8.162389695644378662e-02 4.872270226478576660e-01 -4.509130958467721939e-03
-2.243606150150299072e-01 2.478294819593429565e-01 -7.618944644927978516e-01
-5.187993049621582031e-01 1.705184131860733032e-01 -6.740041375160217285e-01
5.009237527847290039e-01 -1.076154317706823349e-02 7.774725556373596191e-01
-5.205895304679870605e-01 -3.385110199451446533e-01 -1.939733624458312988e-01
-4.101953208446502686e-01 3.082198798656463623e-01 -4.397601783275604248e-01
-5.205895304679870605e-01 -2.443057745695114136e-01 2.600469812750816345e-02
5.054855346679687500e-01 -2.624664828181266785e-02 -6.900286674499511719e-01
-5.205895304679870605e-01 -6.210462003946304321e-02 5.523542761802673340e-01
3.505455553531646729e-01 3.352258205413818359e-01 1.392499357461929321e-01
-5.809407830238342285e-01 -2.701993584632873535e-01 -6.751644015312194824e-01
-2.691598534584045410e-01 3.855632245540618896e-01 1.346177011728286743e-01
-3.248260319232940674e-01 -3.840058743953704834e-01 -3.219964802265167236e-01
5.054855346679687500e-01 -1.786184124648571014e-02 7.281653285026550293e-01
1.278641670942306519e-01 3.835958540439605713e-01 -5.177159905433654785e-01
-1.459225714206695557e-01 1.397558152675628662e-01 7.812947630882263184e-01
2.981468737125396729e-01 3.036365211009979248e-01 -6.613527536392211914e-01
-5.205895304679870605e-01 1.904453784227371216e-01 -2.141184806823730469e-01
-5.205895304679870605e-01 1.932423710823059082e-01 -6.213246583938598633e-01
-9.046465903520584106e-02 4.835574626922607422e-01 -9.661890566349029541e-02
3.517087697982788086e-01 2.752707600593566895e-01 7.293138504028320312e-01
5.036932826042175293e-01 -3.280907496809959412e-02 -2.459758073091506958e-01
5.036932826042175293e-01 1.653050482273101807e-01 7.322018146514892578e-01
3.543188571929931641e-01 3.330931067466735840e-01 -2.562156617641448975e-01
-1.004805788397789001e-01 -3.840058743953704834e-01 -3.580633997917175293e-01
-2.732700668275356293e-02 -3.840058743953704834e-01 3.430971205234527588e-01
-3.422593176364898682e-01 3.454754650592803955e-01 2.155513912439346313e-01
-5.096443295478820801e-01 2.536835968494415283e-01 -3.257335722446441650e-01
2.929804921150207520e-01 2.700388133525848389e-01 7.387828230857849121e-01
1.691728532314300537e-01 4.315109550952911377e-01 -4.316422641277313232e-01
4.653626382350921631e-01 -3.840058743953704834e-01 6.271060705184936523e-01
-3.268667757511138916e-01 3.539171814918518066e-01 3.831936717033386230e-01
5.054855346679687500e-01 -1.963524818420410156e-01 -1.898038387298583984e-01
-1.230470016598701477e-01 -3.840058743953704834e-01 4.908012598752975464e-02
-5.205895304679870605e-01 -2.079775929450988770e-01 6.552918553352355957e-01
3.085384070873260498e-01 -3.840058743953704834e-01 -4.380286037921905518e-01
4.057451188564300537e-01 -3.840058743953704834e-01 5.935729146003723145e-01
-1.075047627091407776e-01 1.316398382186889648e-01 -7.732329964637756348e-01
2.312596142292022705e-01 -3.840058743953704834e-01 -6.033699512481689453e-01
-5.205895304679870605e-01 3.602188825607299805e-02 1.340463608503341675e-01
4.542726576328277588e-01 1.618741750717163086e-01 -7.524353265762329102e-01
2.302010804414749146e-01 4.032469391822814941e-01 3.371666669845581055e-01
-5.205895304679870605e-01 8.411896973848342896e-02 -2.688269019126892090e-01
-1.059962362051010132e-01 4.750404059886932373e-01 -2.903308868408203125e-01
-4.378890097141265869e-01 2.930337190628051758e-01 2.625449895858764648e-01
-4.732819199562072754e-01 2.702143415808677673e-02 -7.618944644927978516e-01
-1.203899383544921875e-01 -3.840058743953704834e-01 -7.017329931259155273e-01
-4.782575368881225586e-01 2.708958089351654053e-01 5.417544245719909668e-01
-5.111303925514221191e-01 2.139157652854919434e-01 -5.837427079677581787e-02
4.111903309822082520e-01 -3.840058743953704834e-01 -5.497670173645019531e-01
-5.205895304679870605e-01 -3.710365593433380127e-01 -5.685092806816101074e-01
-7.455008570104837418e-03 5.290796160697937012e-01 -7.650253921747207642e-02
-3.805205821990966797e-01 3.244938850402832031e-01 -4.646285474300384521e-01
8.093516528606414795e-02 -3.840058743953704834e-01 -8.331590145826339722e-02
-5.205895304679870605e-01 -7.563416659832000732e-02 5.944495201110839844e-01
4.845173284411430359e-02 -3.840058743953704834e-01 -6.710046529769897461e-01
-5.205895304679870605e-01 9.369554370641708374e-02 -3.729374706745147705e-01
2.593994140625000000e-01 3.867440223693847656e-01 -9.040407021529972553e-04
-3.879889249801635742e-01 -3.840058743953704834e-01 -1.286337524652481079e-01
-5.205895304679870605e-01 -6.240297853946685791e-02 3.404351472854614258e-01
2.394059002399444580e-01 -3.840058743953704834e-01 -5.622099637985229492e-01
-5.153135657310485840e-01 1.707796305418014526e-01 -7.601051330566406250e-01
-5.205895304679870605e-01 -1.812015622854232788e-01 -4.072845578193664551e-01
3.152387440204620361e-01 3.551821410655975342e-01 4.327582120895385742e-01
-4.004534482955932617e-01 3.135633468627929688e-01 -3.529351651668548584e-01
5.054855346679687500e-01 3.689452633261680603e-02 1.932174153625965118e-02
-3.003568053245544434e-01 3.684547245502471924e-01 -1.933599561452865601e-01
-4.822450876235961914e-01 -3.179892599582672119e-01 -7.618944644927978516e-01
5.054855346679687500e-01 1.113274246454238892e-01 4.943685531616210938e-01
5.054855346679687500e-01 -9.533431380987167358e-02 -6.444271802902221680e-01
5.054855346679687500e-01 -3.404647111892700195e-01 6.966220140457153320e-01
4.201466143131256104e-01 2.958855032920837402e-01 2.357513010501861572e-01
-3.694951534271240234e-01 -3.840058743953704834e-01 -2.646319568157196045e-01
2.642400264739990234e-01 3.840076923370361328e-01 4.881857037544250488e-01
4.625608026981353760e-01 -2.704194784164428711e-01 7.792648077011108398e-01
5.054855346679687500e-01 1.734777688980102539e-01 3.792648315429687500e-01
-5.205895304679870605e-01 -8.556971698999404907e-02 -7.312405109405517578e-01
-2.822191715240478516e-01 3.784011006355285645e-01 2.272117286920547485e-01
-3.629321604967117310e-02 -3.840058743953704834e-01 2.594652771949768066e-01
1.890372037887573242e-01 4.074829518795013428e-01 -4.748058021068572998e-01
2.186336815357208252e-01 1.350452899932861328e-01 7.892493605613708496e-01
1.349529325962066650e-01 -3.840058743953704834e-01 6.462014913558959961e-01
5.054855346679687500e-01 -2.002881616353988647e-01 -1.124135479331016541e-01
3.111543655395507812e-01 -3.840058743953704834e-01 -1.810167580842971802e-01
-5.187993049621582031e-01 2.340794801712036133e-01 2.038284242153167725e-01
-4.771706461906433105e-01 2.522787749767303467e-01 -7.536092996597290039e-01
5.054855346679687500e-01 1.020022779703140259e-01 7.406542897224426270e-01
-6.632718443870544434e-02 4.967948198318481445e-01 1.681322604417800903e-01
5.054855346679687500e-01 4.037085454910993576e-03 4.686304926872253418e-01
1.726238802075386047e-02 4.132686257362365723e-01 -4.644123315811157227e-01
1.735957264900207520e-01 -3.840058743953704834e-01 -4.585171043872833252e-01
-1.324014961719512939e-01 4.605595767498016357e-01 -1.524201035499572754e-01
-1.951583921909332275e-01 -3.840058743953704834e-01 -1.428278833627700806e-01
-4.045769572257995605e-01 -3.840058743953704834e-01 -3.260671794414520264e-01
-3.717416664585471153e-03 1.735726743936538696e-01 3.720195293426513672e-01
-2.216745913028717041e-02 4.844525754451751709e-01 -3.365398645401000977e-01
-5.205895304679870605e-01 1.389340311288833618e-01 -9.582158923149108887e-02
4.109447598457336426e-01 2.930112481117248535e-01 -6.804393529891967773e-01
-4.107871949672698975e-01 -2.927892804145812988e-01 -7.618944644927978516e-01
-1.652097254991531372e-01 2.145105749368667603e-01 -7.524353265762329102e-01
3.006239533424377441e-01 2.132250815629959106e-01 -2.526908218860626221e-01
-2.400574237108230591e-01 1.202084198594093323e-01 7.686874270439147949e-01
-5.205895304679870605e-01 -2.057529687881469727e-01 -7.036288976669311523e-01
