-2.304617315530776978e-01 -2.815535962581634521e-01 1.959088891744613647e-01
3.995162546634674072e-01 4.412700831890106201e-01 8.679795078933238983e-03
2.246343791484832764e-01 -2.356017529964447021e-01 7.534916512668132782e-03
2.997096478939056396e-01 1.256537288427352905e-01 8.456213399767875671e-03
1.956474035978317261e-01 -1.698978394269943237e-01 -2.600026130676269531e-01
1.984054297208786011e-01 -3.630203902721405029e-01 2.183946818113327026e-01
1.717249304056167603e-01 -4.303153455257415771e-01 -2.079532444477081299e-01
9.997460991144180298e-02 -3.042992949485778809e-01 -2.262873500585556030e-01
-1.047226861119270325e-01 -3.265129923820495605e-01 -2.230558246374130249e-01
-2.693771719932556152e-01 2.871308326721191406e-01 6.136939674615859985e-02
-5.567424744367599487e-02 -1.016811355948448181e-01 -2.622481882572174072e-01
1.630559749901294708e-02 -2.407607622444629669e-02 -6.550456583499908447e-02
1.794344559311866760e-02 2.262951433658599854e-01 2.391116172075271606e-01
2.725702524185180664e-01 1.771576702594757080e-01 1.217676028609275818e-01
-2.106746882200241089e-01 -4.658392369747161865e-01 -4.647343978285789490e-02
7.893849909305572510e-02 2.383158504962921143e-01 1.020593419671058655e-01
4.623525142669677734e-01 2.710572481155395508e-01 1.605230271816253662e-01
2.044656574726104736e-01 -4.847280383110046387e-01 -1.882465928792953491e-01
-1.623311042785644531e-01 5.780064463615417480e-01 9.850703924894332886e-02
-2.152048200368881226e-01 -2.762202620506286621e-01 -2.303732484579086304e-01
6.615456193685531616e-02 -8.455143123865127563e-02 -3.977886959910392761e-02
-2.595161199569702148e-01 -1.783579140901565552e-01 -1.461029797792434692e-01
2.942065596580505371e-01 1.575197577476501465e-01 9.083716571331024170e-02
-2.580575048923492432e-01 -1.874985992908477783e-01 2.030590027570724487e-01
-2.316969931125640869e-01 -3.526542186737060547e-01 2.019655657932162285e-03
2.522805333137512207e-01 3.402623236179351807e-01 2.107052952051162720e-01
2.264883741736412048e-02 -1.709917932748794556e-01 -1.043575033545494080e-01
-2.031794339418411255e-01 9.303160011768341064e-02 -3.275075182318687439e-02
-1.625700294971466064e-02 2.474455088376998901e-01 -2.356164306402206421e-01
-4.759831354022026062e-02 -3.956725597381591797e-01 -2.239670455455780029e-01
-1.146347299218177795e-01 4.719763398170471191e-01 1.203544735908508301e-01
4.945149421691894531e-01 5.471848249435424805e-01 -9.225170314311981201e-02
5.641616880893707275e-02 2.871866524219512939e-01 2.387737780809402466e-01
-2.208086103200912476e-01 -4.208733737468719482e-01 2.040969133377075195e-01
2.135169655084609985e-01 -3.881667554378509521e-01 -1.246534958481788635e-01
-3.918087482452392578e-02 5.139128770679235458e-03 6.419439334422349930e-03
1.855540871620178223e-01 2.424192279577255249e-01 -7.070772349834442139e-02
4.281603544950485229e-02 -1.974993348121643066e-01 9.401786141097545624e-03
-1.522987037897109985e-01 -3.766148388385772705e-01 2.049829512834548950e-01
-5.592355504631996155e-03 -1.538003832101821899e-01 -2.481843382120132446e-01
-1.040222197771072388e-01 1.296397149562835693e-01 -3.458798304200172424e-02
-1.938958317041397095e-01 4.754263460636138916e-01 -3.481419980525970459e-01
-6.214474886655807495e-02 -2.902281284332275391e-01 2.300131916999816895e-01
-1.860448420047760010e-01 -3.425708413124084473e-02 -2.579946257174015045e-02
2.392115294933319092e-01 -1.354240328073501587e-01 5.734035745263099670e-02
-1.857363991439342499e-02 1.690768748521804810e-01 -2.100006341934204102e-01
-1.545101702213287354e-01 6.615050137042999268e-02 1.053265929222106934e-01
-2.005862593650817871e-01 3.706932961940765381e-01 -1.004212945699691772e-01
-2.528492510318756104e-01 -2.201288491487503052e-01 -1.201111897826194763e-01
-2.156311869621276855e-01 1.306882053613662720e-01 3.296476006507873535e-01
-2.579446434974670410e-01 7.210222482681274414e-01 1.266380250453948975e-01
2.083509266376495361e-01 4.954219609498977661e-02 -2.591844275593757629e-02
2.365452647209167480e-01 -1.537467688322067261e-01 -6.567323952913284302e-02
-1.612696498632431030e-01 -3.166974484920501709e-01 -2.365723103284835815e-01
-1.167952641844749451e-01 -3.823282718658447266e-01 2.153134047985076904e-01
-2.418765425682067871e-02 -1.709917932748794556e-01 1.934155970811843872e-01
4.392704740166664124e-02 3.141437470912933350e-01 -2.070842236280441284e-01
-1.917680054903030396e-01 -1.709917932748794556e-01 2.183110266923904419e-01
-5.861704424023628235e-02 -1.443177908658981323e-01 -1.530085504055023193e-01
1.728205084800720215e-01 3.481588065624237061e-01 2.037606686353683472e-01
3.162814080715179443e-01 2.297676652669906616e-01 1.224701032042503357e-01
1.582206338644027710e-01 -1.558071821928024292e-01 6.358572840690612793e-02
1.812918484210968018e-02 1.167372241616249084e-01 5.728269368410110474e-02
8.724508434534072876e-02 6.202644109725952148e-02 -3.107278607785701752e-02
2.514570057392120361e-01 -1.016811355948448181e-01 1.566190570592880249e-01
8.419793099164962769e-02 -1.452452540397644043e-01 2.531535625457763672e-01
5.008674860000610352e-01 5.347476601600646973e-01 -4.241719469428062439e-02
1.582815498113632202e-01 -4.190590679645538330e-01 2.094505280256271362e-01
-2.111985236406326294e-01 3.078630566596984863e-01 8.230676874518394470e-03
1.237322092056274414e-01 4.489578306674957275e-01 -2.632942497730255127e-01
1.166592538356781006e-01 -1.482022702693939209e-01 -2.489989101886749268e-01
-2.094865143299102783e-01 -3.175355792045593262e-01 2.135786712169647217e-01
2.044656574726104736e-01 -4.609038233757019043e-01 -1.037778705358505249e-01
2.634044289588928223e-01 1.824844479560852051e-01 2.164122462272644043e-01
1.034010276198387146e-01 1.989643089473247528e-03 4.280096385627985001e-03
1.575449407100677490e-01 3.033164143562316895e-01 1.617209315299987793e-01
9.919170290231704712e-02 1.618912257254123688e-02 -7.541088014841079712e-02
1.147968787699937820e-02 -1.435868591070175171e-01 4.206883534789085388e-02
1.650637537240982056e-01 -7.295891642570495605e-02 -9.583122283220291138e-02
-2.282177805900573730e-01 -3.744513392448425293e-01 -2.000811398029327393e-01
1.808485537767410278e-01 -1.427901536226272583e-01 -1.067737676203250885e-02
-1.644532382488250732e-01 -1.709917932748794556e-01 -2.432115823030471802e-01
-1.114931106567382812e-01 2.008371502161026001e-01 -1.315637826919555664e-01
-9.609213471412658691e-02 2.843381091952323914e-02 9.677555412054061890e-02
-6.228386610746383667e-02 4.129547476768493652e-01 -2.684082984924316406e-01
1.465654280036687851e-02 -4.520070180296897888e-02 -1.133120954036712646e-01
-1.855494529008865356e-01 9.796748869121074677e-03 3.834874834865331650e-03
-9.545882791280746460e-02 3.784695565700531006e-01 -2.110028117895126343e-01
1.940929442644119263e-01 1.454781144857406616e-01 1.513360887765884399e-01
7.804513722658157349e-02 1.123224124312400818e-01 2.412246307358145714e-03
5.049321427941322327e-02 6.850246340036392212e-02 1.053594239056110382e-02
4.788471162319183350e-01 3.017702102661132812e-01 2.832393646240234375e-01
2.344669848680496216e-01 -1.680226027965545654e-01 1.592325270175933838e-01
-5.677372589707374573e-02 -1.486124098300933838e-01 -2.489388138055801392e-01
-5.436653643846511841e-02 1.389915496110916138e-01 3.708715364336967468e-02
-2.118693590164184570e-01 -4.611669480800628662e-01 9.909177571535110474e-02
-1.940030306577682495e-01 -8.952256292104721069e-02 -6.699798256158828735e-02
1.285197734832763672e-01 -2.354011535644531250e-01 -2.495479285717010498e-01
-5.656127259135246277e-02 3.666163682937622070e-01 -2.599246501922607422e-01
-1.119116917252540588e-01 -4.051494896411895752e-01 -2.116143703460693359e-01
-4.692380502820014954e-02 -2.799561023712158203e-01 -2.298291027545928955e-01
2.159980684518814087e-01 -2.949596643447875977e-01 -8.903927356004714966e-02
4.643032848834991455e-01 5.228303074836730957e-01 -9.587711095809936523e-02
-2.675514519214630127e-01 -1.271791607141494751e-01 1.389866471290588379e-01
6.520923972129821777e-02 3.880825533997267485e-04 2.244747430086135864e-02
-9.146844595670700073e-02 -4.082900583744049072e-01 2.003748416900634766e-01
-2.830357551574707031e-01 2.266266494989395142e-01 1.653820872306823730e-01
2.323854714632034302e-01 3.418045938014984131e-01 -3.025032952427864075e-02
1.325512677431106567e-01 -1.709917932748794556e-01 -2.339515239000320435e-01
-2.206983044743537903e-02 2.515193819999694824e-01 -1.333162188529968262e-01
4.612455368041992188e-01 1.603485196828842163e-01 -1.868428476154804230e-02
-3.266015052795410156e-01 2.419142127037048340e-01 2.910074889659881592e-01
-8.989337831735610962e-02 1.734279990196228027e-01 -9.637179784476757050e-03
-3.524016439914703369e-01 4.790176451206207275e-01 2.522778697311878204e-03
-2.330012917518615723e-01 -2.640981972217559814e-01 -8.497019857168197632e-02
1.658757589757442474e-02 1.819555014371871948e-01 1.996999680995941162e-01
-7.178828865289688110e-02 -3.346119076013565063e-02 8.250296115875244141e-02
-4.265860468149185181e-02 -1.403927206993103027e-01 1.425909399986267090e-01
1.192402392625808716e-01 -2.179847806692123413e-01 2.280624210834503174e-01
-1.535616070032119751e-01 6.084000468254089355e-01 1.300075948238372803e-01
2.164821028709411621e-01 -2.916339337825775146e-01 1.383945941925048828e-01
-3.760809451341629028e-02 3.812509402632713318e-02 -1.872517317533493042e-01
5.515393801033496857e-03 -1.712760478258132935e-01 2.489986419677734375e-01
7.451963424682617188e-02 -1.935880184173583984e-01 2.316122800111770630e-01
4.637607336044311523e-01 2.971655130386352539e-01 2.189859300851821899e-01
5.849265959113836288e-03 -2.375623136758804321e-01 -2.359973192214965820e-01
-2.320234775543212891e-01 -3.506076037883758545e-01 1.400919854640960693e-01
-2.940581738948822021e-01 1.556481719017028809e-01 2.028518766164779663e-01
-2.355424910783767700e-01 -2.466298490762710571e-01 -6.119575724005699158e-02
1.902539730072021484e-01 -2.066732794046401978e-01 2.433493435382843018e-01
4.246843978762626648e-02 -1.331313401460647583e-01 7.306869141757488251e-03
-2.650947272777557373e-01 2.543547451496124268e-01 -9.120582789182662964e-02
-1.123861316591501236e-02 -1.695608049631118774e-01 -9.436311572790145874e-02
2.210723310708999634e-01 -3.408318758010864258e-01 8.626073598861694336e-02
3.459741175174713135e-01 4.302647411823272705e-01 -9.364078938961029053e-02
-2.963290736079216003e-02 -1.063062995672225952e-01 2.559034824371337891e-01
-2.347400784492492676e-01 1.206517368555068970e-01 1.640233695507049561e-01
-5.261823534965515137e-02 -3.495940566062927246e-01 -2.313218116760253906e-01
1.321679353713989258e-01 2.025313675403594971e-01 -1.116786301136016846e-01
2.290443181991577148e-01 1.403161436319351196e-01 4.362976923584938049e-02
1.560108065605163574e-01 -1.635566353797912598e-01 -1.871331632137298584e-01
2.972129173576831818e-02 -9.953383356332778931e-02 1.004837900400161743e-01
-6.944655627012252808e-02 -6.677607446908950806e-02 1.161565184593200684e-01
-2.338369935750961304e-01 -3.392465710639953613e-01 6.387078762054443359e-02
-1.611283272504806519e-01 -1.579090058803558350e-01 9.679541923105716705e-03
1.441827565431594849e-01 -1.137926131486892700e-01 2.559034824371337891e-01
-8.357523381710052490e-02 4.326354265213012695e-01 -2.129852622747421265e-01
1.508155316114425659e-01 -3.598059415817260742e-01 -2.182114124298095703e-01
4.961790442466735840e-01 2.772468328475952148e-01 1.438749283552169800e-01
-6.805869191884994507e-02 -2.415648102760314941e-02 -6.387642025947570801e-02
-2.491751164197921753e-01 1.471803635358810425e-01 1.281737834215164185e-01
-1.350252628326416016e-01 2.312005758285522461e-01 -2.286352515220642090e-01
1.738405823707580566e-01 -3.235486745834350586e-01 2.127039879560470581e-01
4.020663499832153320e-01 2.717733979225158691e-01 2.137629985809326172e-01
-3.518957272171974182e-02 -3.915826380252838135e-01 2.138361036777496338e-01
2.667025327682495117e-01 3.629048764705657959e-01 5.169226322323083878e-03
-1.121315285563468933e-01 -9.019663929939270020e-02 5.048506334424018860e-02
3.597982600331306458e-02 -2.165021002292633057e-02 5.645349621772766113e-02
-1.280757635831832886e-01 2.211918830871582031e-01 -1.642266958951950073e-01
-6.833107769489288330e-02 1.507481187582015991e-01 -1.734871603548526764e-02
2.640322148799896240e-01 1.241796836256980896e-01 8.821350522339344025e-03
3.949406147003173828e-01 4.785336256027221680e-01 -1.325550675392150879e-01
2.135998010635375977e-01 -1.624821871519088745e-01 4.976306855678558350e-02
2.510127425193786621e-01 -1.532383710145950317e-01 2.137752026319503784e-01
-1.858231425285339355e-01 5.880128145217895508e-01 -3.936316967010498047e-01
1.188487932085990906e-01 -1.343739330768585205e-01 2.402266860008239746e-01
-2.257131338119506836e-01 -3.901443481445312500e-01 1.144883707165718079e-01
-2.177703976631164551e-01 -4.399083554744720459e-01 -9.771515429019927979e-02
-2.560563981533050537e-01 1.908590197563171387e-01 -1.488609462976455688e-01
-2.793819308280944824e-01 2.576646804809570312e-01 1.506603658199310303e-01
1.807551532983779907e-01 2.345730811357498169e-01 1.649609208106994629e-02
-9.553346037864685059e-02 5.030262470245361328e-01 7.196622341871261597e-02
2.448632121086120605e-01 4.080900251865386963e-01 2.865033447742462158e-01
-7.014410197734832764e-02 -2.246167510747909546e-01 -2.378806620836257935e-01
2.449712455272674561e-01 -1.910914927721023560e-01 1.766034513711929321e-01
2.550385594367980957e-01 -1.018874272704124451e-01 -8.106536231935024261e-03
8.243477344512939453e-02 -2.164696529507637024e-02 3.890797495841979980e-02
7.141318917274475098e-02 2.124272435903549194e-01 -6.692570447921752930e-02
3.802211955189704895e-02 -1.284907609224319458e-01 -2.518665790557861328e-01
1.716989576816558838e-01 1.244858652353286743e-01 2.037525326013565063e-01
-6.308050453662872314e-02 -7.342590391635894775e-02 -5.466181784868240356e-03
-2.600587438791990280e-03 -1.532586663961410522e-01 -5.808439478278160095e-02
-2.385750114917755127e-01 2.237728685140609741e-01 -4.101316258311271667e-02
-2.361848950386047363e-01 -3.245337903499603271e-01 6.004920229315757751e-03
-1.922707259654998779e-01 -1.079931035637855530e-01 2.411517053842544556e-01
-8.457084913970902562e-05 -7.729656249284744263e-02 -6.567587703466415405e-02
-1.874782890081405640e-01 9.913565218448638916e-02 2.743334174156188965e-01
-8.368910104036331177e-02 3.977863490581512451e-01 9.939470887184143066e-02
1.616754978895187378e-01 2.482838779687881470e-01 -1.171407103538513184e-02
2.035852819681167603e-01 -1.709917932748794556e-01 -1.888565272092819214e-01
2.330733686685562134e-01 -2.656380534172058105e-01 8.309013396501541138e-02
3.360448777675628662e-01 2.306054830551147461e-01 2.598244845867156982e-01
1.434469670057296753e-01 -3.699585199356079102e-01 2.172876894474029541e-01
2.793662846088409424e-01 3.723963499069213867e-01 -1.023518368601799011e-01
2.897615777328610420e-03 1.747335195541381836e-01 -7.478975504636764526e-02
1.167226135730743408e-01 2.892842590808868408e-01 1.458792835474014282e-01
2.985066734254360199e-02 -4.053638875484466553e-01 2.008004188537597656e-01
3.955042362213134766e-01 2.235291302204132080e-01 9.519918262958526611e-02
-9.597437083721160889e-02 -4.866633713245391846e-01 2.053297460079193115e-01
-1.355734616518020630e-01 5.920499563217163086e-01 1.721585988998413086e-01
2.089389115571975708e-01 -1.645880490541458130e-01 2.500666081905364990e-01
-3.875201195478439331e-02 -4.540932774543762207e-01 2.053297460079193115e-01
1.515440046787261963e-01 -1.709917932748794556e-01 1.820577979087829590e-01
3.700588643550872803e-02 3.984571993350982666e-01 -2.639577686786651611e-01
1.559068560600280762e-01 1.745720654726028442e-01 -8.493284136056900024e-02
-1.079119741916656494e-01 2.581387460231781006e-01 -1.775977909564971924e-01
-4.995425045490264893e-02 1.076907664537429810e-01 4.634557291865348816e-02
6.750596314668655396e-02 4.671993553638458252e-01 -2.706083953380584717e-01
-3.339578807353973389e-01 3.944890797138214111e-01 8.711024373769760132e-02
6.620492041110992432e-02 2.040264308452606201e-01 6.893531233072280884e-02
-1.302872300148010254e-01 4.380603507161140442e-02 1.708737909793853760e-01
-7.462282478809356689e-02 2.621861994266510010e-01 5.354154855012893677e-03
2.153117954730987549e-01 -2.996773421764373779e-01 8.118809759616851807e-02
-1.139730736613273621e-01 3.118639886379241943e-01 1.569044776260852814e-02
3.112988770008087158e-01 3.539054989814758301e-01 -1.604112386703491211e-01
-3.950058221817016602e-01 2.212919294834136963e-01 2.890908718109130859e-01
-2.648470401763916016e-01 2.258524298667907715e-01 -1.167572885751724243e-01
1.373721510171890259e-01 5.377183482050895691e-02 7.507917284965515137e-02
-5.651676654815673828e-02 3.139287829399108887e-01 6.983272731304168701e-02
2.525225281715393066e-01 -1.437801569700241089e-01 -4.080525785684585571e-02
-2.425780743360519409e-01 -1.234140768647193909e-01 9.588950127363204956e-02
-8.729103207588195801e-02 4.718959927558898926e-01 6.420620530843734741e-02
-1.480569094419479370e-01 -1.699400693178176880e-01 -2.026791870594024658e-01
-2.132995277643203735e-01 -8.449295908212661743e-02 -1.040254160761833191e-01
2.480492591857910156e-01 -1.718080043792724609e-01 -2.016891837120056152e-01
-7.517012953758239746e-02 2.996693253517150879e-01 1.351971924304962158e-01
-2.082203924655914307e-01 -3.127327188849449158e-02 9.524790942668914795e-02
-1.961503326892852783e-01 2.250309586524963379e-01 -6.384111195802688599e-02
2.803228422999382019e-02 1.751572936773300171e-01 -1.660320758819580078e-01
-7.061450183391571045e-02 4.343620240688323975e-01 7.636803388595581055e-02
-2.912042737007141113e-01 1.919605135917663574e-01 2.345197349786758423e-01
-2.379724234342575073e-01 7.329022884368896484e-01 -5.634286999702453613e-01
-1.342862248420715332e-01 -3.844966888427734375e-01 -2.257513254880905151e-01
-8.283471688628196716e-03 -1.054413542151451111e-01 -1.239799112081527710e-01
-6.794498860836029053e-02 -1.709917932748794556e-01 -2.171799838542938232e-01
1.694574356079101562e-01 -1.564235985279083252e-01 -1.452730596065521240e-01
-7.380370050668716431e-02 -1.607758700847625732e-01 -8.804399520158767700e-02
-1.085434108972549438e-01 1.225192681886255741e-04 -7.032236456871032715e-02
1.754672825336456299e-01 -1.709917932748794556e-01 4.476676508784294128e-02
-2.009866535663604736e-01 1.230353862047195435e-01 2.556110918521881104e-01
2.228890955448150635e-01 -2.475971281528472900e-01 -2.070736736059188843e-01
-3.493431955575942993e-02 -1.709917932748794556e-01 -1.942588835954666138e-01
3.354422748088836670e-01 3.513090908527374268e-01 5.367271974682807922e-02
-2.545279264450073242e-01 2.834404706954956055e-01 -2.085977047681808472e-02
-4.469765722751617432e-02 1.846178621053695679e-01 6.504677981138229370e-02
-2.265561223030090332e-01 7.898090481758117676e-01 1.878134459257125854e-01
-1.369719654321670532e-01 -1.113772988319396973e-01 2.559034824371337891e-01
-1.180668398737907410e-01 -1.709917932748794556e-01 2.212866842746734619e-01
4.286720231175422668e-02 1.358947250992059708e-02 1.138354167342185974e-01
-2.678113579750061035e-01 8.817614316940307617e-01 2.234047502279281616e-01
-9.967295080423355103e-02 3.878671443089842796e-03 1.365055441856384277e-01
-2.444581985473632812e-01 -1.584905087947845459e-01 2.510395646095275879e-01
2.513465583324432373e-01 -1.511495411396026611e-01 -1.610146611928939819e-01
-1.383379995822906494e-01 -2.720328569412231445e-01 -2.309823632240295410e-01
-2.654666900634765625e-01 -1.410765498876571655e-01 1.120681911706924438e-01
-2.230939716100692749e-01 -4.065536856651306152e-01 -2.500632591545581818e-02
-1.529045701026916504e-01 3.210251033306121826e-01 -1.076460257172584534e-01
-2.104399800300598145e-01 -4.191613793373107910e-01 -4.969821497797966003e-02
3.842008411884307861e-01 1.785993278026580811e-01 3.979807719588279724e-02
-2.379033863544464111e-01 -2.304040640592575073e-01 -2.274154126644134521e-01
2.309593409299850464e-01 -2.788824737071990967e-01 1.400387100875377655e-02
1.169435009360313416e-01 2.444779686629772186e-02 -3.982906043529510498e-02
2.243550121784210205e-01 3.073222339153289795e-01 1.708811074495315552e-01
-2.887816727161407471e-01 3.289654254913330078e-01 -9.170643240213394165e-02
4.448336362838745117e-02 -2.232417911291122437e-01 2.272981703281402588e-01
-2.103465795516967773e-01 -4.198070466518402100e-01 9.924039989709854126e-02
3.070635795593261719e-01 3.726408183574676514e-01 5.280616506934165955e-02
1.023143827915191650e-01 -1.709917932748794556e-01 -4.061756655573844910e-02
2.533126249909400940e-02 4.465457797050476074e-01 -3.048320412635803223e-01
-1.730733215808868408e-01 -1.549479216337203979e-01 -1.825055778026580811e-01
-2.443371713161468506e-01 -1.861877739429473877e-01 -3.364256396889686584e-02
9.387541562318801880e-02 2.563517093658447266e-01 -1.879956424236297607e-01
-2.221811264753341675e-01 1.533632129430770874e-01 2.461536824703216553e-01
1.321515627205371857e-02 -8.077821880578994751e-02 -1.054912507534027100e-01
-9.196994453668594360e-02 4.682925343513488770e-01 -2.694665193557739258e-01
-9.736817330121994019e-02 -1.541406512260437012e-01 -1.123303025960922241e-01
2.279747277498245239e-01 2.679861187934875488e-01 -1.191607415676116943e-01
7.571835070848464966e-02 5.163307189941406250e-01 -1.518471986055374146e-01
4.282009601593017578e-02 1.340171694755554199e-01 3.972093015909194946e-02
-2.325083315372467041e-01 1.844818145036697388e-01 -7.594802975654602051e-02
-1.884894073009490967e-01 -1.399850100278854370e-01 3.964459151029586792e-02
-2.062111496925354004e-01 -2.855396270751953125e-01 2.307611405849456787e-01
1.804067343473434448e-01 -1.704062670469284058e-01 1.131312772631645203e-01
1.192272454500198364e-01 3.384104371070861816e-02 5.647298321127891541e-02
-2.403219491243362427e-01 -2.986167073249816895e-01 5.675560981035232544e-02
1.853429377079010010e-01 -1.709917932748794556e-01 -2.295684069395065308e-01
-2.575021795928478241e-02 2.700784504413604736e-01 -2.153088003396987915e-01
-2.665703892707824707e-01 1.052088513970375061e-01 1.629091054201126099e-01
1.895953118801116943e-01 -4.135072231292724609e-01 2.103365808725357056e-01
8.666928112506866455e-02 -1.516149044036865234e-01 1.736082583665847778e-01
2.342915683984756470e-01 2.993376851081848145e-01 -1.100844740867614746e-01
1.564306616783142090e-01 -1.488739252090454102e-01 9.906172752380371094e-02
4.041519463062286377e-01 2.608059048652648926e-01 3.087203204631805420e-01
-4.679752513766288757e-02 -1.984097361564636230e-01 -2.416936755180358887e-01
2.771692723035812378e-02 -2.203110232949256897e-02 2.292501367628574371e-02
7.588727772235870361e-02 4.144921004772186279e-01 -9.843283891677856445e-02
1.409130841493606567e-01 2.018593996763229370e-01 -3.012615069746971130e-02
8.874268084764480591e-02 -1.671268045902252197e-01 2.142803370952606201e-01
-2.148287892341613770e-01 -1.588120907545089722e-01 -3.507477790117263794e-02
-1.693546772003173828e-02 -1.665470562875270844e-02 4.904188215732574463e-02
-1.519324332475662231e-01 -4.359053373336791992e-01 -2.175462692975997925e-01
-9.990327805280685425e-02 -6.930427253246307373e-02 -3.474066406488418579e-02
4.624727070331573486e-01 5.215991139411926270e-01 -4.985438659787178040e-02
-1.216120738536119461e-02 -3.306646645069122314e-01 2.235590815544128418e-01
5.180888622999191284e-02 3.860338628292083740e-01 -1.310367733240127563e-01
-2.412542700767517090e-01 2.092454284429550171e-01 5.385545641183853149e-02
-1.379733383655548096e-01 1.349007785320281982e-01 -3.647361323237419128e-02
2.797163128852844238e-01 1.949227303266525269e-01 7.236011326313018799e-02
1.155409440398216248e-01 6.424927711486816406e-02 1.539869010448455811e-01
2.315432727336883545e-01 -1.881166100502014160e-01 -1.333832293748855591e-01
1.098470166325569153e-01 -7.212971895933151245e-02 -4.391717724502086639e-03
-2.243138253688812256e-01 -3.238044977188110352e-01 -1.373606920242309570e-01
7.377068977802991867e-03 -2.964141964912414551e-01 2.166518121957778931e-01
2.424471080303192139e-01 -2.069055289030075073e-01 -5.204636231064796448e-02
1.119813248515129089e-01 2.403120249509811401e-01 1.051097512245178223e-01
1.331205666065216064e-01 6.569489091634750366e-02 2.200506478548049927e-01
1.367151141166687012e-01 8.397377282381057739e-02 -8.576832478865981102e-04
-1.406404078006744385e-01 -1.709917932748794556e-01 -4.525084048509597778e-02
3.345000371336936951e-02 -1.709917932748794556e-01 -7.508350163698196411e-02
-3.437336385250091553e-01 1.325683146715164185e-01 1.860056221485137939e-01
-2.009736597537994385e-01 4.408421218395233154e-01 3.244575485587120056e-02
7.226756215095520020e-02 1.655207425355911255e-01 -5.268973857164382935e-02
1.311649382114410400e-01 -1.709917932748794556e-01 -1.574517935514450073e-01
6.762048602104187012e-02 -5.171326920390129089e-02 2.816576696932315826e-02
-1.174474954605102539e-01 -2.554497420787811279e-01 2.355641722679138184e-01
-2.836758503690361977e-03 1.191760897636413574e-01 1.521401107311248779e-01
2.946792244911193848e-01 1.948384195566177368e-01 2.935170531272888184e-01
-2.562724053859710693e-01 1.448211073875427246e-01 1.819652318954467773e-01
-1.147966682910919189e-01 -1.709917932748794556e-01 -1.880427598953247070e-01
4.429900273680686951e-02 3.450613021850585938e-01 -1.382314711809158325e-01
1.828496605157852173e-01 -1.495812982320785522e-01 -9.164015948772430420e-02
4.979802295565605164e-02 -3.542858064174652100e-01 -2.305730283260345459e-01
4.962909221649169922e-02 -1.027044504880905151e-01 -7.368859648704528809e-02
8.560131490230560303e-02 5.464774370193481445e-01 -3.121047914028167725e-01
1.733102500438690186e-01 1.253759860992431641e-01 1.400716751813888550e-01
-1.318668425083160400e-01 3.111144527792930603e-02 -6.322320550680160522e-02
-1.739666759967803955e-01 4.918308556079864502e-01 -3.694148734211921692e-02
-2.604192197322845459e-01 -1.727021783590316772e-01 -2.478781491518020630e-01
-2.424010187387466431e-01 5.364214777946472168e-01 4.140774905681610107e-02
-2.092875391244888306e-01 6.052497029304504395e-01 -4.207718670368194580e-01
-9.817877411842346191e-02 -1.469629406929016113e-01 -2.491791993379592896e-01
-3.394925221800804138e-02 -1.208273991942405701e-01 -2.519356310367584229e-01
1.807705909013748169e-01 2.790453135967254639e-01 -2.045767940580844879e-02
2.453610599040985107e-01 -1.886518597602844238e-01 2.092791646718978882e-01
2.105404734611511230e-01 2.592472136020660400e-01 3.086045384407043457e-02
5.524864792823791504e-01 3.301210999488830566e-01 2.793492078781127930e-01
-1.568727046251296997e-01 -1.709917932748794556e-01 -1.241836845874786377e-01
-2.184095382690429688e-01 -4.359044730663299561e-01 1.561374813318252563e-01
-4.842945188283920288e-02 2.516504526138305664e-01 -1.178997308015823364e-01
-1.282617449760437012e-01 -3.188772499561309814e-01 2.254408150911331177e-01
2.157974690198898315e-01 -2.743782997131347656e-01 -2.306412309408187866e-01
-1.559899002313613892e-01 4.210851192474365234e-01 -2.758450806140899658e-01
1.569496393203735352e-01 -1.709917932748794556e-01 -9.395874291658401489e-02
-2.483248114585876465e-01 7.624992132186889648e-01 1.466362029314041138e-01
-6.811390817165374756e-02 2.762977480888366699e-01 3.143951669335365295e-02
-2.355619668960571289e-01 -3.284394145011901855e-01 1.135657727718353271e-01
1.628108620643615723e-01 5.475858226418495178e-02 2.071075141429901123e-01
2.908742055296897888e-02 -3.844205290079116821e-02 -5.409980658441781998e-03
-6.606739759445190430e-02 5.176827311515808105e-02 -3.744136169552803040e-02
1.787718981504440308e-01 -2.407004237174987793e-01 -2.487016618251800537e-01
5.901177600026130676e-02 2.845424711704254150e-01 -1.992153972387313843e-01
-7.089679688215255737e-02 -1.197569891810417175e-01 2.411517053842544556e-01
5.477157980203628540e-02 2.648628316819667816e-02 7.596218492835760117e-04
-2.527997195720672607e-01 -1.181797981262207031e-01 -2.355733662843704224e-01
-2.558273673057556152e-01 -2.014723271131515503e-01 -6.099225953221321106e-02
1.981609910726547241e-01 1.586293876171112061e-01 -1.249081939458847046e-01
5.868003368377685547e-01 3.290905058383941650e-01 2.651675641536712646e-01
-2.439571022987365723e-01 -2.758393883705139160e-01 -7.925026118755340576e-03
1.434053853154182434e-02 -3.870127201080322266e-01 -2.253493219614028931e-01
-1.771949529647827148e-01 -1.709917932748794556e-01 -1.549398452043533325e-01
6.195254251360893250e-02 4.924919009208679199e-01 -2.985956072807312012e-01
-1.764542609453201294e-01 -1.165043711662292480e-01 -4.362600739113986492e-04
1.580297797918319702e-01 -1.349668055772781372e-01 -1.966189742088317871e-01
5.518658459186553955e-02 -4.221851006150245667e-02 -6.615109741687774658e-02
2.166493982076644897e-01 -3.685429394245147705e-01 -1.464855968952178955e-01
-8.458025753498077393e-02 -1.709917932748794556e-01 1.654616743326187134e-01
-2.519575357437133789e-01 -2.257163822650909424e-01 1.062556877732276917e-01
-2.345053851604461670e-01 -3.350575268268585205e-01 -1.968731731176376343e-01
1.862200647592544556e-01 -1.168519631028175354e-01 -2.666873633861541748e-01
1.855906397104263306e-01 -1.709917932748794556e-01 -1.552711357362568378e-03
2.296306788921356201e-01 -2.872077226638793945e-01 -1.734201312065124512e-01
1.095123961567878723e-01 7.138069719076156616e-02 1.202180311083793640e-01
1.492196768522262573e-01 -1.643346548080444336e-01 2.358687072992324829e-01
-2.276119142770767212e-01 -1.709917932748794556e-01 4.473997280001640320e-02
4.538077861070632935e-02 -3.768512979149818420e-02 -3.805607184767723083e-02
5.304400809109210968e-03 4.997749999165534973e-02 8.541162125766277313e-03
2.319607138633728027e-01 -2.726086676120758057e-01 -7.376144081354141235e-02
-2.403284311294555664e-01 -1.254419833421707153e-01 2.411517053842544556e-01
2.267467826604843140e-01 2.901242971420288086e-01 1.242604199796915054e-02
-2.227228134870529175e-01 -1.509773731231689453e-01 2.149970456957817078e-02
2.703758887946605682e-03 -2.618575394153594971e-01 -2.453255802392959595e-01
-2.400384992361068726e-01 1.860516965389251709e-01 2.146977931261062622e-01
2.186268195509910583e-02 2.091255225241184235e-02 -1.588694192469120026e-02
2.860234081745147705e-01 4.974278435111045837e-02 -2.222538925707340240e-02
-2.239264100790023804e-01 1.642481982707977295e-01 1.890617161989212036e-01
5.561945587396621704e-02 -1.449561417102813721e-01 -7.605312764644622803e-02
-8.050988614559173584e-02 -3.445726037025451660e-01 2.213394939899444580e-01
1.016606092453002930e-01 -1.403594166040420532e-01 -7.904424518346786499e-02
-8.433588594198226929e-02 -4.448786377906799316e-01 -2.124216258525848389e-01
-6.952363252639770508e-02 -2.042685300111770630e-01 2.437326908111572266e-01
-4.057015851140022278e-02 -3.103659451007843018e-01 2.267986983060836792e-01
-1.841826140880584717e-01 -4.115011990070343018e-01 1.999078840017318726e-01
1.312859505414962769e-01 -1.709917932748794556e-01 -5.281935632228851318e-02
2.618102133274078369e-01 2.104016691446304321e-01 2.778280377388000488e-01
1.564477384090423584e-01 -1.218563690781593323e-01 -2.519356310367584229e-01
-1.131965816020965576e-01 -1.709917932748794556e-01 9.080304950475692749e-02
-2.424164712429046631e-01 -1.993850916624069214e-01 1.891790516674518585e-02
-9.403270483016967773e-02 4.359895586967468262e-01 1.534934993833303452e-02
-1.663422882556915283e-01 -1.709917932748794556e-01 -1.635701209306716919e-02
-1.866385191679000854e-01 -1.680201590061187744e-01 2.495183944702148438e-01
2.402900457382202148e-01 -1.050117388367652893e-01 5.123547837138175964e-02
-3.152144849300384521e-01 4.092659950256347656e-01 -2.743601240217685699e-02
6.878753006458282471e-02 -1.631505638360977173e-01 -1.832819730043411255e-01
1.921235173940658569e-01 -1.709917932748794556e-01 -3.874070942401885986e-02
2.550385594367980957e-01 -1.273139715194702148e-01 1.714739501476287842e-01
2.380363643169403076e-01 -2.345411032438278198e-01 -3.505447506904602051e-02
6.835465878248214722e-02 2.527240216732025146e-01 1.920576989650726318e-01
1.197177767753601074e-01 -1.709917932748794556e-01 -8.893181569874286652e-03
1.161459833383560181e-01 6.188644766807556152e-01 -1.347564756870269775e-01
2.421937137842178345e-01 -1.526170819997787476e-01 2.519767582416534424e-01
1.993272304534912109e-01 -4.095382690429687500e-01 1.232599001377820969e-02
-2.507368624210357666e-01 8.491450548171997070e-01 2.268896996974945068e-01
1.242422312498092651e-01 3.484641611576080322e-01 2.988495528697967529e-01
2.800743281841278076e-02 -8.176577836275100708e-02 -8.086804300546646118e-03
9.727586060762405396e-02 -2.132962793111801147e-01 -2.530758678913116455e-01
2.295186072587966919e-01 -2.020318657159805298e-01 -1.073966175317764282e-01
1.570380106568336487e-02 8.849009126424789429e-02 -1.175873801112174988e-01
4.278088510036468506e-01 2.075225561857223511e-01 2.757452428340911865e-02
-2.615537941455841064e-01 8.344103097915649414e-01 1.838916242122650146e-01
-2.278750538825988770e-01 -3.766010403633117676e-01 1.513328254222869873e-01
7.302123308181762695e-02 -3.671688139438629150e-01 -2.171401977539062500e-01
1.005406752228736877e-01 -3.501138389110565186e-01 -2.312389612197875977e-01
1.400351673364639282e-01 9.882866591215133667e-02 6.729478389024734497e-02
-1.678439378738403320e-01 -4.382507801055908203e-01 1.960152685642242432e-01
-7.031433284282684326e-02 -1.698864698410034180e-01 -1.608814746141433716e-01
3.655457869172096252e-02 -1.709917932748794556e-01 1.328387260437011719e-01
1.397379189729690552e-01 -1.709917932748794556e-01 8.000074326992034912e-02
-1.074260622262954712e-01 3.178334236145019531e-01 -1.894157379865646362e-02
1.880569034256041050e-03 -1.424539387226104736e-01 -3.271396085619926453e-02
1.218154188245534897e-02 -1.709917932748794556e-01 1.854289919137954712e-01
-6.242980808019638062e-02 -6.965592503547668457e-02 -4.338729754090309143e-02
-2.991397380828857422e-01 7.917630672454833984e-01 1.369790136814117432e-01
-2.609089612960815430e-01 -1.696322709321975708e-01 1.097072884440422058e-01
-1.875984817743301392e-01 4.306513369083404541e-01 -1.604299247264862061e-01
-8.714411407709121704e-02 -1.477401703596115112e-01 -1.488877534866333008e-01
2.139344215393066406e-01 -2.328153252601623535e-01 2.259045541286468506e-01
4.124770686030387878e-02 -1.591085493564605713e-01 7.383090257644653320e-02
-1.116720610298216343e-03 -7.551959902048110962e-02 -1.989722065627574921e-02
-1.068466827273368835e-01 5.150150060653686523e-01 -2.970647215843200684e-01
-2.959042973816394806e-02 2.424499094486236572e-01 -1.701886206865310669e-01
-1.408166438341140747e-01 -4.448786377906799316e-01 1.998055428266525269e-01
1.196130216121673584e-01 -1.709917932748794556e-01 -1.274536848068237305e-01
2.123158127069473267e-01 -3.202676177024841309e-01 1.428102105855941772e-01
-1.409693211317062378e-01 3.215928077697753906e-01 1.049249712377786636e-02
6.804928928613662720e-02 -3.467061221599578857e-01 2.093344032764434814e-01
-2.475094050168991089e-01 -2.511973381042480469e-01 2.362423092126846313e-01
5.322850868105888367e-02 1.101686134934425354e-01 -8.261401951313018799e-02
1.972221583127975464e-01 2.358532547950744629e-01 4.084574803709983826e-02
-1.584482640027999878e-01 -1.709917932748794556e-01 -9.408796578645706177e-02
5.917583033442497253e-02 -3.856161842122673988e-03 -1.192997768521308899e-01
-1.654513478279113770e-01 -3.772345185279846191e-01 -2.269102782011032104e-01
-6.572531908750534058e-02 -2.586455047130584717e-01 2.350541502237319946e-01
2.625695466995239258e-01 6.144575774669647217e-02 -5.261680856347084045e-02
3.452935516834259033e-01 1.999212205410003662e-01 6.161466240882873535e-02
-1.862470656633377075e-01 -9.961099177598953247e-02 8.897329866886138916e-02
-2.659734785556793213e-01 2.291864901781082153e-01 1.010880246758460999e-01
1.336906850337982178e-01 -1.022821143269538879e-01 -9.056358784437179565e-02
1.794864237308502197e-02 5.585822090506553650e-02 -6.451486051082611084e-02
2.951631136238574982e-02 1.706129461526870728e-01 1.169150471687316895e-01
9.155756980180740356e-02 -3.908582031726837158e-01 2.139514535665512085e-01
2.667967677116394043e-01 4.160855710506439209e-01 3.029516637325286865e-01
6.933166831731796265e-02 -1.709917932748794556e-01 -7.480047643184661865e-02
-5.649612750858068466e-03 1.026944592595100403e-01 -1.742964386940002441e-01
-1.512299478054046631e-01 3.802335262298583984e-01 2.471659705042839050e-02
9.343669749796390533e-03 -1.583386212587356567e-01 2.444127947092056274e-02
-2.207582443952560425e-01 -3.482434749603271484e-01 8.752687275409698486e-02
-1.163532212376594543e-01 -1.709917932748794556e-01 1.462804824113845825e-01
-1.195831820368766785e-01 -3.633022308349609375e-01 -2.177030146121978760e-01
-8.684345521032810211e-03 -3.487730026245117188e-01 -2.198170125484466553e-01
-4.424690082669258118e-02 -2.371269762516021729e-01 2.252775877714157104e-01
-2.288146913051605225e-01 -1.709917932748794556e-01 2.263609915971755981e-01
-2.026832103729248047e-01 -1.055745482444763184e-01 -2.519356310367584229e-01
1.281567513942718506e-01 -1.446572691202163696e-01 1.885565519332885742e-01
-6.849277764558792114e-02 4.306960105895996094e-01 -3.277637064456939697e-01
-2.122965455055236816e-01 -3.356836736202239990e-01 -2.335422188043594360e-01
7.936082035303115845e-02 2.071669558063149452e-03 -5.005912855267524719e-02
2.423301488161087036e-01 -2.076405435800552368e-01 4.971352219581604004e-02
2.195186913013458252e-01 1.721514761447906494e-01 9.318912774324417114e-02
3.663929998874664307e-01 2.496697157621383667e-01 1.556160748004913330e-01
9.781756252050399780e-02 -1.709917932748794556e-01 1.341357231140136719e-01
2.296518087387084961e-01 -1.330736875534057617e-01 -2.658801078796386719e-01
-1.824998557567596436e-01 6.575257182121276855e-01 -4.272219240665435791e-01
3.614030778408050537e-02 3.692689817398786545e-03 1.268617156893014908e-02
-2.527997195720672607e-01 -1.272392570972442627e-01 2.022947520017623901e-01
2.130686640739440918e-01 -3.909743428230285645e-01 2.067980915307998657e-01
-3.353791534900665283e-01 4.497163593769073486e-01 1.063118455931544304e-03
2.070149630308151245e-01 -3.567011356353759766e-01 -2.550912462174892426e-02
-1.098503097891807556e-01 -2.084291130304336548e-01 2.430691719055175781e-01
-2.339133322238922119e-01 2.383335679769515991e-01 6.668278016149997711e-03
-3.025906905531883240e-02 -7.600526511669158936e-02 -5.660881474614143372e-02
-5.804162472486495972e-03 8.026715368032455444e-02 -4.171209037303924561e-02
9.491333365440368652e-02 -2.031274735927581787e-01 2.439154237508773804e-01
-2.169769257307052612e-01 -4.756361544132232666e-01 -1.544346809387207031e-01
-2.182844579219818115e-01 1.743106395006179810e-01 -1.901052333414554596e-02
2.549045383930206299e-01 -1.016811355948448181e-01 -1.432027518749237061e-01
-5.741304159164428711e-02 -1.273042261600494385e-01 3.643337264657020569e-02
2.624337375164031982e-02 -7.260725647211074829e-02 9.211790561676025391e-02
1.310057491064071655e-01 -2.066100202500820160e-02 -6.331061571836471558e-02
-2.091714143753051758e-01 -1.709917932748794556e-01 -2.314574271440505981e-01
2.794554457068443298e-02 -4.592552483081817627e-01 -2.161136418581008911e-01
6.817274540662765503e-02 5.357043743133544922e-01 -3.313282132148742676e-01
-1.863258481025695801e-01 -6.505676358938217163e-02 3.553839027881622314e-02
1.776901334524154663e-01 -4.734530746936798096e-01 2.053297460079193115e-01
2.356283664703369141e-01 -1.600457429885864258e-01 -1.085566058754920959e-01
-1.143079176545143127e-01 2.214078903198242188e-01 -1.126663610339164734e-01
1.363261044025421143e-01 -1.369167566299438477e-01 1.578778922557830811e-01
2.167736589908599854e-01 -2.896319925785064697e-01 1.073293313384056091e-01
1.650475114583969116e-01 -1.655082106590270996e-01 1.353433728218078613e-01
1.730414181947708130e-01 -1.417238116264343262e-01 2.537155747413635254e-01
-1.209026724100112915e-01 -1.057369783520698547e-01 1.561366468667984009e-01
2.433177083730697632e-01 1.965279281139373779e-01 1.227283701300621033e-01
1.462803687900304794e-03 1.322385817766189575e-01 -5.188531056046485901e-02
9.285618364810943604e-02 3.466392755508422852e-01 -7.801980525255203247e-02
4.564310237765312195e-02 2.290701121091842651e-01 -1.790710091590881348e-01
9.657254815101623535e-02 5.545620620250701904e-02 -5.744913592934608459e-02
4.376918077468872070e-01 2.872163653373718262e-01 2.206142544746398926e-01
-1.958904564380645752e-01 -4.208961129188537598e-01 -2.093233168125152588e-01
1.146459579467773438e-01 -4.419500827789306641e-01 2.057975083589553833e-01
-2.183096557855606079e-01 -3.650759756565093994e-01 -1.003454402089118958e-01
2.193489521741867065e-01 1.063734814524650574e-01 -3.525484586134552956e-03
-5.606034398078918457e-02 -4.717475771903991699e-01 -2.132329642772674561e-01
-1.141004934906959534e-01 -1.804865300655364990e-01 -2.583125531673431396e-01
-9.583021700382232666e-02 -1.276810765266418457e-01 4.094482585787773132e-02
-1.285955309867858887e-01 -1.026167348027229309e-01 2.015345841646194458e-01
-2.145331948995590210e-01 -1.263978928327560425e-01 2.411517053842544556e-01
-1.869115605950355530e-02 -9.362630546092987061e-02 2.354954741895198822e-02
-1.903191506862640381e-01 1.224943343549966812e-02 -4.460315778851509094e-02
1.346709579229354858e-01 1.111406087875366211e-02 -7.766254246234893799e-02
1.477503776550292969e-02 2.590815424919128418e-01 -2.159073501825332642e-01
-2.231313288211822510e-01 -1.709917932748794556e-01 1.638122051954269409e-01
3.234826624393463135e-01 1.433170139789581299e-01 -5.477793514728546143e-03
1.082519665360450745e-01 -5.715218558907508850e-02 -7.624495029449462891e-02
-3.084917180240154266e-02 -1.709917932748794556e-01 8.868742734193801880e-02
1.369376480579376221e-01 -1.443348526954650879e-01 4.444758966565132141e-02
-7.841739803552627563e-02 2.519008517265319824e-01 -2.923782914876937866e-02
-2.449089437723159790e-01 -2.698757946491241455e-01 1.085045039653778076e-01
-1.129741314798593521e-02 -7.553827762603759766e-02 -9.091297537088394165e-02
-2.074780911207199097e-01 4.020255804061889648e-02 -6.532375514507293701e-02
-1.766264289617538452e-01 -5.193011090159416199e-02 7.039147615432739258e-02
-5.246571451425552368e-02 -1.171134561300277710e-01 1.546544879674911499e-01
-1.152208447456359863e-01 -1.732048988342285156e-01 2.486908137798309326e-01
-2.447123825550079346e-01 -2.711078524589538574e-01 1.397127062082290649e-01
-6.114484742283821106e-03 -4.625162854790687561e-02 3.619661321863532066e-03
2.302284091711044312e-01 -2.555747628211975098e-01 -2.463277578353881836e-01
-4.163901507854461670e-02 -1.657892018556594849e-01 2.498740851879119873e-01
-2.405704706907272339e-01 -2.120732218027114868e-01 -1.044981367886066437e-02
-1.155080944299697876e-01 -1.647106856107711792e-01 1.934878975152969360e-01
-2.301027625799179077e-01 1.350550800561904907e-01 -6.846942007541656494e-02
1.920577287673950195e-01 -3.796246647834777832e-01 -2.153283059597015381e-01
-2.079891040921211243e-02 -4.114568233489990234e-02 3.178305178880691528e-02
-2.482102811336517334e-01 -1.595641523599624634e-01 -1.993599534034729004e-01
-1.318245977163314819e-01 -4.861753284931182861e-01 2.053297460079193115e-01
1.981869637966156006e-01 -4.173763096332550049e-01 3.864889591932296753e-02
-1.029631868004798889e-01 3.496230840682983398e-01 -7.642562501132488251e-03
-2.174926251173019409e-01 -2.253070473670959473e-01 2.403752952814102173e-01
-1.910858303308486938e-01 -1.678098291158676147e-01 6.576713919639587402e-02
-1.555749028921127319e-01 -8.260066062211990356e-02 1.674603372812271118e-01
-1.227294206619262695e-01 -2.074838131666183472e-01 -2.540033459663391113e-01
-1.729856133460998535e-01 3.279851675033569336e-01 -9.040611237287521362e-02
2.359134107828140259e-01 -1.580827981233596802e-01 1.256277114152908325e-01
-9.192381054162979126e-02 4.054245650768280029e-01 -2.178914397954940796e-01
-1.994565725326538086e-01 1.211299654096364975e-02 6.876557320356369019e-02
-2.390168309211730957e-01 1.801572442054748535e-01 8.835851401090621948e-02
-3.722412139177322388e-02 -1.510260999202728271e-01 -1.374012827873229980e-01
1.471884995698928833e-01 -4.419898688793182373e-01 -2.062550634145736694e-01
2.417982071638107300e-01 -2.109703123569488525e-01 -2.190422266721725464e-01
2.411655485630035400e-01 -2.149368077516555786e-01 8.544859290122985840e-02
2.206993848085403442e-02 1.018035486340522766e-01 -8.661146461963653564e-02
-8.420569449663162231e-02 -1.709917932748794556e-01 -1.911402642726898193e-01
1.824434474110603333e-02 -1.035311967134475708e-01 -2.666873633861541748e-01
2.196924984455108643e-01 -3.494771420955657959e-01 -9.273330867290496826e-02
-1.310108453035354614e-01 -1.337542682886123657e-01 -1.511243879795074463e-01
8.740101754665374756e-02 -1.754806563258171082e-02 -7.747534662485122681e-02
2.247001528739929199e-01 -2.351510375738143921e-01 1.444815844297409058e-01
2.396086603403091431e-01 2.699699699878692627e-01 3.927668184041976929e-02
-2.602892816066741943e-01 -1.735167354345321655e-01 8.457636088132858276e-02
-1.793056875467300415e-01 -3.246800005435943604e-01 2.245141565799713135e-01
4.516150429844856262e-02 -2.816210389137268066e-01 -2.295870780944824219e-01
-2.552012205123901367e-01 2.109962552785873413e-01 -8.571209013462066650e-02
1.608404703438282013e-02 -5.649759620428085327e-02 4.457510635256767273e-02
-8.828541636466979980e-02 3.314489722251892090e-01 6.433127820491790771e-02
1.827660202980041504e-01 -1.510837525129318237e-01 2.460208907723426819e-02
-3.049798607826232910e-01 1.007818728685379028e-01 1.669438332319259644e-01
1.824557781219482422e-01 2.161889225244522095e-01 5.385708063840866089e-02
1.799493841826915741e-02 5.220195651054382324e-02 -2.035429328680038452e-02
-3.195886611938476562e-01 1.255587041378021240e-01 1.731591522693634033e-01
-2.229479327797889709e-02 -4.371600449085235596e-01 -2.069575488567352295e-01
5.403821542859077454e-02 -1.709917932748794556e-01 -1.277259886264801025e-01
2.687028348445892334e-01 1.712731420993804932e-01 5.819067358970642090e-02
2.402177751064300537e-01 -1.285143345594406128e-01 2.138109207153320312e-01
-3.786509037017822266e-01 2.411469519138336182e-01 3.005453050136566162e-01
8.289038389921188354e-02 1.590893976390361786e-02 -1.206734403967857361e-01
3.900180757045745850e-02 4.561954736709594727e-02 -1.303384900093078613e-01
-2.412372380495071411e-01 -2.928821444511413574e-01 -2.175145745277404785e-01
-2.140337228775024414e-01 -4.611669480800628662e-01 2.505688369274139404e-02
-2.288073897361755371e-01 7.235845327377319336e-01 -5.363811254501342773e-01
-4.160695150494575500e-02 -1.709917932748794556e-01 1.497836131602525711e-02
-2.463845908641815186e-01 -1.721158176660537720e-01 8.725110441446304321e-03
1.492706779390573502e-02 -4.842897132039070129e-02 -5.419699475169181824e-02
-1.085366755723953247e-01 -1.491289436817169189e-01 2.525338828563690186e-01
-1.162526197731494904e-03 -4.740207791328430176e-01 -2.161136418581008911e-01
-8.075661957263946533e-02 3.339430391788482666e-01 1.907058805227279663e-02
1.320469081401824951e-01 -4.214224219322204590e-01 1.984638869762420654e-01
2.190566062927246094e-01 3.211607336997985840e-01 -4.104378074407577515e-02
-7.727423310279846191e-02 1.885433495044708252e-01 2.522093616425991058e-02
2.519913911819458008e-01 -1.016811355948448181e-01 2.195950299501419067e-01
-2.091567963361740112e-01 -4.448786377906799316e-01 -1.947681009769439697e-01
2.539290301501750946e-02 -1.400922387838363647e-01 8.403465896844863892e-02
-8.448678255081176758e-02 8.373907208442687988e-02 -9.739451855421066284e-02
-1.053728833794593811e-01 -1.333693116903305054e-01 1.891136914491653442e-01
-1.605663299560546875e-01 -1.709917932748794556e-01 1.042878702282905579e-01
4.060141742229461670e-01 2.617386281490325928e-01 1.616616696119308472e-01
-2.516959905624389648e-01 -1.356018930673599243e-01 -1.867010891437530518e-01
1.244363412261009216e-01 5.940078571438789368e-02 5.079124122858047485e-02
5.751418322324752808e-02 1.031460165977478027e-01 2.056573703885078430e-02
-3.863719403743743896e-01 2.673805952072143555e-01 3.451960682868957520e-01
