3.174279332160949707e-01 -1.202217414975166321e-01 4.776600301265716553e-01
5.241947770118713379e-01 -1.363059580326080322e-01 -2.188375443220138550e-01
-5.004066824913024902e-01 -5.478614568710327148e-01 -1.298609822988510132e-01
6.230560541152954102e-01 3.810923397541046143e-01 -1.842111796140670776e-01
3.304660618305206299e-01 -6.064894795417785645e-01 -3.214895129203796387e-01
2.097917646169662476e-01 5.350129008293151855e-01 6.989689469337463379e-01
5.287402272224426270e-01 -2.578669488430023193e-01 1.608982384204864502e-01
-2.229068428277969360e-01 3.724448382854461670e-01 -6.105163097381591797e-01
2.774341106414794922e-01 6.373055279254913330e-02 5.354322791099548340e-01
7.373578548431396484e-01 5.800037384033203125e-01 9.953697212040424347e-03
3.239515721797943115e-01 1.868639290332794189e-01 -5.301007628440856934e-01
-5.886276364326477051e-01 -4.470482468605041504e-02 -4.148962721228599548e-02
-6.651152670383453369e-02 -6.064894795417785645e-01 -3.888008743524551392e-02
-6.180677413940429688e-01 4.261559844017028809e-01 -2.317291498184204102e-01
4.332281947135925293e-01 -4.101844131946563721e-01 3.021894097328186035e-01
-4.117278158664703369e-01 4.919421076774597168e-01 -5.919995903968811035e-01
-1.906492114067077637e-01 -5.986940264701843262e-01 -4.652423262596130371e-01
6.184269189834594727e-01 3.822029829025268555e-01 1.967909187078475952e-01
-4.219875633716583252e-01 3.592546880245208740e-01 -4.932968020439147949e-01
-4.542808979749679565e-02 3.182457983493804932e-01 6.407206058502197266e-01
2.973754703998565674e-01 5.032106861472129822e-02 -5.240122675895690918e-01
4.876858294010162354e-01 -8.827000856399536133e-02 -3.100554347038269043e-01
-1.017682328820228577e-01 -4.796465337276458740e-01 5.118522047996520996e-01
-4.128165841102600098e-01 -3.837904036045074463e-01 -3.439252972602844238e-01
-2.235103994607925415e-01 -2.445247322320938110e-01 -5.094848275184631348e-01
-3.230698704719543457e-01 6.269927620887756348e-01 6.748271584510803223e-01
-1.089550647884607315e-02 -7.311982661485671997e-02 5.856940150260925293e-01
-3.795930743217468262e-01 -5.326220393180847168e-01 3.512959480285644531e-01
4.102571308612823486e-01 1.720492243766784668e-01 -4.610601067543029785e-01
-3.253658115863800049e-01 -3.711191415786743164e-01 -4.285011887550354004e-01
-5.791453719139099121e-01 -8.213783055543899536e-02 -7.023927569389343262e-02
5.580910444259643555e-01 6.480284333229064941e-01 4.994312226772308350e-01
-1.401088535785675049e-01 -6.064894795417785645e-01 -1.285974085330963135e-01
1.755548454821109772e-02 -6.064894795417785645e-01 -1.974832862615585327e-01
1.485583633184432983e-01 1.145102232694625854e-01 -5.941981077194213867e-01
-3.421091139316558838e-01 3.560374677181243896e-01 5.549458265304565430e-01
-6.594908237457275391e-01 5.602134466171264648e-01 -3.290227353572845459e-01
-1.797030568122863770e-01 4.737449586391448975e-01 6.459287405014038086e-01
6.815583705902099609e-01 4.890726506710052490e-01 2.221471220254898071e-01
1.034091562032699585e-01 5.933322906494140625e-01 -7.303576469421386719e-01
-7.157992124557495117e-01 6.337057352066040039e-01 -2.311656177043914795e-01
4.185031354427337646e-01 -6.064894795417785645e-01 -2.328470498323440552e-01
6.185870766639709473e-01 2.023992687463760376e-01 -4.392365366220474243e-02
4.867171943187713623e-01 -3.568337857723236084e-01 2.233169376850128174e-01
-1.248658224940299988e-01 4.598082304000854492e-01 6.518115401268005371e-01
-6.130024790763854980e-01 1.202126145362854004e-01 -4.701823368668556213e-02
-3.909689188003540039e-01 -5.950325727462768555e-01 3.209974169731140137e-01
3.638716638088226318e-01 4.876242280006408691e-01 -6.197245717048645020e-01
-6.306297779083251953e-01 2.236746251583099365e-01 3.372095897793769836e-02
-5.907660722732543945e-01 -2.107011713087558746e-02 5.354227498173713684e-02
2.401312589645385742e-01 -5.388853549957275391e-01 4.524458050727844238e-01
5.743300318717956543e-01 1.283235549926757812e-01 2.031297385692596436e-01
-5.034675449132919312e-02 3.215123713016510010e-02 -5.955554842948913574e-01
5.439950823783874512e-01 -7.470384240150451660e-02 -1.953293681144714355e-01
-5.223490595817565918e-01 4.412970244884490967e-01 4.066921472549438477e-01
-2.128127813339233398e-01 -6.064894795417785645e-01 3.614273071289062500e-01
-4.344649314880371094e-01 -6.064894795417785645e-01 9.914137423038482666e-02
-1.627294272184371948e-01 -2.716133594512939453e-01 -5.302373170852661133e-01
5.266973972320556641e-01 -1.090207174420356750e-01 2.245240658521652222e-01
6.161937713623046875e-01 2.897333502769470215e-01 -1.630917787551879883e-01
-6.049349308013916016e-01 4.821047484874725342e-01 -2.854976058006286621e-01
5.907838344573974609e-01 1.915346086025238037e-01 -1.873673796653747559e-01
4.186460673809051514e-01 -2.942321300506591797e-01 -3.489723205566406250e-01
4.963460266590118408e-01 6.976030766963958740e-02 3.389150798320770264e-01
-1.307194232940673828e-01 -4.023589789867401123e-01 5.198050141334533691e-01
-8.656079322099685669e-02 5.358395576477050781e-01 -7.220424413681030273e-01
4.242357015609741211e-01 4.078978300094604492e-01 -4.951976239681243896e-01
-1.678110510110855103e-01 1.310223042964935303e-01 -5.939022898674011230e-01
8.600092679262161255e-02 -6.064894795417785645e-01 1.197491511702537537e-01
5.805195569992065430e-01 2.287286333739757538e-02 -1.255167573690414429e-01
3.047366142272949219e-01 4.876242280006408691e-01 -6.442477703094482422e-01
-5.054473280906677246e-01 -5.203959345817565918e-01 1.242972984910011292e-01
-4.865730926394462585e-02 1.060388907790184021e-01 6.079941987991333008e-01
5.614466667175292969e-01 3.723956942558288574e-01 -3.281306028366088867e-01
6.501510143280029297e-01 3.899983465671539307e-01 -2.107039280235767365e-02
-6.240451335906982422e-01 4.585346579551696777e-01 2.310340106487274170e-01
-4.807829856872558594e-01 -3.577878177165985107e-01 -2.540028691291809082e-01
-1.130876168608665466e-01 1.397908627986907959e-01 6.046504378318786621e-01
5.166579484939575195e-01 -4.709853529930114746e-01 4.055410623550415039e-02
3.445010781288146973e-01 -5.539044141769409180e-01 3.743899166584014893e-01
-5.395466685295104980e-01 1.450374573469161987e-01 3.108323514461517334e-01
6.620821356773376465e-01 5.803141593933105469e-01 3.164465427398681641e-01
4.600718915462493896e-01 -4.736572504043579102e-01 2.415714114904403687e-01
-6.293634772300720215e-01 2.896532714366912842e-01 -1.186626702547073364e-01
1.642583906650543213e-01 -2.724781632423400879e-01 5.273937582969665527e-01
-8.561048656702041626e-03 5.550671815872192383e-01 -7.361548542976379395e-01
1.306916773319244385e-01 3.427517414093017578e-01 -6.312925219535827637e-01
5.806060433387756348e-01 2.119552046060562134e-01 2.209590971469879150e-01
5.911525487899780273e-01 4.876242280006408691e-01 3.830191791057586670e-01
5.544323325157165527e-01 -3.717785235494375229e-03 1.990950405597686768e-01
-7.269547581672668457e-01 5.326333045959472656e-01 7.271832972764968872e-02
-8.970735222101211548e-02 -6.440132856369018555e-02 -5.756778120994567871e-01
-5.470161437988281250e-01 2.466670721769332886e-01 -3.253239393234252930e-01
-3.637819886207580566e-01 6.241299211978912354e-02 -4.814921915531158447e-01
-6.537801623344421387e-01 4.218090474605560303e-01 -8.599620312452316284e-02
6.496047973632812500e-01 4.351357221603393555e-01 7.838248461484909058e-02
1.128259003162384033e-01 -6.064894795417785645e-01 -1.161455288529396057e-01
-5.454084277153015137e-01 -2.969404160976409912e-01 7.911368459463119507e-02
3.120868802070617676e-01 3.430339097976684570e-01 5.667030215263366699e-01
-5.580196380615234375e-01 -1.506850421428680420e-01 1.501851528882980347e-01
-4.701154530048370361e-01 -5.619009733200073242e-01 -1.992648541927337646e-01
9.233647584915161133e-02 -4.504313170909881592e-01 5.165750980377197266e-01
-5.696339607238769531e-01 4.794592261314392090e-01 3.545277118682861328e-01
-4.327397942543029785e-01 -2.449617087841033936e-01 3.533451557159423828e-01
5.720004439353942871e-01 -1.062559559941291809e-01 4.188268259167671204e-02
5.483402013778686523e-01 4.177069067955017090e-01 -3.564445376396179199e-01
3.356787860393524170e-01 6.133365035057067871e-01 6.636343002319335938e-01
5.484019219875335693e-02 -6.064894795417785645e-01 1.913210749626159668e-02
-4.660351872444152832e-01 4.876242280006408691e-01 -4.870881438255310059e-01
2.133940458297729492e-01 -6.064894795417785645e-01 1.275026649236679077e-01
3.767413794994354248e-01 5.904328227043151855e-01 -6.378352046012878418e-01
-3.547230362892150879e-01 3.031302094459533691e-01 -5.342328548431396484e-01
-1.843477189540863037e-01 -3.799912706017494202e-02 5.604115724563598633e-01
4.883403182029724121e-01 -1.811574697494506836e-01 2.871421277523040771e-01
4.618553221225738525e-01 -1.449971348047256470e-01 -3.296563625335693359e-01
-3.421291410923004150e-01 -1.447850316762924194e-01 -4.586931765079498291e-01
-5.045024156570434570e-01 4.876242280006408691e-01 -4.452463090419769287e-01
-2.556691179051995277e-03 2.227248251438140869e-01 6.315314173698425293e-01
-5.506875514984130859e-01 4.929963052272796631e-01 4.681367874145507812e-01
4.865733683109283447e-01 -4.042324721813201904e-01 2.049732059240341187e-01
-4.536434113979339600e-01 3.281723260879516602e-01 -4.630938470363616943e-01
6.969161033630371094e-01 5.699998140335083008e-01 -2.260366529226303101e-01
2.108741849660873413e-01 -5.128572583198547363e-01 -4.678477346897125244e-01
3.021148145198822021e-01 -4.832205772399902344e-01 -4.193912446498870850e-01
6.060386896133422852e-01 4.857397973537445068e-01 2.675302922725677490e-01
6.531634330749511719e-01 4.876242280006408691e-01 1.205821335315704346e-01
6.726958602666854858e-02 3.011428713798522949e-01 6.342762112617492676e-01
4.410900473594665527e-01 8.591779321432113647e-02 -4.139645993709564209e-01
-5.221952199935913086e-01 -3.841645419597625732e-01 -1.436283290386199951e-01
3.568746447563171387e-01 -3.758511841297149658e-01 3.987656533718109131e-01
6.489436328411102295e-02 4.876242280006408691e-01 6.902377009391784668e-01
-1.487975101917982101e-02 1.374051868915557861e-01 -6.162461042404174805e-01
5.506261587142944336e-01 1.050575226545333862e-01 2.511802315711975098e-01
1.771973073482513428e-01 -3.919171690940856934e-01 5.025237202644348145e-01
1.082722842693328857e-01 -7.519634813070297241e-02 -5.706253051757812500e-01
-7.576757073402404785e-01 6.387118101119995117e-01 5.133926752023398876e-04
-7.883767783641815186e-02 2.117452919483184814e-01 -6.191428899765014648e-01
1.160849779844284058e-01 2.599136829376220703e-01 6.215748786926269531e-01
1.551821231842041016e-01 -4.874719679355621338e-01 4.960338175296783447e-01
-9.555321186780929565e-02 -3.064363598823547363e-01 -5.380663871765136719e-01
-1.026876941323280334e-01 1.844397932291030884e-02 5.875484347343444824e-01
2.820286750793457031e-01 9.570404887199401855e-02 -5.377832651138305664e-01
-4.251911044120788574e-01 2.639939188957214355e-01 4.736872017383575439e-01
-1.972492933273315430e-01 4.955935180187225342e-01 -6.977723240852355957e-01
3.121041655540466309e-01 -5.719158053398132324e-01 -3.948534727096557617e-01
-1.760024577379226685e-01 2.576332390308380127e-01 -6.111909151077270508e-01
-5.799055099487304688e-01 4.876242280006408691e-01 -3.441246449947357178e-01
2.279716283082962036e-01 4.876242280006408691e-01 6.505433917045593262e-01
3.680071979761123657e-02 -6.064894795417785645e-01 4.439467191696166992e-01
5.346074700355529785e-01 4.463121891021728516e-01 3.824019730091094971e-01
-3.813519179821014404e-01 -4.003061056137084961e-01 -3.799909651279449463e-01
-7.635931670665740967e-02 -1.463253498077392578e-01 5.659338235855102539e-01
-5.202324390411376953e-01 -4.662224054336547852e-01 -7.365211099386215210e-02
2.969257533550262451e-01 -1.729332953691482544e-01 -4.823961853981018066e-01
4.822555482387542725e-01 2.965801954269409180e-01 -4.125407934188842773e-01
6.465685367584228516e-02 -2.592242956161499023e-01 5.493234395980834961e-01
2.727621197700500488e-01 -7.789739966392517090e-02 -5.132627487182617188e-01
-6.213450431823730469e-01 3.480226993560791016e-01 1.939724534749984741e-01
4.381468594074249268e-01 3.764067292213439941e-01 4.795025885105133057e-01
-4.347981214523315430e-01 4.256388843059539795e-01 4.970642924308776855e-01
-2.672740221023559570e-01 -3.550565987825393677e-02 -5.254997611045837402e-01
6.380350589752197266e-01 3.608058989048004150e-01 -7.935268431901931763e-02
6.423783898353576660e-01 5.804188251495361328e-01 3.640700876712799072e-01
-6.213850378990173340e-01 1.655189543962478638e-01 3.669664636254310608e-02
5.003398060798645020e-01 -3.727540001273155212e-02 -3.062064349651336670e-01
1.022092998027801514e-01 -3.533452749252319336e-01 5.300538539886474609e-01
2.763389348983764648e-01 3.427426218986511230e-01 -5.804936289787292480e-01
-3.933494985103607178e-01 -5.036917924880981445e-01 -3.395719826221466064e-01
1.505930125713348389e-01 6.310529708862304688e-01 -7.316913604736328125e-01
-4.418870508670806885e-01 -6.064894795417785645e-01 1.632160097360610962e-01
-5.250400900840759277e-01 -2.810364663600921631e-01 -1.774290204048156738e-01
-9.648451209068298340e-02 -5.871752500534057617e-01 -4.952113032341003418e-01
1.807540804147720337e-01 3.096920549869537354e-01 -6.146884560585021973e-01
-6.120020151138305664e-01 1.917569190263748169e-01 1.383213698863983154e-01
9.524415433406829834e-02 -9.804452210664749146e-02 5.698310732841491699e-01
-2.218810468912124634e-02 4.645949304103851318e-01 6.660559177398681641e-01
-5.313178896903991699e-01 -9.822749346494674683e-02 2.353318184614181519e-01
-5.365888476371765137e-01 5.954515933990478516e-01 5.198833346366882324e-01
4.974120557308197021e-01 2.159101665019989014e-01 3.737581074237823486e-01
3.592033386230468750e-01 7.141897827386856079e-02 4.820597767829895020e-01
6.571052074432373047e-01 5.621406435966491699e-01 -3.180783987045288086e-01
4.792932569980621338e-01 1.471863389015197754e-01 3.803336322307586670e-01
-3.311583995819091797e-01 -5.551807284355163574e-01 -3.890435397624969482e-01
-4.475767910480499268e-01 6.339132785797119141e-01 6.009452939033508301e-01
-2.126755192875862122e-02 -6.064894795417785645e-01 3.479722440242767334e-01
-4.466454982757568359e-01 2.833409979939460754e-02 -4.020070433616638184e-01
5.114543437957763672e-01 4.332786202430725098e-01 -4.083768427371978760e-01
2.814933955669403076e-01 -3.794315755367279053e-01 -4.549562036991119385e-01
5.021696090698242188e-01 1.515876650810241699e-01 -3.506428301334381104e-01
-1.529622077941894531e-01 -2.100849896669387817e-01 5.453023910522460938e-01
-4.855596423149108887e-01 6.105526089668273926e-01 -5.649920701980590820e-01
-1.177140548825263977e-01 2.638992369174957275e-01 6.229322552680969238e-01
-1.832789480686187744e-01 5.892029404640197754e-01 7.209513783454895020e-01
-4.282999634742736816e-01 3.726405799388885498e-01 4.919690191745758057e-01
4.975204169750213623e-01 -4.990626275539398193e-01 -1.401835381984710693e-01
2.930330932140350342e-01 -3.772822022438049316e-01 4.474788904190063477e-01
2.054994255304336548e-01 -6.064894795417785645e-01 -2.017478086054325104e-02
1.262463927268981934e-01 -4.590679109096527100e-01 -5.098280310630798340e-01
3.402387797832489014e-01 5.063494443893432617e-01 6.387842893600463867e-01
6.779388189315795898e-01 5.583444833755493164e-01 2.667819559574127197e-01
-5.533266663551330566e-01 -1.979999989271163940e-01 -1.323999762535095215e-01
-3.353806436061859131e-01 -2.562820315361022949e-01 -4.426618218421936035e-01
-7.605682127177715302e-03 5.890162587165832520e-01 7.440389394760131836e-01
3.844248354434967041e-01 -1.370169371366500854e-01 -4.220895469188690186e-01
2.489908635616302490e-01 -6.064894795417785645e-01 2.619497776031494141e-01
-5.268325805664062500e-01 -1.769179403781890869e-01 -2.141601294279098511e-01
-5.076048374176025391e-01 -4.935922920703887939e-01 -1.356991082429885864e-01
4.853143393993377686e-01 -6.064894795417785645e-01 6.357760727405548096e-02
-4.015536606311798096e-01 -6.064894795417785645e-01 -7.156362291425466537e-03
-1.967231035232543945e-01 -1.280207782983779907e-01 -5.396112799644470215e-01
-3.951110541820526123e-01 -2.602428011596202850e-02 4.415998160839080811e-01
-7.219614386558532715e-01 5.139927268028259277e-01 -8.135711401700973511e-02
-4.998859465122222900e-01 3.366941809654235840e-01 4.100349843502044678e-01
-7.643833756446838379e-02 6.549981236457824707e-01 7.481756210327148438e-01
-2.665921747684478760e-01 1.069711893796920776e-01 5.500243902206420898e-01
6.111920624971389771e-02 5.594797134399414062e-01 -7.291532754898071289e-01
-2.456239163875579834e-01 6.010785698890686035e-01 7.013440728187561035e-01
-5.205410718917846680e-01 -2.038654536008834839e-01 2.196891456842422485e-01
-6.369749307632446289e-01 2.934512794017791748e-01 -6.523239612579345703e-02
-8.800607174634933472e-02 -6.064894795417785645e-01 -3.206547498703002930e-01
-1.685894131660461426e-01 -6.064894795417785645e-01 2.483750320971012115e-02
-5.911684632301330566e-01 3.888367712497711182e-01 2.829180359840393066e-01
-1.899819076061248779e-01 4.445634186267852783e-01 -6.359353065490722656e-01
-5.562653541564941406e-01 8.528357371687889099e-03 2.172038704156875610e-01
-4.257746338844299316e-01 -6.064894795417785645e-01 -1.470895111560821533e-01
-1.098849773406982422e-01 4.876242280006408691e-01 -6.767703294754028320e-01
-5.804380774497985840e-01 1.241356283426284790e-01 2.044370174407958984e-01
3.768806755542755127e-01 -6.064894795417785645e-01 -6.254037469625473022e-02
-6.019052267074584961e-01 8.087167888879776001e-02 8.680493384599685669e-02
2.588464021682739258e-01 2.113863639533519745e-02 -5.352051258087158203e-01
5.045301914215087891e-01 -5.491086840629577637e-01 -4.138166084885597229e-02
-1.649916768074035645e-01 2.063251882791519165e-01 6.079459190368652344e-01
3.790054619312286377e-01 5.495722889900207520e-01 6.268549561500549316e-01
-2.408654689788818359e-01 -5.649215579032897949e-01 -4.499574005603790283e-01
6.114207506179809570e-01 5.450623631477355957e-01 -3.954224288463592529e-01
-8.745212852954864502e-02 4.892811179161071777e-01 7.135810852050781250e-01
-2.301186770200729370e-01 -3.552933037281036377e-02 5.418547987937927246e-01
-5.642883181571960449e-01 6.538465023040771484e-01 -5.018386840820312500e-01
-2.320859730243682861e-01 4.226784110069274902e-01 -6.149197220802307129e-01
3.717080354690551758e-01 -2.158329933881759644e-01 -4.168549776077270508e-01
5.444111227989196777e-01 2.331754949409514666e-04 -2.238763868808746338e-01
-6.565576791763305664e-01 3.897652924060821533e-01 2.880775742232799530e-02
-3.870598375797271729e-01 2.542376220226287842e-01 -5.001199245452880859e-01
1.206030920147895813e-01 -6.064894795417785645e-01 7.559032738208770752e-02
7.399796843528747559e-01 6.076385378837585449e-01 -3.105282969772815704e-02
3.831921815872192383e-01 -7.888785749673843384e-02 -4.340935349464416504e-01
-4.694475326687097549e-03 -6.064894795417785645e-01 -3.064668178558349609e-01
3.247508704662322998e-01 -6.064894795417785645e-01 1.288800388574600220e-01
-5.957320928573608398e-01 3.544661998748779297e-01 -2.573793828487396240e-01
-3.643172681331634521e-01 -6.064894795417785645e-01 -2.597927451133728027e-01
-2.853191494941711426e-01 -1.237011253833770752e-01 5.045866370201110840e-01
5.640074610710144043e-01 5.494284033775329590e-01 4.596021473407745361e-01
-1.864797770977020264e-01 -6.064894795417785645e-01 -3.426334857940673828e-01
3.825285434722900391e-01 -5.994896888732910156e-01 -3.203661441802978516e-01
6.376654505729675293e-01 3.149721324443817139e-01 3.012913838028907776e-02
5.537405014038085938e-01 -1.605915874242782593e-01 -1.168064475059509277e-01
3.333519101142883301e-01 -2.611678838729858398e-01 4.386302232742309570e-01
-1.841720193624496460e-01 4.876242280006408691e-01 6.942842602729797363e-01
-1.176749169826507568e-01 3.886091411113739014e-01 -6.409513950347900391e-01
4.484247863292694092e-01 4.876242280006408691e-01 5.045474171638488770e-01
2.669230997562408447e-01 -4.430000782012939453e-01 -4.540440142154693604e-01
1.878302842378616333e-01 4.733043313026428223e-01 -6.384834051132202148e-01
4.212069213390350342e-01 2.300662249326705933e-01 -4.636937975883483887e-01
-5.400891900062561035e-01 -3.476765155792236328e-01 6.085235998034477234e-02
-2.791223526000976562e-01 5.284365415573120117e-01 -6.709085702896118164e-01
7.018629908561706543e-01 6.450588703155517578e-01 2.539568245410919189e-01
5.160680413246154785e-01 6.125782132148742676e-01 -5.364605188369750977e-01
5.190266966819763184e-01 5.245237946510314941e-01 -5.091406702995300293e-01
-7.791066169738769531e-02 -3.771283924579620361e-01 5.305973291397094727e-01
-4.957675039768218994e-01 2.539062500000000000e-01 -3.939094245433807373e-01
2.250273339450359344e-02 -5.018984079360961914e-01 -5.169652104377746582e-01
-6.150599122047424316e-01 4.921641945838928223e-01 3.839759826660156250e-01
-5.453419089317321777e-01 1.793690584599971771e-02 -2.463158071041107178e-01
4.512214362621307373e-01 -3.203575611114501953e-01 -3.000405728816986084e-01
-4.825609326362609863e-01 1.883966922760009766e-01 -3.948816657066345215e-01
-4.146791994571685791e-01 -6.064894795417785645e-01 2.562910020351409912e-01
-5.165721476078033447e-02 2.080409377813339233e-01 6.231252551078796387e-01
-1.891398429870605469e-01 1.003458723425865173e-01 5.810248255729675293e-01
-1.233673766255378723e-01 -6.064894795417785645e-01 4.363147914409637451e-02
-4.201340675354003906e-01 6.525647640228271484e-01 -6.256955862045288086e-01
-3.136977255344390869e-01 -1.131446212530136108e-01 -4.865264594554901123e-01
-9.301952086389064789e-03 1.464664638042449951e-01 6.193281412124633789e-01
4.588848352432250977e-01 -5.717192292213439941e-01 -2.048007398843765259e-01
3.495307862758636475e-01 1.561549603939056396e-01 5.056006908416748047e-01
-5.609072446823120117e-01 -2.534535229206085205e-01 1.166052743792533875e-02
2.725582122802734375e-01 -1.608455479145050049e-01 5.007666945457458496e-01
-6.218129396438598633e-01 1.945282220840454102e-01 -6.602422893047332764e-02
-5.520549416542053223e-01 2.006171643733978271e-01 3.031198084354400635e-01
-5.833002328872680664e-01 6.095193624496459961e-01 4.635904431343078613e-01
-1.815002970397472382e-02 -3.074413836002349854e-01 -5.481030941009521484e-01
2.247034162282943726e-01 -4.596205055713653564e-01 -4.708155393600463867e-01
-5.274206399917602539e-01 -4.121416807174682617e-01 8.254618942737579346e-02
3.392035141587257385e-02 -4.016534090042114258e-01 -5.307207107543945312e-01
-4.840676188468933105e-01 -3.551696538925170898e-01 2.480740994215011597e-01
4.462461173534393311e-02 -1.702386438846588135e-01 5.655050277709960938e-01
5.476602315902709961e-01 -2.515400052070617676e-01 5.879567936062812805e-02
-6.916932296007871628e-03 -3.026247024536132812e-01 5.512834191322326660e-01
7.754324376583099365e-02 5.351668000221252441e-01 7.230970859527587891e-01
6.069927811622619629e-01 1.489780694246292114e-01 -7.022917270660400391e-02
3.138456642627716064e-01 5.537863373756408691e-01 -6.589291095733642578e-01
4.937615394592285156e-01 -5.876166373491287231e-02 3.104208707809448242e-01
3.454778790473937988e-01 2.621185481548309326e-01 -5.278986096382141113e-01
2.365890592336654663e-01 -6.064894795417785645e-01 -3.688545227050781250e-01
2.256347090005874634e-01 1.668188422918319702e-01 -5.727592110633850098e-01
5.420423746109008789e-01 -3.169373273849487305e-01 2.584590576589107513e-02
-5.467320680618286133e-01 -2.843565642833709717e-01 -8.263871818780899048e-02
-5.749768614768981934e-01 -4.413676261901855469e-02 1.468177288770675659e-01
-4.992751181125640869e-01 5.784552097320556641e-01 5.474134683609008789e-01
2.946407794952392578e-01 -2.908282876014709473e-01 -4.617228507995605469e-01
-2.986276745796203613e-01 -2.352463901042938232e-01 4.758320152759552002e-01
-7.416526228189468384e-02 -2.215591371059417725e-01 5.547701120376586914e-01
6.088043451309204102e-01 1.317172646522521973e-01 3.747718408703804016e-02
-5.076076388359069824e-01 -5.999594330787658691e-01 1.588322222232818604e-02
3.038499355316162109e-01 -4.635887145996093750e-01 4.227617979049682617e-01
-6.529216766357421875e-01 5.926576852798461914e-01 -3.616945743560791016e-01
-9.088062494993209839e-02 -6.064894795417785645e-01 -1.623261719942092896e-01
-6.131356582045555115e-02 4.026760160923004150e-01 -6.505119800567626953e-01
-3.038476407527923584e-01 -4.609614014625549316e-01 -4.279221892356872559e-01
1.897338479757308960e-01 -6.064894795417785645e-01 4.186560511589050293e-01
-3.814665973186492920e-01 2.438224293291568756e-02 -4.606877565383911133e-01
-1.580684036016464233e-01 -4.748753309249877930e-01 4.999337494373321533e-01
-7.413447499275207520e-01 6.308809518814086914e-01 1.126774922013282776e-01
-5.925249457359313965e-01 2.296936698257923126e-02 -9.014134109020233154e-02
-2.729573845863342285e-01 3.316271305084228516e-01 5.840854644775390625e-01
1.768622994422912598e-01 4.316645562648773193e-01 -6.362248659133911133e-01
-4.402447938919067383e-01 -2.624733746051788330e-01 -3.382546603679656982e-01
-2.851871550083160400e-01 -6.064894795417785645e-01 -2.987879216670989990e-01
7.414726614952087402e-01 6.247532963752746582e-01 4.668591171503067017e-02
1.158371753990650177e-02 6.396121978759765625e-01 -7.517009973526000977e-01
-4.181239902973175049e-01 -5.648478269577026367e-01 -2.921213805675506592e-01
4.077172279357910156e-01 -5.544233322143554688e-01 -2.987105548381805420e-01
5.921874195337295532e-02 -6.064894795417785645e-01 -3.420881927013397217e-01
-2.371521145105361938e-01 -6.064894795417785645e-01 1.578885912895202637e-01
-2.142293006181716919e-01 4.876242280006408691e-01 -6.384397745132446289e-01
2.764272391796112061e-01 -6.064894795417785645e-01 -1.180864125490188599e-01
-1.884534358978271484e-01 -6.064894795417785645e-01 -9.604847431182861328e-02
2.332243919372558594e-01 1.778725981712341309e-01 5.723900794982910156e-01
2.010150104761123657e-01 4.876242280006408691e-01 6.882640719413757324e-01
-3.957656025886535645e-01 -4.545306563377380371e-01 3.495781123638153076e-01
2.219341099262237549e-01 4.876242280006408691e-01 -6.716750860214233398e-01
4.150064885616302490e-01 -5.620220899581909180e-01 2.882955372333526611e-01
-6.016302704811096191e-01 1.413068920373916626e-01 -1.578089743852615356e-01
-1.779934167861938477e-01 -3.837904036045074463e-01 5.065584182739257812e-01
4.661959111690521240e-01 6.124095525592565536e-03 -3.614642620086669922e-01
5.556495189666748047e-01 -1.971306204795837402e-01 6.101595237851142883e-02
-5.995892882347106934e-01 5.388209223747253418e-01 4.193342626094818115e-01
1.955819875001907349e-01 -1.199859753251075745e-01 5.393276810646057129e-01
-6.899331808090209961e-01 6.276345849037170410e-01 -2.904635965824127197e-01
-3.863961994647979736e-01 2.635589800775051117e-02 4.582502841949462891e-01
3.657178878784179688e-01 -1.787623167037963867e-01 4.294711053371429443e-01
5.216157436370849609e-01 5.772863030433654785e-01 5.239226222038269043e-01
4.160797595977783203e-01 -3.461343348026275635e-01 -3.394499719142913818e-01
2.322730422019958496e-01 -5.573683381080627441e-01 -4.517135024070739746e-01
5.729817748069763184e-01 -2.214979939162731171e-02 -1.307167261838912964e-01
3.921892344951629639e-01 -5.179334282875061035e-01 3.289621174335479736e-01
6.531233787536621094e-01 4.667297303676605225e-01 -8.721718192100524902e-02
-1.388917267322540283e-01 -6.064894795417785645e-01 -4.641507863998413086e-01
-2.173955291509628296e-01 2.273764908313751221e-01 -5.891028642654418945e-01
1.899486929178237915e-01 5.979040861129760742e-01 -7.197182774543762207e-01
6.777492165565490723e-02 -6.064894795417785645e-01 -2.559268660843372345e-02
-2.367561161518096924e-01 6.094847917556762695e-01 -7.058526277542114258e-01
2.193186581134796143e-01 -1.867161095142364502e-01 5.185951590538024902e-01
-2.562978267669677734e-01 4.613294601440429688e-01 -6.112045645713806152e-01
4.083317518234252930e-01 8.431893587112426758e-02 -4.458489716053009033e-01
7.122647166252136230e-01 5.935462117195129395e-01 2.021501958370208740e-01
-4.095393121242523193e-01 -2.932734787464141846e-01 -3.706361353397369385e-01
-4.428383708000183105e-01 5.592522770166397095e-02 4.147779345512390137e-01
-5.491281747817993164e-01 2.788591384887695312e-01 3.315211534500122070e-01
-5.123569965362548828e-01 1.021264418959617615e-01 -3.346614837646484375e-01
-2.979330718517303467e-01 1.330956071615219116e-02 -5.207732319831848145e-01
6.344746351242065430e-01 6.380535960197448730e-01 -3.956682384014129639e-01
-4.737887382507324219e-01 -6.149910390377044678e-02 -3.443622589111328125e-01
2.610667645931243896e-01 -4.673894643783569336e-01 4.548664391040802002e-01
1.051233559846878052e-01 -6.064894795417785645e-01 -4.504025578498840332e-01
3.865295648574829102e-01 3.454281687736511230e-01 5.132158994674682617e-01
-5.617821216583251953e-01 1.705378293991088867e-01 -2.668052315711975098e-01
-5.329501628875732422e-01 -7.931389659643173218e-02 -2.378804385662078857e-01
1.016894876956939697e-01 7.244031131267547607e-02 -5.939642190933227539e-01
6.319820880889892578e-01 2.950343787670135498e-01 -4.928356781601905823e-02
1.168496832251548767e-01 -3.576986193656921387e-01 -5.264948606491088867e-01
-2.726515233516693115e-01 -3.028040528297424316e-01 -4.796086549758911133e-01
8.182529360055923462e-02 -5.196595191955566406e-01 5.074214339256286621e-01
-6.337404251098632812e-01 3.066323697566986084e-01 1.060145795345306396e-01
-5.324443336576223373e-03 -6.064894795417785645e-01 -4.896408021450042725e-01
5.467197895050048828e-01 -2.709515392780303955e-01 -4.251896962523460388e-02
-3.697876334190368652e-01 2.006726115942001343e-01 5.041533112525939941e-01
5.135791301727294922e-01 -4.201619327068328857e-01 -1.217487826943397522e-01
5.393103957176208496e-01 -2.679328024387359619e-01 1.032725796103477478e-01
-3.230043053627014160e-01 4.571900665760040283e-01 -5.828969478607177734e-01
5.756191015243530273e-01 4.194775819778442383e-01 3.148361146450042725e-01
1.013207882642745972e-01 4.565874338150024414e-01 6.534556150436401367e-01
6.141008138656616211e-01 2.175152301788330078e-01 -9.548313170671463013e-02
4.586772620677947998e-01 -4.577806591987609863e-01 -2.502303421497344971e-01
-5.632833242416381836e-01 4.461392164230346680e-01 -3.535750806331634521e-01
-6.318644434213638306e-02 -6.064894795417785645e-01 1.868953406810760498e-01
-2.814956307411193848e-01 -6.064894795417785645e-01 -1.383427977561950684e-01
5.782081484794616699e-01 3.227939605712890625e-01 2.704579830169677734e-01
-1.438577175140380859e-01 -3.075424432754516602e-01 5.325090885162353516e-01
5.310388803482055664e-01 -3.750045299530029297e-01 4.229288920760154724e-02
-1.722891181707382202e-01 -6.064894795417785645e-01 1.304130852222442627e-01
-1.456176303327083588e-02 4.876242280006408691e-01 7.065312862396240234e-01
5.322906374931335449e-01 -2.809891700744628906e-01 -1.405340284109115601e-01
5.267556309700012207e-01 1.018069162964820862e-01 3.072273433208465576e-01
-6.155697107315063477e-01 3.483731746673583984e-01 -2.070848345756530762e-01
2.259861081838607788e-01 2.568131871521472931e-02 5.505287647247314453e-01
-2.666131258010864258e-01 -6.064894795417785645e-01 1.201815754175186157e-01
-5.687292665243148804e-02 -5.555694699287414551e-01 5.062052011489868164e-01
4.865269064903259277e-01 -2.833915948867797852e-01 2.527378797531127930e-01
6.909290095791220665e-04 2.460152506828308105e-01 -6.336803436279296875e-01
2.694618888199329376e-02 2.262979745864868164e-02 5.971900820732116699e-01
-7.011232972145080566e-01 5.243872404098510742e-01 -2.099497318267822266e-01
4.930368959903717041e-01 4.876242280006408691e-01 4.956296086311340332e-01
-2.491815686225891113e-01 -2.042796611785888672e-01 -5.054245591163635254e-01
3.037834763526916504e-01 -6.064894795417785645e-01 -2.072341293096542358e-01
3.681776523590087891e-01 4.585556089878082275e-01 5.488163828849792480e-01
-5.059054866433143616e-02 4.475211501121520996e-01 -6.587498188018798828e-01
-4.972459673881530762e-01 5.407993495464324951e-02 -3.424441516399383545e-01
-2.167673707008361816e-01 5.052043870091438293e-02 -5.604739189147949219e-01
1.571357399225234985e-01 -6.064894795417785645e-01 -9.185536205768585205e-02
-2.868121266365051270e-01 5.955426096916198730e-01 6.830950379371643066e-01
-1.764412522315979004e-01 -4.506725370883941650e-01 -4.953077733516693115e-01
5.343626141548156738e-01 7.557903975248336792e-02 -2.778497040271759033e-01
2.524301707744598389e-01 -6.064894795417785645e-01 -2.918937802314758301e-01
-2.581877410411834717e-01 -6.064894795417785645e-01 -3.744532465934753418e-01
5.425302982330322266e-01 4.478882253170013428e-02 2.469580173492431641e-01
2.970796227455139160e-01 5.958876609802246094e-01 6.758786439895629883e-01
4.543694555759429932e-01 -3.978681862354278564e-01 -2.767226696014404297e-01
1.600033789873123169e-01 1.590750515460968018e-01 5.996498465538024902e-01
4.939381778240203857e-01 -1.747294366359710693e-01 -2.767290472984313965e-01
5.217286348342895508e-01 -3.668467998504638672e-01 -1.214902400970458984e-01
-7.769554108381271362e-02 -4.528283178806304932e-01 -5.181341171264648438e-01
-2.109201401472091675e-01 -2.534753978252410889e-01 5.142054557800292969e-01
5.317143797874450684e-01 -2.096607685089111328e-01 1.727274209260940552e-01
-2.034807056188583374e-01 -6.064894795417785645e-01 -2.926680073142051697e-02
2.030733227729797363e-01 2.491305172443389893e-01 -5.955500602722167969e-01
-1.930470913648605347e-01 3.586201369762420654e-01 6.215957999229431152e-01
-7.366864085197448730e-01 6.393308639526367188e-01 1.609055250883102417e-01
-2.930371761322021484e-01 7.337024062871932983e-02 -5.326124429702758789e-01
3.154733777046203613e-01 1.411681473255157471e-01 5.288813114166259766e-01
-2.255523353815078735e-01 5.621616244316101074e-01 7.013049125671386719e-01
-9.493781626224517822e-02 3.142420351505279541e-01 -6.326243877410888672e-01
4.354422092437744141e-01 2.229662686586380005e-01 4.523893892765045166e-01
-4.239577427506446838e-02 -8.490804582834243774e-02 -5.787839889526367188e-01
4.010707139968872070e-01 -2.682941854000091553e-01 3.792757987976074219e-01
-8.394533395767211914e-02 2.991127967834472656e-01 6.327376961708068848e-01
-6.667827963829040527e-01 5.358021855354309082e-01 2.997405827045440674e-01
1.886348612606525421e-02 -6.064894795417785645e-01 -4.491744935512542725e-01
-7.032699584960937500e-01 4.876524507999420166e-01 1.842971742153167725e-01
4.758993983268737793e-01 2.943525314331054688e-01 4.212414920330047607e-01
-2.223507873713970184e-02 3.977646529674530029e-01 6.558771729469299316e-01
-4.724923670291900635e-01 -1.309703290462493896e-01 3.297969400882720947e-01
5.975723862648010254e-01 4.674798548221588135e-01 -2.797996997833251953e-01
-2.802539169788360596e-01 4.876242280006408691e-01 6.513208746910095215e-01
7.097193598747253418e-01 5.214740633964538574e-01 -1.300148367881774902e-01
5.091921091079711914e-01 -2.678326368331909180e-01 2.041566371917724609e-01
5.586408972740173340e-01 2.598390281200408936e-01 -2.919019758701324463e-01
-3.670947849750518799e-01 -3.620756268501281738e-01 3.991716802120208740e-01
1.310767531394958496e-01 4.876242280006408691e-01 -7.021411061286926270e-01
4.989933371543884277e-01 -2.061131000518798828e-01 2.531165778636932373e-01
-7.139495760202407837e-02 6.242944598197937012e-01 -7.417298555374145508e-01
2.971249260008335114e-02 -6.064894795417785645e-01 1.683376729488372803e-01
5.729490518569946289e-01 5.942280888557434082e-01 -4.615744650363922119e-01
9.223542362451553345e-02 -5.212307572364807129e-01 -5.048428177833557129e-01
-2.615551650524139404e-01 -5.558616518974304199e-01 4.432885348796844482e-01
-5.348883271217346191e-01 -1.674538552761077881e-01 1.994118392467498779e-01
-4.991713166236877441e-01 -4.181646108627319336e-01 1.867706179618835449e-01
6.167017817497253418e-01 2.428016811609268188e-01 1.059362888336181641e-01
-7.019981741905212402e-01 5.820202231407165527e-01 2.386710196733474731e-01
2.566924989223480225e-01 4.118123650550842285e-01 -5.999142527580261230e-01
-1.040832698345184326e-01 -6.064894795417785645e-01 -3.707053065299987793e-01
-2.426169812679290771e-01 -3.544522523880004883e-01 4.845805466175079346e-01
-6.923046708106994629e-01 6.535133123397827148e-01 2.991169691085815430e-01
2.838329970836639404e-01 -6.064894795417785645e-01 3.307491838932037354e-01
-1.785013824701309204e-01 3.536832928657531738e-01 -6.258457899093627930e-01
3.281182944774627686e-01 3.423092663288116455e-01 -5.564720034599304199e-01
-1.988717354834079742e-02 -6.064894795417785645e-01 -4.224163591861724854e-01
-4.878137111663818359e-01 1.280900388956069946e-01 -3.730840384960174561e-01
-3.015271723270416260e-01 -2.327938824892044067e-01 -4.731050431728363037e-01
5.521364212036132812e-01 7.218158245086669922e-02 -2.336008250713348389e-01
5.329642891883850098e-01 1.454607397317886353e-01 3.097517788410186768e-01
4.221937358379364014e-01 6.393035650253295898e-01 6.161427497863769531e-01
9.919419884681701660e-02 1.147398203611373901e-01 -6.007317900657653809e-01
2.897475957870483398e-01 -9.930537641048431396e-02 5.028778910636901855e-01
4.864877760410308838e-01 -3.546061515808105469e-01 -2.237798720598220825e-01
4.874145090579986572e-01 -5.062471628189086914e-01 1.627144068479537964e-01
-6.216791272163391113e-01 2.443301826715469360e-01 -1.246300712227821350e-01
4.791309684514999390e-02 -6.064894795417785645e-01 4.874673187732696533e-01
-5.154012441635131836e-01 -4.754288494586944580e-01 1.006771549582481384e-01
-4.364868104457855225e-01 4.483541250228881836e-01 -4.991203546524047852e-01
-4.866648316383361816e-01 -6.040706634521484375e-01 -1.426833868026733398e-01
2.234407514333724976e-01 -2.859114408493041992e-01 -4.997147917747497559e-01
1.189999431371688843e-01 -1.307808142155408859e-02 5.796374082565307617e-01
-4.228496551513671875e-01 5.647552609443664551e-01 -6.016649007797241211e-01
5.799542665481567383e-01 6.110960841178894043e-01 4.589075446128845215e-01
5.045592784881591797e-01 4.711676836013793945e-01 -4.267560243606567383e-01
8.297662436962127686e-02 1.546140760183334351e-01 6.099050045013427734e-01
5.905717015266418457e-01 -1.507631689310073853e-02 -5.267041269689798355e-03
2.348254993557929993e-02 3.828611671924591064e-01 -6.515097022056579590e-01
4.843794107437133789e-01 -6.064894795417785645e-01 -3.428851440548896790e-02
4.182400703430175781e-01 -1.358016133308410645e-01 -3.887777030467987061e-01
5.777946859598159790e-02 -2.221882194280624390e-01 -5.548970699310302734e-01
-2.991784512996673584e-01 1.855491846799850464e-01 5.493616461753845215e-01
2.393428981304168701e-01 6.409494876861572266e-01 -7.084972262382507324e-01
4.742170870304107666e-01 -4.623087942600250244e-01 -2.109310925006866455e-01
-4.161303043365478516e-01 4.876242280006408691e-01 5.294775962829589844e-01
3.711470589041709900e-02 -4.181536436080932617e-01 5.287575125694274902e-01
4.359893202781677246e-01 3.259555995464324951e-01 -4.705924689769744873e-01
-7.795190066099166870e-02 -6.064894795417785645e-01 8.087877929210662842e-02
6.438103914260864258e-01 4.642790257930755615e-01 -1.551352590322494507e-01
-2.883116900920867920e-02 -2.439375668764114380e-01 -5.563627481460571289e-01
5.874455571174621582e-01 1.647759415209293365e-02 6.647218018770217896e-02
-2.381817251443862915e-01 -4.890905916690826416e-01 4.644252657890319824e-01
-5.860167145729064941e-01 -1.620060391724109650e-02 9.525415301322937012e-02
-1.418276280164718628e-01 -1.820487231016159058e-01 -5.509088039398193359e-01
6.218179464340209961e-01 2.094104737043380737e-01 2.845262736082077026e-02
-5.131353139877319336e-01 -5.407206416130065918e-01 -4.142044112086296082e-02
-1.091494113206863403e-01 -5.210514068603515625e-01 5.045784115791320801e-01
-3.754400312900543213e-01 -5.960922241210937500e-01 -3.400053083896636963e-01
6.112505197525024414e-01 1.718620508909225464e-01 6.531538814306259155e-02
6.172598004341125488e-01 3.330218195915222168e-01 -1.792479008436203003e-01
3.719747662544250488e-01 4.876242280006408691e-01 -5.666425228118896484e-01
1.823936402797698975e-01 -6.064894795417785645e-01 -4.501959383487701416e-01
1.312906891107559204e-01 -1.963568180799484253e-01 5.501217842102050781e-01
-6.198420524597167969e-01 1.264710575342178345e-01 -2.300539985299110413e-03
-3.599593937397003174e-01 6.085434556007385254e-01 6.555867791175842285e-01
-1.084884926676750183e-01 -6.064894795417785645e-01 -4.005408287048339844e-02
-4.734646379947662354e-01 -5.843258500099182129e-01 1.833057850599288940e-01
5.516545381397008896e-03 -1.967937797307968140e-01 5.666111111640930176e-01
3.944688141345977783e-01 3.655689358711242676e-01 -5.099864006042480469e-01
6.088462471961975098e-01 4.267194867134094238e-01 -2.365085184574127197e-01
7.061107158660888672e-01 4.876242280006408691e-01 3.034881129860877991e-02
1.117832260206341743e-03 4.876242280006408691e-01 -6.963339447975158691e-01
5.586408972740173340e-01 -2.139731347560882568e-01 1.881849020719528198e-02
-4.173556566238403320e-01 -6.064894795417785645e-01 -1.916988641023635864e-01
-4.114492535591125488e-01 6.126691699028015137e-01 6.233564615249633789e-01
4.348868727684020996e-01 -4.881510734558105469e-01 -2.797304987907409668e-01
3.707903921604156494e-01 -6.064894795417785645e-01 -2.301733344793319702e-01
-2.606921494007110596e-01 2.802337706089019775e-01 -5.798026323318481445e-01
4.189164638519287109e-01 4.980104863643646240e-01 5.833425521850585938e-01
7.289506793022155762e-01 5.915325284004211426e-01 -9.036328643560409546e-02
3.031917810440063477e-01 2.366340160369873047e-01 5.530067086219787598e-01
-5.173857808113098145e-01 -2.863792330026626587e-02 2.964077293872833252e-01
-2.652302682399749756e-01 -5.314294695854187012e-01 -4.441484212875366211e-01
7.298383116722106934e-01 6.452955603599548340e-01 1.662757247686386108e-01
-7.172375917434692383e-01 4.979959428310394287e-01 9.390772879123687744e-02
-7.190263867378234863e-01 6.000362038612365723e-01 -2.059259414672851562e-01
2.712837159633636475e-01 1.879364997148513794e-01 5.582695007324218750e-01
-2.194647639989852905e-01 5.178163051605224609e-01 6.943088769912719727e-01
4.132767915725708008e-01 -3.548448439687490463e-03 -4.253404438495635986e-01
2.565768957138061523e-01 -2.463518381118774414e-01 4.934192001819610596e-01
-6.386353969573974609e-01 4.876242280006408691e-01 -3.093344271183013916e-01
-3.788629770278930664e-01 -1.413365900516510010e-01 -4.311630725860595703e-01
1.260743439197540283e-01 3.877590969204902649e-02 5.865988731384277344e-01
-4.849360585212707520e-01 1.926614493131637573e-01 3.938114941120147705e-01
-4.629045128822326660e-01 2.792724370956420898e-01 -4.430277645587921143e-01
4.966920018196105957e-01 -1.312589198350906372e-01 2.881926894187927246e-01
-4.819855988025665283e-01 -3.181053102016448975e-01 -2.667497098445892334e-01
-5.256491303443908691e-01 3.432924449443817139e-01 3.780950903892517090e-01
-2.045831382274627686e-01 1.747263967990875244e-01 -5.858091711997985840e-01
3.321739137172698975e-01 -6.064894795417785645e-01 2.221553176641464233e-01
-8.974103629589080811e-02 1.039265841245651245e-01 6.022644042968750000e-01
4.350388944149017334e-01 -6.064894795417785645e-01 3.198881819844245911e-02
4.117519557476043701e-01 -2.056415379047393799e-01 -3.799199461936950684e-01
2.973707206547260284e-02 1.512681394815444946e-01 -6.154349446296691895e-01
3.966855108737945557e-01 -3.448015749454498291e-01 3.660246133804321289e-01
1.508588343858718872e-01 2.387627065181732178e-01 6.137785911560058594e-01
2.026126831769943237e-01 -5.782400965690612793e-01 4.615584909915924072e-01
-2.908814549446105957e-01 -6.064894795417785645e-01 -2.215995788574218750e-01
4.143173396587371826e-01 -6.064894795417785645e-01 2.049859613180160522e-01
-5.534760355949401855e-01 -7.893428206443786621e-02 1.894470602273941040e-01
3.386984467506408691e-01 -2.204639762639999390e-01 -4.413026273250579834e-01
5.332273840904235840e-01 -3.295530974864959717e-01 -7.725522667169570923e-02
6.127999424934387207e-01 2.687860429286956787e-01 1.656202524900436401e-01
4.749854207038879395e-01 -6.018375158309936523e-01 1.550236940383911133e-01
-2.730657160282135010e-01 4.439753293991088867e-01 6.023927330970764160e-01
-7.255773544311523438e-01 5.877271890640258789e-01 1.668892949819564819e-01
4.600500762462615967e-01 -5.832188129425048828e-01 1.984213739633560181e-01
2.050487995147705078e-01 -6.064894795417785645e-01 3.108720108866691589e-02
1.758281290531158447e-01 1.025070622563362122e-01 5.838541984558105469e-01
-7.309869676828384399e-02 -5.088726282119750977e-01 -5.102084875106811523e-01
-1.460170894861221313e-01 -6.064894795417785645e-01 4.065892696380615234e-01
7.086451649665832520e-01 4.876242280006408691e-01 8.632718026638031006e-02
4.710663259029388428e-01 -7.139817811548709869e-03 3.527962267398834229e-01
-7.194342613220214844e-01 5.389338731765747070e-01 -1.384483873844146729e-01
5.119805335998535156e-01 4.948080703616142273e-02 -3.125425279140472412e-01
-4.656228125095367432e-01 5.688336491584777832e-01 5.708315372467041016e-01
-5.601789355278015137e-01 6.266686916351318359e-01 4.993092417716979980e-01
-1.307758688926696777e-01 -6.781790405511856079e-02 5.707204341888427734e-01
2.208553403615951538e-01 -3.529410660266876221e-01 4.908046722412109375e-01
4.312743619084358215e-02 -2.931442260742187500e-01 -5.460256338119506836e-01
6.217560768127441406e-01 3.475602269172668457e-01 1.750943511724472046e-01
4.334648847579956055e-01 1.796506196260452271e-01 4.456672966480255127e-01
-4.941791296005249023e-02 -5.943259224295616150e-02 5.827062129974365234e-01
6.008733510971069336e-01 7.097617536783218384e-02 2.748855575919151306e-02
5.831914544105529785e-01 2.910233736038208008e-01 -2.449311614036560059e-01
-3.770486414432525635e-01 -6.064894795417785645e-01 -9.004138410091400146e-02
-2.973522841930389404e-01 -2.892706692218780518e-01 4.665336310863494873e-01
-1.289014518260955811e-01 5.245237946510314941e-01 7.151733636856079102e-01
-3.715519011020660400e-01 5.341199040412902832e-01 6.343399286270141602e-01
-3.661489486694335938e-01 5.099655687808990479e-02 4.784739017486572266e-01
6.087616086006164551e-01 6.103659868240356445e-01 4.211286008358001709e-01
-6.070762500166893005e-02 -6.064894795417785645e-01 -4.265949130058288574e-01
-4.553175568580627441e-01 1.053824275732040405e-01 -4.098060727119445801e-01
-2.903871238231658936e-01 -5.899900794029235840e-01 4.146741628646850586e-01
2.259440533816814423e-02 -6.064894795417785645e-01 3.150682747364044189e-01
3.171111345291137695e-01 -5.316270589828491211e-01 -3.986760675907135010e-01
-6.681465506553649902e-01 4.857571125030517578e-01 5.177289992570877075e-02
5.918007493019104004e-01 4.174520373344421387e-01 -2.740043401718139648e-01
4.314957857131958008e-01 -3.641667068004608154e-01 3.158566355705261230e-01
4.865760803222656250e-01 6.750962138175964355e-02 -3.501211702823638916e-01
4.196909815073013306e-02 -6.064894795417785645e-01 -2.344374656677246094e-01
6.069199442863464355e-01 1.753268688917160034e-01 -1.012529805302619934e-01
6.620020866394042969e-01 5.290227532386779785e-01 2.900634407997131348e-01
1.359098404645919800e-01 -2.745956778526306152e-01 -5.366352796554565430e-01
4.182407632470130920e-02 2.069119215011596680e-01 6.232827305793762207e-01
1.609920263290405273e-01 4.876242280006408691e-01 6.955077648162841797e-01
9.120489656925201416e-02 3.338311314582824707e-01 -6.351323723793029785e-01
2.744490504264831543e-01 -3.419703543186187744e-01 -4.674872457981109619e-01
-5.980043411254882812e-01 1.636557132005691528e-01 1.776151508092880249e-01
4.898852109909057617e-01 6.253040432929992676e-01 5.607019662857055664e-01
-6.390833258628845215e-01 3.471269011497497559e-01 -1.112860441207885742e-01
4.415507018566131592e-01 1.787942349910736084e-01 -4.363894462585449219e-01
2.980491518974304199e-01 5.343365669250488281e-01 6.622660756111145020e-01
1.470151077955961227e-02 -6.064894795417785645e-01 1.253642439842224121e-01
2.359427064657211304e-01 2.604143917560577393e-01 5.847472548484802246e-01
4.267692267894744873e-01 -1.713574528694152832e-01 3.698162734508514404e-01
6.759350895881652832e-01 6.151472330093383789e-01 -3.000833690166473389e-01
