-5.934648960828781128e-02 -1.225069351494312286e-02 1.818884909152984619e-01
2.218229323625564575e-01 2.899655140936374664e-02 7.780290246009826660e-01
-9.049236029386520386e-02 -9.325736761093139648e-02 -2.751485109329223633e-01
-1.713797599077224731e-01 4.486965388059616089e-02 -6.389458477497100830e-02
5.273247361183166504e-01 -7.090314477682113647e-02 3.702076151967048645e-02
3.781225159764289856e-02 1.625211094506084919e-03 3.320087194442749023e-01
-2.702317535877227783e-01 2.714571077376604080e-03 6.547255814075469971e-02
-9.585304558277130127e-02 -4.930515959858894348e-02 1.030633896589279175e-01
-3.983797132968902588e-02 -6.399738602340221405e-03 2.217124029994010925e-02
-3.204276859760284424e-01 7.809043675661087036e-02 1.279513910412788391e-02
2.500924468040466309e-01 -7.759644836187362671e-02 1.867316104471683502e-02
5.465404987335205078e-01 -3.601415827870368958e-02 -6.949255615472793579e-02
1.386096235364675522e-02 -3.876833245158195496e-02 -1.675957888364791870e-01
-6.645162701606750488e-01 5.626122280955314636e-02 -5.514881014823913574e-02
1.639607697725296021e-01 9.146648459136486053e-03 6.386150717735290527e-01
-7.253441214561462402e-02 5.244324356317520142e-02 5.591559782624244690e-02
-8.086104393005371094e-01 9.891509078443050385e-03 1.201119460165500641e-02
-4.357758536934852600e-02 2.974613569676876068e-02 7.444141060113906860e-02
7.698814850300550461e-03 -7.176632434129714966e-02 -3.246666118502616882e-02
2.649630904197692871e-01 1.434550620615482330e-02 -7.661231607198715210e-02
-6.183938384056091309e-01 6.791695207357406616e-02 -3.995933011174201965e-02
2.362269610166549683e-01 5.244324356317520142e-02 -4.432218149304389954e-02
3.239704668521881104e-01 -9.579814039170742035e-03 -1.051119528710842133e-02
5.415801405906677246e-01 -1.567400619387626648e-02 7.894235104322433472e-02
-5.161724686622619629e-01 -3.116359934210777283e-02 7.396799325942993164e-02
-1.255706250667572021e-01 -3.969017416238784790e-02 1.431985497474670410e-01
3.953763246536254883e-01 2.343237027525901794e-02 -4.923576861619949341e-02
2.254024147987365723e-01 -9.579814039170742035e-03 -6.743525713682174683e-02
-2.222855389118194580e-01 -6.474649161100387573e-02 2.174740731716156006e-01
6.643224358558654785e-01 6.596886366605758667e-02 -2.957582473754882812e-02
-7.303886860609054565e-02 -2.244206517934799194e-02 -6.248626485466957092e-02
8.235683441162109375e-01 3.574777022004127502e-02 1.644094437360763550e-01
-8.632797747850418091e-02 -6.331072747707366943e-02 2.119903415441513062e-01
7.660644501447677612e-02 -2.090597152709960938e-02 2.629557549953460693e-01
-6.838517636060714722e-02 -4.228629171848297119e-02 -1.673232167959213257e-01
-4.297592118382453918e-02 5.244324356317520142e-02 -1.336606778204441071e-02
3.814532235264778137e-02 -1.698673330247402191e-02 3.981703519821166992e-01
-9.016711115837097168e-01 -2.192436531186103821e-02 5.289789289236068726e-03
-3.223991394042968750e-01 5.244324356317520142e-02 -3.516641259193420410e-02
1.246797740459442139e-01 -5.136232357472181320e-03 6.984525918960571289e-02
8.210091590881347656e-01 9.291382879018783569e-02 1.058451551944017410e-02
6.445841789245605469e-01 -1.502662710845470428e-02 -5.581435561180114746e-02
-8.278802037239074707e-01 2.517005428671836853e-02 -4.311507567763328552e-02
-1.423521488904953003e-01 -2.687334828078746796e-02 -1.805555373430252075e-01
9.092571139335632324e-01 2.672739028930664062e-01 2.331829862669110298e-03
-4.139738678932189941e-01 6.947518140077590942e-02 3.978912904858589172e-02
3.339307010173797607e-02 -2.260913141071796417e-03 -7.824105769395828247e-02
2.831294387578964233e-02 -5.818616133183240891e-03 6.584120541810989380e-02
1.044421121478080750e-01 5.244324356317520142e-02 4.454655572772026062e-02
-5.962554812431335449e-01 4.410454630851745605e-02 6.694988161325454712e-02
3.301469981670379639e-01 5.330640822649002075e-02 -5.742104724049568176e-02
-2.405444532632827759e-01 5.244324356317520142e-02 3.900612890720367432e-02
-2.706226408481597900e-01 5.139723047614097595e-02 6.135578453540802002e-02
4.509310424327850342e-01 5.244324356317520142e-02 -4.890829697251319885e-02
1.921507716178894043e-01 5.244324356317520142e-02 -9.943082695826888084e-04
-2.513311505317687988e-01 3.337151184678077698e-02 1.600483432412147522e-02
-8.226255178451538086e-01 -5.023268610239028931e-02 -1.067038904875516891e-02
3.957454562187194824e-01 2.965717390179634094e-02 6.260014139115810394e-03
1.581618636846542358e-01 2.460218220949172974e-02 5.840597152709960938e-01
5.114537477493286133e-01 7.952789962291717529e-02 5.904089193791151047e-04
2.381416261196136475e-01 1.381973153911530972e-03 -2.337894216179847717e-02
4.416851997375488281e-01 2.466369979083538055e-02 1.599442213773727417e-02
-1.323008388280868530e-01 -4.834924638271331787e-02 -8.544629067182540894e-02
3.981646001338958740e-01 7.797279208898544312e-02 -1.122339908033609390e-02
-3.431651890277862549e-01 -7.375859469175338745e-02 3.012511506676673889e-02
1.002347543835639954e-01 1.565917767584323883e-02 5.747126340866088867e-01
3.355834186077117920e-01 -4.791766032576560974e-02 -6.177283078432083130e-02
2.890982106328010559e-02 -1.698482967913150787e-02 -3.885568976402282715e-01
-7.154504060745239258e-01 1.760318502783775330e-02 -7.008029520511627197e-02
1.058513745665550232e-01 -8.042776025831699371e-03 -4.888256788253784180e-01
5.965158939361572266e-01 -6.622106581926345825e-02 2.285694330930709839e-02
-3.680549561977386475e-01 2.535700099542737007e-03 4.367583896964788437e-04
-7.899871468544006348e-01 1.188189443200826645e-02 5.358941107988357544e-02
7.447943687438964844e-01 5.267464742064476013e-02 2.594492770731449127e-02
-1.587276160717010498e-01 -7.279226928949356079e-02 3.245934471487998962e-02
-6.917806267738342285e-01 -7.121548056602478027e-02 3.626682236790657043e-02
1.105521060526371002e-02 -6.565981358289718628e-02 2.657846808433532715e-01
-1.266864985227584839e-01 7.908931374549865723e-02 -2.741568954661488533e-03
1.157061830163002014e-01 -9.579814039170742035e-03 -4.121631011366844177e-02
5.488063097000122070e-01 6.139722838997840881e-02 5.092515423893928528e-02
1.263194978237152100e-01 1.184214465320110321e-02 -4.669267535209655762e-01
-4.894863963127136230e-01 -7.596760988235473633e-02 -2.232478559017181396e-02
-3.895478546619415283e-01 4.884616285562515259e-02 -1.808279752731323242e-02
2.346691042184829712e-01 3.007077053189277649e-02 7.430682331323623657e-02
-2.584148384630680084e-02 -4.968563839793205261e-02 9.561103582382202148e-02
-4.093485772609710693e-01 1.494365837424993515e-02 -7.653461396694183350e-02
1.528503894805908203e-01 -2.438839292153716087e-03 4.777999222278594971e-01
6.223341226577758789e-01 -5.291114002466201782e-02 -2.829026244580745697e-02
1.246797740459442139e-01 1.599327474832534790e-02 -4.695552866905927658e-03
8.225225210189819336e-01 1.322068274021148682e-01 1.162816584110260010e-02
-5.459269881248474121e-01 -4.560643807053565979e-02 6.601213663816452026e-02
1.796869784593582153e-01 -7.445707172155380249e-02 2.843929640948772430e-02
-1.775417331373319030e-04 -2.409741468727588654e-02 -3.279187679290771484e-01
4.581629037857055664e-01 -9.579814039170742035e-03 -3.409786894917488098e-02
1.475067287683486938e-01 -1.279585249722003937e-02 -7.685270905494689941e-02
5.092248320579528809e-01 -3.983450587838888168e-03 -2.518126741051673889e-02
-3.602760732173919678e-01 5.244324356317520142e-02 5.686034262180328369e-02
-5.828385353088378906e-01 1.557064475491642952e-03 7.061509788036346436e-02
-1.461052987724542618e-02 7.781492173671722412e-02 -1.242236234247684479e-02
8.954843282699584961e-01 5.814475193619728088e-02 4.671757575124502182e-03
-6.404840350151062012e-01 3.317134082317352295e-02 2.762104850262403488e-03
-7.729179263114929199e-01 4.861012101173400879e-02 4.969732463359832764e-02
-2.111316174268722534e-01 -4.666456207633018494e-02 -2.094847261905670166e-01
1.636787205934524536e-01 8.623687317594885826e-04 -4.802262187004089355e-01
-5.008636713027954102e-01 -1.147366315126419067e-02 1.080324035137891769e-02
5.092248320579528809e-01 -2.199394861236214638e-03 -7.287023961544036865e-02
7.276948690414428711e-01 -1.587370783090591431e-02 -1.880219578742980957e-02
7.092054933309555054e-02 -2.150129713118076324e-02 3.436699509620666504e-01
9.677009284496307373e-02 3.818033263087272644e-02 -2.168460749089717865e-02
7.952855825424194336e-01 2.164499908685684204e-01 3.060066141188144684e-03
3.946958482265472412e-01 -6.570091471076011658e-03 8.014073967933654785e-02
2.024121880531311035e-01 1.384293846786022186e-02 6.908666491508483887e-01
-3.967475295066833496e-01 -7.725004106760025024e-02 -1.883844286203384399e-02
-1.574101746082305908e-01 -9.833601117134094238e-02 -2.367339581251144409e-01
-2.784521505236625671e-02 -5.304363742470741272e-02 2.572032213211059570e-01
-4.647684469819068909e-02 -9.673501364886760712e-03 -3.322449922561645508e-01
4.806197807192802429e-02 -8.563748560845851898e-04 1.663375087082386017e-02
-4.107814729213714600e-01 -3.082856535911560059e-02 7.410646229982376099e-02
-9.413713961839675903e-02 -1.661288551986217499e-02 2.390162199735641479e-01
-8.257909119129180908e-02 8.803093805909156799e-03 7.980920374393463135e-02
5.095816850662231445e-01 5.244324356317520142e-02 5.412926897406578064e-02
1.993788182735443115e-01 9.817685931921005249e-03 5.708369016647338867e-01
-3.895478546619415283e-01 2.765542827546596527e-02 -4.778514429926872253e-02
-5.673328638076782227e-01 -6.024422869086265564e-02 -5.032465979456901550e-02
-1.852367371320724487e-01 -2.187135070562362671e-02 2.834946215152740479e-01
6.154837012290954590e-01 -1.204341836273670197e-02 6.817628443241119385e-02
8.186278343200683594e-01 5.278367921710014343e-02 -1.466498970985412598e-01
-5.476410388946533203e-01 5.244324356317520142e-02 -3.468078374862670898e-02
-6.029344797134399414e-01 3.233279287815093994e-02 -7.090039551258087158e-02
9.254059940576553345e-02 7.588793989270925522e-03 -5.577698349952697754e-01
-4.781980812549591064e-01 -9.579814039170742035e-03 -1.177707221359014511e-02
4.022910892963409424e-01 -7.675126940011978149e-02 -2.043084613978862762e-02
2.506580576300621033e-02 -3.391821155673824251e-05 4.584573209285736084e-01
-3.679219633340835571e-03 -5.130878835916519165e-02 -2.165783643722534180e-01
-1.808229833841323853e-02 -8.773197978734970093e-02 -2.462457865476608276e-01
-5.030291676521301270e-01 7.236005365848541260e-02 3.282382339239120483e-02
-3.000856041908264160e-01 -4.835018888115882874e-02 -6.144015118479728699e-02
-2.195957154035568237e-01 -6.391266733407974243e-02 -4.554357379674911499e-02
-1.807344704866409302e-01 -2.639255672693252563e-02 -2.857780754566192627e-01
5.341656804084777832e-01 7.103776931762695312e-02 -3.354769572615623474e-02
-8.226255178451538086e-01 -7.959440350532531738e-02 1.531979441642761230e-02
-1.183283925056457520e-01 -3.172011300921440125e-02 -4.606847465038299561e-02
7.135236859321594238e-01 9.802465885877609253e-02 1.496913377195596695e-02
1.850230544805526733e-01 6.142623256891965866e-03 -5.378007292747497559e-01
5.172720178961753845e-02 7.574592251330614090e-03 -3.947059810161590576e-01
-3.632062971591949463e-01 -1.829755492508411407e-02 -7.613009959459304810e-02
7.042862772941589355e-01 1.433587819337844849e-01 4.169628024101257324e-03
7.664387226104736328e-01 1.543978750705718994e-01 -5.023848279961384833e-05
5.769816413521766663e-02 -2.603289671242237091e-02 1.798706650733947754e-01
1.246797740459442139e-01 3.967667743563652039e-02 3.294581919908523560e-02
8.191375434398651123e-02 -3.912468906491994858e-03 5.031363964080810547e-01
5.371347069740295410e-01 7.649367209523916245e-03 5.426763743162155151e-02
-1.130935773253440857e-01 2.544262818992137909e-02 -1.650279387831687927e-02
3.406636789441108704e-02 -4.075397923588752747e-02 -1.047117561101913452e-01
2.019001543521881104e-01 7.694503664970397949e-02 -1.903019472956657410e-02
4.690745174884796143e-01 -7.742135226726531982e-02 2.000528946518898010e-02
-7.154504060745239258e-01 4.961770772933959961e-02 -1.215489581227302551e-02
-1.018866673111915588e-01 -2.064475230872631073e-02 -9.548197686672210693e-02
-1.158950701355934143e-01 -1.994155161082744598e-02 1.897449642419815063e-01
-4.242925345897674561e-02 -7.303645461797714233e-02 -2.940101549029350281e-02
1.558780819177627563e-01 2.733174525201320648e-02 -6.276917457580566406e-01
-2.293947711586952209e-02 -7.449355442076921463e-03 3.805682361125946045e-01
-2.055201083421707153e-01 2.619884163141250610e-02 -1.373262703418731689e-02
3.074426054954528809e-01 7.300467789173126221e-02 -2.879973500967025757e-02
1.867673695087432861e-01 -8.479086682200431824e-03 -1.299572177231311798e-02
8.015425801277160645e-01 5.243803933262825012e-02 -9.280683845281600952e-02
-4.898529965430498123e-03 4.737045988440513611e-02 6.444547325372695923e-02
-3.797156736254692078e-02 -3.597250953316688538e-02 -2.867633402347564697e-01
-9.921578317880630493e-02 -7.627614587545394897e-02 2.938052713871002197e-01
5.614262819290161133e-01 -6.162793561816215515e-02 -4.852129518985748291e-02
-6.989854574203491211e-02 -3.563936427235603333e-02 -2.116880565881729126e-01
-5.189166963100433350e-02 -4.715482890605926514e-02 -1.301797777414321899e-01
4.653800651431083679e-02 -8.942842483520507812e-03 -4.438238739967346191e-01
-1.125933695584535599e-02 -1.000519245862960815e-01 9.224943816661834717e-02
-2.486578933894634247e-02 -1.330597978085279465e-02 7.925410568714141846e-02
-1.238509416580200195e-01 -9.579814039170742035e-03 3.957333788275718689e-02
4.915120005607604980e-01 1.034012529999017715e-02 1.591066271066665649e-02
-1.763055473566055298e-02 -7.018714211881160736e-03 -3.852849900722503662e-01
-6.875405311584472656e-01 1.811237446963787079e-02 5.922589823603630066e-02
-2.985855042934417725e-01 1.707033067941665649e-02 7.872210443019866943e-02
8.757177591323852539e-01 2.312614619731903076e-01 5.282700527459383011e-03
2.503564953804016113e-01 3.836952894926071167e-02 -7.471781969070434570e-01
-1.322161406278610229e-02 -1.908826641738414764e-03 3.133030831813812256e-01
3.739543855190277100e-01 -9.579814039170742035e-03 4.531157016754150391e-02
2.969587743282318115e-01 5.244324356317520142e-02 5.936672538518905640e-02
8.626368641853332520e-01 4.263452067971229553e-02 1.649555563926696777e-01
-1.307940930128097534e-01 5.244324356317520142e-02 4.742697998881340027e-02
-1.773310452699661255e-01 -1.337034720927476883e-02 2.404529154300689697e-01
-6.076601743698120117e-01 -4.768578708171844482e-02 6.441660970449447632e-02
1.270364224910736084e-02 -9.713591635227203369e-02 -9.975898265838623047e-02
-2.220403999090194702e-01 7.704773545265197754e-02 2.071635797619819641e-02
-4.350342452526092529e-01 2.125647850334644318e-02 1.451890822499990463e-02
-4.394012093544006348e-01 -9.579814039170742035e-03 4.787152633070945740e-02
-1.877836436033248901e-01 1.965981908142566681e-02 7.838081568479537964e-02
-1.924401819705963135e-01 -5.985807999968528748e-02 5.329677090048789978e-02
4.334591329097747803e-02 -7.005134224891662598e-02 3.907768055796623230e-02
-1.525198519229888916e-01 7.781871408224105835e-02 1.485962979495525360e-02
1.747299358248710632e-02 -3.206084668636322021e-02 2.621862590312957764e-01
4.224637448787689209e-01 5.244324356317520142e-02 -1.045507099479436874e-02
2.073119580745697021e-01 3.603170439600944519e-02 -7.152459025382995605e-01
2.716005146503448486e-01 -9.579814039170742035e-03 3.527531772851943970e-02
1.271163970232009888e-01 3.218797966837882996e-02 7.342936843633651733e-02
7.935602068901062012e-01 3.653322532773017883e-02 5.874501168727874756e-02
4.204581975936889648e-01 2.217643149197101593e-02 -7.510992139577865601e-02
2.095886506140232086e-02 -3.283882141113281250e-02 -2.406380623579025269e-01
1.670187413692474365e-01 2.809647656977176666e-02 -5.583319067955017090e-02
7.553378343582153320e-01 4.790690541267395020e-02 1.093307808041572571e-01
1.802387535572052002e-01 2.992406859993934631e-02 -6.384490132331848145e-01
1.277845948934555054e-01 2.235247381031513214e-02 -5.860847830772399902e-01
1.333525627851486206e-01 2.301404066383838654e-02 5.718344449996948242e-01
1.772706955671310425e-01 2.999884448945522308e-02 -6.901867389678955078e-01
-8.492093682289123535e-01 -3.795343264937400818e-02 4.441443085670471191e-02
6.377834826707839966e-02 5.244324356317520142e-02 -3.493566438555717468e-02
2.594906985759735107e-01 2.867381274700164795e-02 4.875740781426429749e-02
-8.801507353782653809e-01 5.111932754516601562e-03 -1.722947694361209869e-02
2.983697503805160522e-02 -5.459960177540779114e-02 1.153303235769271851e-01
3.075458295643329620e-02 -2.607548795640468597e-02 1.218059509992599487e-01
1.342616416513919830e-02 -2.251210063695907593e-02 -1.237032264471054077e-01
-5.494359880685806274e-02 -4.979731887578964233e-02 2.139400243759155273e-01
-4.641546607017517090e-01 5.244324356317520142e-02 -3.401155397295951843e-02
-7.940918803215026855e-01 2.256920561194419861e-02 -6.023560464382171631e-02
-3.331990838050842285e-01 5.244324356317520142e-02 2.329798974096775055e-02
4.500016570091247559e-01 -2.809237316250801086e-02 -7.277341932058334351e-02
-2.296844311058521271e-02 -3.735906630754470825e-02 -2.202363908290863037e-01
-8.156586289405822754e-01 -1.657070242799818516e-03 -1.514037884771823883e-02
7.010002732276916504e-01 -2.716484852135181427e-02 1.906981877982616425e-02
4.492511153221130371e-01 -6.104966253042221069e-02 5.174430459737777710e-02
1.670187413692474365e-01 3.563703224062919617e-02 1.830669678747653961e-02
2.754790782928466797e-01 -9.579814039170742035e-03 -1.360476203262805939e-02
-9.663955122232437134e-02 -1.673023775219917297e-02 1.628184616565704346e-01
-1.847076863050460815e-01 -1.128814928233623505e-02 -2.496208548545837402e-01
7.634848356246948242e-01 2.746519632637500763e-02 3.871575742959976196e-02
-3.895478546619415283e-01 3.399295674171298742e-04 2.985183149576187134e-03
3.930367231369018555e-01 -7.133378833532333374e-02 3.598042204976081848e-02
-1.255857795476913452e-01 -3.866705670952796936e-02 -1.467029005289077759e-01
-3.218208551406860352e-01 -5.714506376534700394e-03 1.603341661393642426e-02
-5.047829151153564453e-01 2.567734755575656891e-02 -4.584369063377380371e-02
-1.867160499095916748e-01 -3.320793062448501587e-02 -9.076733142137527466e-02
-3.119838982820510864e-02 -9.328386187553405762e-02 2.665929198265075684e-01
-4.019246101379394531e-01 -1.186075340956449509e-02 -7.697556912899017334e-02
1.627147570252418518e-02 -3.836609423160552979e-02 1.703664064407348633e-01
-4.560468718409538269e-02 -5.145928263664245605e-02 -8.665046095848083496e-02
-1.131896488368511200e-02 -1.131653971970081329e-02 1.981305181980133057e-01
-7.189655303955078125e-01 7.406281679868698120e-02 2.761862985789775848e-02
-5.852586030960083008e-01 -1.166294235736131668e-02 1.902117021381855011e-02
3.455741405487060547e-01 5.244324356317520142e-02 -3.269655257463455200e-02
1.307119727134704590e-01 -4.245615098625421524e-03 5.252823829650878906e-01
8.078601360321044922e-01 3.572751581668853760e-02 1.246358305215835571e-01
-6.305254697799682617e-01 1.280373614281415939e-02 -4.960772395133972168e-02
1.269100755453109741e-01 -8.328606374561786652e-03 4.636126160621643066e-01
6.081733107566833496e-01 1.399720646440982819e-02 -6.914340704679489136e-02
-4.758016765117645264e-01 -5.675750598311424255e-02 -5.486809089779853821e-02
6.321384310722351074e-01 6.705549359321594238e-02 3.500945866107940674e-02
-6.296344101428985596e-02 -1.457233540713787079e-02 -1.517607271671295166e-01
-4.630870521068572998e-01 1.268399995751678944e-03 -7.833513617515563965e-02
-5.341957807540893555e-01 -6.998225301504135132e-02 3.924492001533508301e-02
-6.195641309022903442e-02 -1.016282662749290466e-02 -2.270735651254653931e-01
3.221996426582336426e-01 -7.721881568431854248e-02 -1.907884143292903900e-02
1.176712140440940857e-01 6.362782418727874756e-02 -4.555010423064231873e-02
-5.400911569595336914e-01 2.152338251471519470e-02 7.784664630889892578e-02
1.514846682548522949e-01 -3.756304271519184113e-03 6.790436804294586182e-02
-3.437642753124237061e-01 1.605100743472576141e-02 5.651451274752616882e-02
3.051398992538452148e-01 -7.325508445501327515e-02 3.134102001786231995e-02
-1.405094116926193237e-01 -1.177936419844627380e-02 7.945503294467926025e-02
1.062873005867004395e-01 -1.192606613039970398e-02 -4.443084597587585449e-01
-1.958331912755966187e-01 4.915215447545051575e-02 6.307841837406158447e-02
-5.223353207111358643e-02 -9.225837886333465576e-03 2.241332978010177612e-01
-2.210797667503356934e-01 -7.080472260713577271e-02 -2.911851406097412109e-01
-3.931117430329322815e-02 -9.579814039170742035e-03 -1.805251091718673706e-02
2.017118185758590698e-01 1.000697910785675049e-02 -5.884982347488403320e-01
-2.565754354000091553e-01 -4.827352613210678101e-02 6.396496295928955078e-02
3.666222393512725830e-01 7.165551930665969849e-02 3.452506661415100098e-02
-5.358018875122070312e-01 -2.881778636947274208e-03 1.905959658324718475e-02
1.225928403437137604e-02 7.302304357290267944e-02 -2.875544317066669464e-02
-7.115827500820159912e-02 1.336592528969049454e-02 -7.674197852611541748e-02
-6.444751620292663574e-01 -7.977896183729171753e-02 2.092188457027077675e-03
-4.527139961719512939e-01 -6.490739434957504272e-02 4.671733081340789795e-02
1.118088886141777039e-01 -1.216834504157304764e-02 4.195052087306976318e-01
9.504006803035736084e-02 -1.586328633129596710e-02 -2.894853055477142334e-01
7.482858300209045410e-01 1.418047845363616943e-01 -9.309771470725536346e-03
7.677249312400817871e-01 3.088661283254623413e-02 -3.569727391004562378e-02
-7.306579947471618652e-01 -7.481294125318527222e-02 2.415395900607109070e-02
-2.093324214220046997e-01 -8.882891386747360229e-02 2.834217846393585205e-01
-4.734455049037933350e-02 -2.081038057804107666e-02 2.752198278903961182e-01
3.519579470157623291e-01 7.930458523333072662e-03 5.368547514081001282e-02
-8.374090194702148438e-01 3.319879248738288879e-02 -5.930159240961074829e-03
5.101249217987060547e-01 3.759646788239479065e-02 -6.871996819972991943e-02
-1.684467196464538574e-01 -5.694111436605453491e-02 -5.462807416915893555e-02
-5.251744762063026428e-03 -4.636832326650619507e-02 6.542713195085525513e-02
3.272839784622192383e-01 -7.420006673783063889e-03 4.512928053736686707e-02
-2.175107002258300781e-01 -7.650001905858516693e-03 5.651451274752616882e-02
-2.136875130236148834e-02 -1.341298073530197144e-01 9.642972052097320557e-02
-2.862229943275451660e-01 5.997017398476600647e-02 -5.031784623861312866e-02
3.260583281517028809e-01 -6.300975382328033447e-02 4.919002950191497803e-02
3.279465138912200928e-01 7.896997034549713135e-02 6.113201379776000977e-03
1.699035167694091797e-01 -3.845883533358573914e-02 7.094635814428329468e-02
-6.588986143469810486e-03 -5.742853507399559021e-02 -9.333012998104095459e-02
-6.635977327823638916e-02 3.383101895451545715e-02 -1.810399815440177917e-02
-1.334905177354812622e-01 -7.270897924900054932e-02 2.129301577806472778e-01
-1.907233148813247681e-01 -8.049163967370986938e-02 -2.510916292667388916e-01
-1.345477104187011719e-01 -1.946359500288963318e-02 -2.259586304426193237e-01
-3.674331307411193848e-01 1.047925278544425964e-02 -7.712254673242568970e-02
-2.859021425247192383e-01 9.353922680020332336e-03 -7.727067172527313232e-02
-7.197743747383356094e-03 -1.143357604742050171e-01 -9.728401899337768555e-02
3.089815378189086914e-01 -2.168774046003818512e-02 -7.542584836483001709e-02
8.640177249908447266e-01 3.795365989208221436e-02 2.041395306587219238e-01
-6.176064014434814453e-01 1.019342336803674698e-02 7.962615787982940674e-02
6.021988391876220703e-02 1.076792459934949875e-02 4.499354660511016846e-01
5.634649395942687988e-01 -7.129782438278198242e-02 3.606844320893287659e-02
4.950962066650390625e-01 2.058639377355575562e-02 7.823477685451507568e-02
1.575939953327178955e-01 2.733458764851093292e-02 6.197106838226318359e-01
5.298190936446189880e-02 -9.579814039170742035e-03 -4.077677428722381592e-02
-8.795449733734130859e-01 -2.248749136924743652e-02 3.236034512519836426e-02
1.712361127138137817e-01 6.876116618514060974e-03 -6.247255206108093262e-01
-1.067107245326042175e-01 3.227546811103820801e-03 8.054326474666595459e-02
-1.710873097181320190e-01 -2.055767923593521118e-02 7.829932868480682373e-02
-1.831157505512237549e-01 -4.502110183238983154e-03 -6.323244422674179077e-02
4.304243326187133789e-01 -4.930799454450607300e-02 -6.070655956864356995e-02
8.417544364929199219e-01 6.430737674236297607e-02 -6.516163237392902374e-03
-1.737998425960540771e-01 -6.117175146937370300e-02 -2.967351078987121582e-01
7.840975522994995117e-01 8.187898434698581696e-03 -1.996679976582527161e-02
-1.982163488864898682e-01 -4.961938038468360901e-02 2.497612535953521729e-01
6.891232132911682129e-01 4.448539763689041138e-02 -2.372259832918643951e-02
6.079565882682800293e-01 7.963333278894424438e-02 7.611621171236038208e-03
1.967883855104446411e-01 2.988337539136409760e-02 6.480984687805175781e-01
-1.535278260707855225e-01 -2.673138491809368134e-02 -9.741935878992080688e-02
4.456551000475883484e-02 -9.579814039170742035e-03 -1.641155593097209930e-02
-4.105032384395599365e-01 -7.782644033432006836e-02 1.693055592477321625e-02
1.513247042894363403e-01 1.835561171174049377e-02 5.334388613700866699e-01
7.868517637252807617e-01 7.972164452075958252e-02 1.385563611984252930e-02
-1.536442339420318604e-01 -5.523183569312095642e-02 3.000423908233642578e-01
-3.080779314041137695e-02 -5.722979456186294556e-02 -2.555910348892211914e-01
-7.842260599136352539e-01 -9.579814039170742035e-03 2.851681038737297058e-02
-1.647342555224895477e-02 -3.415585029870271683e-03 2.832788527011871338e-01
5.809302255511283875e-02 -5.389878526329994202e-03 -4.710258245468139648e-01
1.038703545928001404e-01 1.702490448951721191e-02 -4.986782371997833252e-01
-8.186162710189819336e-01 -9.579814039170742035e-03 -4.413393139839172363e-02
4.277960360050201416e-01 6.377357244491577148e-02 4.782798886299133301e-02
1.500791758298873901e-01 2.084666863083839417e-02 -5.470721125602722168e-01
-1.502597332000732422e-01 -7.424745708703994751e-03 -7.755952328443527222e-02
-1.131248176097869873e-01 2.491072565317153931e-02 -5.556420981884002686e-02
-7.874099612236022949e-01 -7.965023815631866455e-02 8.677872829139232635e-03
-4.440998286008834839e-02 -8.323866873979568481e-03 -6.186255440115928650e-02
4.444299042224884033e-01 6.115714204497635365e-04 4.758929833769798279e-02
6.894005537033081055e-01 3.417808189988136292e-02 5.301775410771369934e-02
-1.306123733520507812e-01 -4.804638028144836426e-02 9.101402759552001953e-02
4.528111964464187622e-02 -1.297851745039224625e-02 -2.387868165969848633e-01
5.877593159675598145e-01 -5.029420554637908936e-02 -5.275637283921241760e-02
-4.859997034072875977e-01 -9.579814039170742035e-03 7.822484523057937622e-02
7.584004998207092285e-01 3.669137880206108093e-02 7.770088315010070801e-02
-2.009586896747350693e-03 -3.003448434174060822e-02 -2.857544124126434326e-01
-5.224890708923339844e-01 -7.334593683481216431e-02 -2.865388803184032440e-02
8.602291345596313477e-01 9.548930823802947998e-02 2.633882104419171810e-04
-1.728713661432266235e-01 -3.825395833700895309e-03 -1.199257932603359222e-02
4.975409209728240967e-01 -9.579814039170742035e-03 3.042608685791492462e-02
-1.177699938416481018e-01 -4.425869509577751160e-02 -1.221008747816085815e-01
1.188918426632881165e-01 -9.018154232762753963e-04 5.478816628456115723e-01
2.772267325781285763e-04 -9.579814039170742035e-03 -1.774756424129009247e-02
-1.963811963796615601e-01 -8.010643720626831055e-02 2.510730624198913574e-01
1.070833671838045120e-02 2.456200309097766876e-03 3.747523128986358643e-01
2.580763213336467743e-02 2.871072106063365936e-02 5.685125663876533508e-02
-3.816601634025573730e-01 2.519087865948677063e-02 7.632768899202346802e-02
-5.661142989993095398e-02 -2.129496634006500244e-02 8.016695827245712280e-02
-9.064378589391708374e-02 1.261771540157496929e-03 -4.428441449999809265e-02
-1.470394246280193329e-02 -3.544534742832183838e-02 2.308076471090316772e-01
-5.096949934959411621e-01 5.244324356317520142e-02 1.016637310385704041e-02
-9.244109690189361572e-02 5.244324356317520142e-02 5.234696436673402786e-03
-4.174577295780181885e-01 1.306779775768518448e-02 6.940790265798568726e-02
1.378235965967178345e-01 -7.608117908239364624e-02 2.451626025140285492e-02
-6.247218251228332520e-01 -4.214999824762344360e-02 -6.619691848754882812e-02
-1.912509649991989136e-02 -4.068205133080482483e-02 2.891232073307037354e-01
2.437446117401123047e-01 3.017488121986389160e-02 -7.799916267395019531e-01
3.924266248941421509e-02 5.244324356317520142e-02 1.330291014164686203e-02
-7.481569051742553711e-01 -2.142842486500740051e-02 7.463069260120391846e-02
8.075875639915466309e-01 4.853061959147453308e-02 1.846123784780502319e-01
1.060602515935897827e-01 -1.402150560170412064e-02 3.572022616863250732e-01
3.647974729537963867e-01 -3.073391877114772797e-02 -7.167960703372955322e-02
-3.525237143039703369e-01 5.244324356317520142e-02 -1.380351744592189789e-02
-1.601643264293670654e-01 -2.840281277894973755e-02 1.351158767938613892e-01
-3.121434152126312256e-01 -8.747880347073078156e-03 7.985424995422363281e-02
9.677009284496307373e-02 1.830166764557361603e-02 5.199596658349037170e-02
2.203171402215957642e-01 1.704478263854980469e-02 6.157374382019042969e-01
-3.218208551406860352e-01 -8.126055821776390076e-03 -5.395353958010673523e-02
8.383547663688659668e-01 1.595417410135269165e-01 2.828611992299556732e-03
-3.121651709079742432e-01 -7.497099041938781738e-02 2.719707973301410675e-02
-1.305073201656341553e-01 -5.438286438584327698e-02 -2.071583569049835205e-01
1.681781560182571411e-01 -7.242977619171142578e-02 -3.086507692933082581e-02
-4.320009052753448486e-01 -3.710877848789095879e-03 8.051705360412597656e-02
-5.603040382266044617e-02 -9.661204181611537933e-03 -2.900399267673492432e-01
2.122978568077087402e-01 -7.564108073711395264e-02 2.557874470949172974e-02
-7.007965445518493652e-01 -6.719685345888137817e-02 -4.126467183232307434e-02
4.444299042224884033e-01 -5.027384031563997269e-03 2.118608169257640839e-02
-7.154504060745239258e-01 -3.962634131312370300e-03 4.399401694536209106e-02
7.840228080749511719e-01 4.607316479086875916e-02 -1.556695848703384399e-01
-1.501097250729799271e-02 -9.579814039170742035e-03 4.550928249955177307e-02
2.570119500160217285e-01 -1.709178835153579712e-02 -7.628853619098663330e-02
8.179398179054260254e-01 3.794684633612632751e-02 -8.599627017974853516e-02
1.162337437272071838e-01 -7.079242169857025146e-02 -3.481858968734741211e-02
-5.787016153335571289e-01 5.244324356317520142e-02 5.268153268843889236e-03
4.745061993598937988e-01 4.610761243384331465e-04 5.651451274752616882e-02
-7.504549026489257812e-01 4.573130235075950623e-02 -5.591704323887825012e-02
-1.243000198155641556e-02 -4.080508649349212646e-02 -6.722902506589889526e-02
2.191170454025268555e-01 3.683353215456008911e-02 7.165580391883850098e-01
1.670187413692474365e-01 -4.905095192953012884e-05 1.933917775750160217e-02
-6.875405311584472656e-01 1.683277636766433716e-02 -5.088524147868156433e-02
2.429969161748886108e-01 2.049269899725914001e-02 -6.875906586647033691e-01
3.252898156642913818e-01 -9.579814039170742035e-03 -4.821804910898208618e-02
-7.925662398338317871e-01 -3.293157741427421570e-02 6.357123702764511108e-02
3.937425836920738220e-02 -4.301695153117179871e-02 6.990450620651245117e-02
-4.892298877239227295e-01 -9.579814039170742035e-03 4.431789368391036987e-02
-1.006468236446380615e-01 -2.290393039584159851e-02 6.526462733745574951e-02
2.475436776876449585e-01 2.714571077376604080e-03 -4.756291583180427551e-02
-5.966241285204887390e-02 -1.955066807568073273e-02 -9.529363363981246948e-02
9.677009284496307373e-02 5.040799453854560852e-02 9.712266735732555389e-03
2.714150547981262207e-01 2.871829457581043243e-02 7.460106015205383301e-01
-7.472832798957824707e-01 -9.579814039170742035e-03 -3.904699115082621574e-03
-5.926664471626281738e-01 3.689426928758621216e-03 -7.033593207597732544e-02
-7.588508129119873047e-01 1.361768227070569992e-02 -4.711714014410972595e-02
6.153034046292304993e-02 7.472386118024587631e-03 3.944205045700073242e-01
-1.953874230384826660e-01 -6.291890144348144531e-02 2.701846957206726074e-01
7.356535792350769043e-01 8.991897851228713989e-02 -1.410013437271118164e-02
-6.588986143469810486e-03 -6.979202479124069214e-02 1.064526215195655823e-01
-1.557860523462295532e-01 -4.223853815346956253e-03 4.917185753583908081e-02
2.094816975295543671e-02 -6.159857148304581642e-04 -3.036744892597198486e-01
4.199518561363220215e-01 -2.071858197450637817e-02 7.827813178300857544e-02
8.452013731002807617e-01 4.960569366812705994e-02 -2.346716672182083130e-01
-6.875405311584472656e-01 3.666526079177856445e-02 3.421822935342788696e-02
6.641042977571487427e-02 7.219934463500976562e-02 3.321186825633049011e-02
-4.738870263099670410e-01 2.742544747889041901e-02 -7.293356209993362427e-02
8.730146884918212891e-01 4.638009145855903625e-02 -1.987917423248291016e-01
5.640332400798797607e-02 -1.399973034858703613e-02 4.276692867279052734e-01
7.430212106555700302e-03 -7.965023815631866455e-02 7.408346235752105713e-02
-3.903031349182128906e-01 6.059237197041511536e-02 -4.950720816850662231e-02
-2.072928100824356079e-01 -3.523238748311996460e-02 2.252794504165649414e-01
-5.242362618446350098e-01 -9.579814039170742035e-03 -2.200933359563350677e-02
3.519579470157623291e-01 8.685727603733539581e-03 2.120898477733135223e-02
-7.672151178121566772e-02 -1.358234602957963943e-02 -2.650725841522216797e-01
-3.949430957436561584e-02 5.244324356317520142e-02 2.039787732064723969e-02
2.517356909811496735e-02 -1.632326282560825348e-02 -1.941607594490051270e-01
3.893200159072875977e-01 -9.579814039170742035e-03 -6.556619703769683838e-02
1.184340417385101318e-01 -1.659868285059928894e-02 -7.635327428579330444e-02
-1.250226348638534546e-01 -9.811453521251678467e-02 -2.675096988677978516e-01
3.528059720993041992e-01 1.028996706008911133e-02 -4.429416358470916748e-02
-6.122353076934814453e-01 -7.683928310871124268e-02 2.268440462648868561e-02
8.506311178207397461e-01 4.349455609917640686e-02 -1.219598576426506042e-01
6.464359350502490997e-03 1.457693288102746010e-03 3.485488891601562500e-01
8.785571455955505371e-01 2.024932652711868286e-01 -6.537089124321937561e-03
5.065217614173889160e-01 -1.318199839442968369e-02 7.927048206329345703e-02
6.729436516761779785e-01 -2.425596350803971291e-03 5.506521463394165039e-02
-1.485703140497207642e-01 -6.960935145616531372e-02 -3.767677396535873413e-02
4.138359129428863525e-01 2.096308209002017975e-02 7.807899266481399536e-02
-5.442309975624084473e-01 5.244324356317520142e-02 4.949304275214672089e-03
6.470355391502380371e-01 2.824885584414005280e-02 -5.973550304770469666e-02
-6.876200437545776367e-01 2.600052859634160995e-03 -7.815995067358016968e-02
-4.945764243602752686e-01 -7.880885899066925049e-02 9.465982206165790558e-03
-4.455133974552154541e-01 2.828955091536045074e-02 7.504477351903915405e-02
5.371347069740295410e-01 3.435317426919937134e-02 3.993866965174674988e-02
1.135003045201301575e-01 9.308496490120887756e-03 4.415498971939086914e-01
-1.421704292297363281e-01 5.244324356317520142e-02 -2.837648428976535797e-02
-8.475701212882995605e-01 4.848823416978120804e-03 4.881059750914573669e-02
-1.792537607252597809e-02 1.096667442470788956e-02 -4.518571868538856506e-02
8.768284320831298828e-02 2.200650051236152649e-03 -3.697149455547332764e-01
-1.907289922237396240e-01 -7.566379755735397339e-02 2.552460879087448120e-02
7.937736064195632935e-02 -7.506280392408370972e-02 -2.450900338590145111e-02
-7.823966145515441895e-01 6.066515296697616577e-02 2.159173041582107544e-02
3.025485277175903320e-01 1.656398177146911621e-02 -1.199257932603359222e-02
-6.983556151390075684e-01 6.353923678398132324e-02 -4.566405341029167175e-02
-4.174577295780181885e-01 -2.765370765700936317e-03 2.001130487769842148e-03
-7.639361023902893066e-01 -7.063341140747070312e-02 -2.328534051775932312e-02
-2.636482417583465576e-01 2.714571077376604080e-03 -2.167826704680919647e-02
-3.580339550971984863e-01 -9.579814039170742035e-03 2.889009192585945129e-02
1.991564035415649414e-01 -9.579814039170742035e-03 5.981458723545074463e-02
-5.253776311874389648e-01 -9.579814039170742035e-03 -5.454090610146522522e-02
3.649905323982238770e-01 5.292404443025588989e-02 6.018417701125144958e-02
-6.110597848892211914e-01 -1.680595800280570984e-02 7.879327982664108276e-02
4.733439385890960693e-01 3.788948804140090942e-02 7.106797397136688232e-02
6.759235262870788574e-02 4.576291516423225403e-02 -6.320925801992416382e-02
2.257185280323028564e-01 -2.258402854204177856e-02 7.752323895692825317e-02
1.182353869080543518e-02 -2.808859385550022125e-02 -7.011228054761886597e-02
-2.103839218616485596e-01 1.379138440825045109e-03 -4.317555576562881470e-02
6.895419955253601074e-02 -6.955306045711040497e-03 3.006888031959533691e-01
-5.608979463577270508e-01 -9.579814039170742035e-03 3.785060718655586243e-02
2.226132303476333618e-01 1.552288420498371124e-02 -6.338568329811096191e-01
1.449778079986572266e-01 2.129433862864971161e-02 6.632956266403198242e-01
-4.305878579616546631e-01 5.244324356317520142e-02 -5.598030984401702881e-03
-1.782642453908920288e-01 -9.977177530527114868e-02 2.648173868656158447e-01
-6.415927410125732422e-02 7.343666162341833115e-03 -4.379197582602500916e-02
2.344996929168701172e-01 -2.082973020151257515e-03 4.512928053736686707e-02
-2.493303567171096802e-01 -6.355491280555725098e-02 -4.600941389799118042e-02
7.373231053352355957e-01 4.284094274044036865e-02 -8.705089986324310303e-02
1.468498855829238892e-01 5.214795097708702087e-02 -5.831014737486839294e-02
2.496883124113082886e-01 -9.023301303386688232e-03 1.078601460903882980e-02
-5.074793100357055664e-01 5.701289325952529907e-02 5.663896724581718445e-02
-1.067249253392219543e-01 -7.675695419311523438e-02 -2.041920274496078491e-02
-3.599130734801292419e-02 -1.501338463276624680e-02 1.497735530138015747e-01
2.428445369005203247e-01 5.244324356317520142e-02 1.863795332610607147e-02
5.757787078619003296e-02 -6.803386495448648930e-04 -3.246648609638214111e-01
-2.976305186748504639e-01 3.225801512598991394e-02 -2.302667498588562012e-02
-2.104908823966979980e-01 4.719631373882293701e-02 -6.210939213633537292e-02
-6.375140547752380371e-01 -1.487614586949348450e-02 -7.657947391271591187e-02
-1.032031849026679993e-01 -4.180644452571868896e-02 -6.646116822957992554e-02
-7.861047983169555664e-01 -8.075905032455921173e-03 -6.887158006429672241e-02
-8.008802682161331177e-02 -5.726575851440429688e-02 5.667455494403839111e-02
-6.778346896171569824e-01 -5.255716294050216675e-02 6.067926809191703796e-02
8.646395802497863770e-01 4.374763742089271545e-02 -1.449915766716003418e-02
1.396104842424392700e-01 -4.323225002735853195e-03 4.062567949295043945e-01
7.346451748162508011e-03 -8.174330927431583405e-03 2.354812324047088623e-01
2.425359934568405151e-01 -4.828678071498870850e-02 6.395550072193145752e-02
-1.128602679818868637e-02 -5.885579437017440796e-02 -1.253850609064102173e-01
9.836949408054351807e-02 1.634440198540687561e-02 4.947782456874847412e-01
-6.390751898288726807e-02 -3.998168557882308960e-02 1.893474757671356201e-01
-3.059379942715167999e-02 -2.404062077403068542e-02 3.061905205249786377e-01
6.064621806144714355e-01 -4.638820886611938477e-02 5.020878836512565613e-02
4.830412864685058594e-01 7.732314616441726685e-02 1.862375624477863312e-02
-1.647536605596542358e-01 5.244324356317520142e-02 3.380084410309791565e-02
7.431749701499938965e-01 4.654430225491523743e-02 -3.665971755981445312e-02
3.094462156295776367e-01 5.244324356317520142e-02 3.067623265087604523e-02
3.882410526275634766e-01 -5.934079177677631378e-03 -6.038777646608650684e-04
-2.477867007255554199e-01 -7.744596153497695923e-02 1.981865055859088898e-02
4.820418357849121094e-01 -7.472112774848937988e-02 -2.533260546624660492e-02
-1.405671387910842896e-01 -2.710901387035846710e-02 2.200767993927001953e-01
-6.333345174789428711e-01 6.853410508483648300e-03 5.588237568736076355e-02
7.454649358987808228e-02 1.213080901652574539e-02 -4.815397411584854126e-02
8.054949641227722168e-01 5.438053235411643982e-02 7.901140488684177399e-03
-6.897429823875427246e-01 6.824574619531631470e-02 4.200012981891632080e-02
-3.545396327972412109e-01 -9.579814039170742035e-03 5.813331902027130127e-02
-7.549154758453369141e-01 -7.292666286230087280e-02 2.241977863013744354e-02
-6.772356033325195312e-01 -9.579814039170742035e-03 7.015806436538696289e-02
8.059685677289962769e-02 5.811257660388946533e-02 5.520462244749069214e-02
4.818066209554672241e-02 -2.371504902839660645e-02 -1.734846085309982300e-01
5.592196062207221985e-02 -3.748873248696327209e-02 -5.921192094683647156e-02
-4.092970117926597595e-02 4.052005335688591003e-02 -6.723196059465408325e-02
7.292664796113967896e-02 -7.616163045167922974e-02 2.432081848382949829e-02
3.673273324966430664e-01 6.145259737968444824e-02 -4.838405922055244446e-02
-2.432730495929718018e-01 -7.728505879640579224e-02 -1.857580244541168213e-02
-2.057510465383529663e-01 2.229946665465831757e-02 4.751651361584663391e-02
5.431513190269470215e-01 -7.672193646430969238e-02 -2.050343900918960571e-02
-4.500814154744148254e-02 -7.051842752844095230e-03 -2.667430639266967773e-01
1.645778566598892212e-01 2.978967316448688507e-02 -1.027893647551536560e-02
-2.728061079978942871e-01 -1.983838714659214020e-02 -7.592774927616119385e-02
2.790051279589533806e-03 -2.715632878243923187e-02 7.007978856563568115e-02
-9.746769070625305176e-02 -4.186133295297622681e-02 -1.510490030050277710e-01
8.909494429826736450e-02 -3.839448466897010803e-02 -6.850597262382507324e-02
-6.747899651527404785e-01 5.244324356317520142e-02 -1.790533773601055145e-02
-8.029572963714599609e-01 -1.034468486905097961e-01 -3.751800162717700005e-03
4.444299042224884033e-01 1.082375925034284592e-02 -5.165101587772369385e-02
5.626633167266845703e-01 7.712741941213607788e-02 2.011138759553432465e-02
1.916188746690750122e-01 1.024169847369194031e-02 5.449723005294799805e-01
-1.141819953918457031e-01 -2.947892993688583374e-02 -2.003183513879776001e-01
-1.710130088031291962e-02 7.292556110769510269e-03 1.783962361514568329e-02
-7.320426702499389648e-01 -9.579814039170742035e-03 -5.269002914428710938e-02
3.882836401462554932e-01 -6.371485441923141479e-02 -4.580195248126983643e-02
-5.380056798458099365e-02 -2.457631751894950867e-02 4.853451624512672424e-02
5.735294818878173828e-01 -1.355584617704153061e-02 7.824216037988662720e-02
-1.566312313079833984e-01 1.516134105622768402e-02 1.329155266284942627e-02
-2.517144381999969482e-01 2.688786014914512634e-02 5.166745558381080627e-02
7.937844991683959961e-01 1.588242352008819580e-01 4.933346994221210480e-03
-3.507831692695617676e-01 -5.070117861032485962e-02 6.210234761238098145e-02
6.508762240409851074e-01 7.449562847614288330e-02 9.354745969176292419e-03
6.374125182628631592e-02 -2.510822005569934845e-02 7.647731155157089233e-02
2.522304654121398926e-01 2.256731502711772919e-02 7.695781588554382324e-01
-6.383705735206604004e-01 -7.090640719980001450e-03 2.408136613667011261e-02
2.388164401054382324e-01 5.637763440608978271e-02 5.746654421091079712e-02
3.199045062065124512e-01 -3.979522734880447388e-02 7.039524614810943604e-02
-5.722827911376953125e-01 -8.480977267026901245e-03 -1.822646893560886383e-02
7.511365413665771484e-01 5.179804936051368713e-02 -6.384555995464324951e-02
-8.433618582785129547e-03 -1.414222121238708496e-01 -1.074233353137969971e-01
7.375559210777282715e-01 1.282137781381607056e-01 1.224525086581707001e-02
1.563427746295928955e-01 2.601144462823867798e-02 -5.962496995925903320e-01
-7.465867400169372559e-01 5.244324356317520142e-02 2.165088243782520294e-02
5.489690899848937988e-01 2.849871478974819183e-02 -7.248986512422561646e-02
-1.330679468810558319e-02 -9.579814039170742035e-03 -7.622285187244415283e-02
3.028267621994018555e-01 2.208083868026733398e-02 1.861116848886013031e-02
8.354576826095581055e-01 3.775168582797050476e-02 2.152158319950103760e-01
5.673487111926078796e-02 -6.712068337947130203e-03 -2.867169678211212158e-01
-7.615141272544860840e-01 1.381832826882600784e-02 4.583892971277236938e-02
-2.911246418952941895e-01 -7.935116440057754517e-02 -2.878709696233272552e-03
5.248829126358032227e-01 3.115067444741725922e-02 7.385905832052230835e-02
5.151230692863464355e-01 -4.693051800131797791e-02 6.499668955802917480e-02
-2.020191997289657593e-01 -5.364323500543832779e-03 -1.007014978677034378e-02
3.322935402393341064e-01 -9.579814039170742035e-03 1.515558548271656036e-02
-2.068001776933670044e-02 2.447914518415927887e-02 5.115637183189392090e-02
7.475735992193222046e-02 1.328642573207616806e-02 4.773853421211242676e-01
-4.283703267574310303e-01 -5.280608311295509338e-02 6.048808619379997253e-02
-7.154504060745239258e-01 2.021065540611743927e-02 -2.390516921877861023e-02
-4.174577295780181885e-01 9.518606588244438171e-03 2.868726663291454315e-02
5.092248320579528809e-01 2.501767687499523163e-02 -1.349128317087888718e-02
-8.126148581504821777e-01 -5.814027041196823120e-02 -3.381109237670898438e-02
-7.591565251350402832e-01 -9.455818682909011841e-03 -3.257985413074493408e-02
-5.813668370246887207e-01 -9.579814039170742035e-03 -4.627792537212371826e-02
1.456469595432281494e-01 -9.579814039170742035e-03 -4.621810466051101685e-02
-3.116976320743560791e-01 6.863748282194137573e-02 4.148961603641510010e-02
1.696091741323471069e-01 -2.918267808854579926e-02 -7.232186943292617798e-02
-1.068867594003677368e-01 -2.320111356675624847e-02 -2.821143567562103271e-01
6.643782854080200195e-01 -3.900305181741714478e-02 2.486900240182876587e-02
-4.422348439693450928e-01 -7.984994351863861084e-02 1.555579830892384052e-03
9.677009284496307373e-02 -2.578912302851676941e-03 -6.031094118952751160e-02
7.304035425186157227e-01 6.240557879209518433e-02 3.705261275172233582e-03
6.991655379533767700e-02 -2.240515686571598053e-02 2.346142828464508057e-01
8.247305750846862793e-01 2.061017900705337524e-01 7.149346172809600830e-03
1.628827601671218872e-01 5.244324356317520142e-02 -2.913809195160865784e-02
1.670187413692474365e-01 2.411949262022972107e-02 6.566308438777923584e-02
1.127524077892303467e-01 -1.218065712600946426e-02 -4.100195169448852539e-01
5.071691274642944336e-01 -9.579814039170742035e-03 5.869698245078325272e-03
-2.131210416555404663e-01 -2.071006409823894501e-02 -2.450002729892730713e-01
-8.447103947401046753e-02 2.714571077376604080e-03 -8.075004443526268005e-03
-2.293488979339599609e-01 -2.393412869423627853e-03 -3.515092888846993446e-03
2.120787650346755981e-02 4.123847931623458862e-03 -4.077925384044647217e-01
4.678507447242736816e-01 7.712316513061523438e-02 -1.767724379897117615e-02
1.233272999525070190e-02 -5.226849764585494995e-02 2.380214929580688477e-01
-1.273745745420455933e-01 -9.450478106737136841e-02 -2.288216501474380493e-01
3.020043075084686279e-01 8.210618980228900909e-03 -4.961084574460983276e-02
8.271743655204772949e-01 5.191153287887573242e-02 1.366339772939682007e-01
2.073460370302200317e-01 -3.349376097321510315e-02 -7.053610682487487793e-02
-4.368580877780914307e-01 -9.579814039170742035e-03 -3.315056487917900085e-02
1.726662069559097290e-01 2.586809918284416199e-03 -5.580225586891174316e-01
-8.365051150321960449e-01 -4.194935038685798645e-02 -4.318918287754058838e-02
-2.183189541101455688e-01 -5.989404395222663879e-02 2.903876304626464844e-01
-2.533783018589019775e-01 1.945917308330535889e-02 -7.594062387943267822e-02
-2.793309092521667480e-01 5.244324356317520142e-02 -1.810636371374130249e-02
-5.765148252248764038e-02 -1.176516246050596237e-02 -1.848779618740081787e-01
7.885317206382751465e-01 5.220312997698783875e-02 -5.655078962445259094e-02
2.742352709174156189e-02 2.510853670537471771e-02 1.078601460903882980e-02
-1.004338636994361877e-01 -7.858643680810928345e-02 1.115172356367111206e-02
-1.894091628491878510e-02 -3.723129257559776306e-02 4.853451624512672424e-02
8.103511929512023926e-01 1.062595471739768982e-02 6.202877499163150787e-03
-3.427619934082031250e-01 9.696539491415023804e-03 -5.456068739295005798e-02
