3.984757065773010254e-01 -5.297642946243286133e-01 3.781028464436531067e-02
-7.585031390190124512e-01 5.950493812561035156e-01 -4.376479610800743103e-02
2.780805826187133789e-01 -2.868418097496032715e-01 -2.496016174554824829e-01
-4.096411168575286865e-01 2.738423347473144531e-01 7.443709373474121094e-01
-5.754516720771789551e-01 -3.702962994575500488e-01 1.914551258087158203e-01
8.862325921654701233e-03 3.340606391429901123e-01 -8.428705930709838867e-01
1.854344457387924194e-01 -1.248908787965774536e-01 -7.574371099472045898e-01
-3.170897364616394043e-01 5.036460980772972107e-02 -7.741352915763854980e-01
-4.907307326793670654e-01 -2.868418097496032715e-01 2.312551289796829224e-01
-3.866771608591079712e-02 -2.868418097496032715e-01 3.632377982139587402e-01
3.736309409141540527e-01 6.337052583694458008e-01 -6.415443420410156250e-01
-7.659243345260620117e-01 -1.410040557384490967e-01 8.770732581615447998e-02
2.451478093862533569e-01 -2.445614337921142578e-01 -6.721242666244506836e-01
-4.994546622037887573e-02 -4.216106534004211426e-01 -5.511959195137023926e-01
-5.191344618797302246e-01 -2.404149323701858521e-01 -4.816413223743438721e-01
6.020194888114929199e-01 -1.072290074080228806e-02 5.549441576004028320e-01
-1.037529706954956055e-01 -5.461436510086059570e-01 3.468472361564636230e-01
-2.723023295402526855e-01 -4.781200289726257324e-01 -4.055519998073577881e-01
-5.594780445098876953e-01 -1.504446715116500854e-01 -5.240164399147033691e-01
-4.264348745346069336e-01 6.715049147605895996e-01 5.817109942436218262e-01
6.130298376083374023e-01 -3.555633127689361572e-01 1.483976840972900391e-01
8.201403617858886719e-01 6.647087633609771729e-02 -2.068198472261428833e-01
8.315917849540710449e-01 1.532343327999114990e-01 1.691596359014511108e-01
1.309505403041839600e-01 -4.891139864921569824e-01 4.565266370773315430e-01
4.706304073333740234e-01 2.895174920558929443e-01 7.117164134979248047e-01
2.838949859142303467e-02 4.804730415344238281e-01 -8.127584457397460938e-01
-4.917740225791931152e-01 5.118412375450134277e-01 -6.336829066276550293e-01
-7.278654575347900391e-01 4.055683612823486328e-01 3.903216719627380371e-01
-5.686947107315063477e-01 1.720265150070190430e-01 6.223466396331787109e-01
-3.834765776991844177e-02 -5.995024442672729492e-01 2.109730541706085205e-01
-6.580618619918823242e-01 -2.949677407741546631e-01 1.491049975156784058e-01
8.482933044433593750e-02 9.473503381013870239e-02 8.385988473892211914e-01
4.294898509979248047e-01 -2.868418097496032715e-01 2.004109881818294525e-02
-4.946213960647583008e-01 3.100515902042388916e-01 -6.856244206428527832e-01
4.416494667530059814e-01 -1.279028058052062988e-01 6.431465148925781250e-01
-6.650549173355102539e-01 -1.827140599489212036e-01 3.441084325313568115e-01
-3.424721062183380127e-01 -3.494361639022827148e-01 -5.301367044448852539e-01
7.199919819831848145e-01 1.326979883015155792e-02 4.087256193161010742e-01
-5.774374604225158691e-01 -6.463903933763504028e-02 5.506416559219360352e-01
3.021103143692016602e-01 3.277740776538848877e-01 -7.940193414688110352e-01
-4.214095771312713623e-01 3.962543606758117676e-01 7.129535675048828125e-01
-2.942782044410705566e-01 -3.973181545734405518e-01 4.993290603160858154e-01
3.683876991271972656e-01 -4.464729875326156616e-02 7.229136824607849121e-01
-7.590045332908630371e-01 5.175790786743164062e-01 -2.512945234775543213e-01
7.157300114631652832e-01 6.104758977890014648e-01 2.581339478492736816e-01
3.122238218784332275e-01 3.373206555843353271e-01 7.840279340744018555e-01
-3.257050216197967529e-01 4.036540389060974121e-01 7.599645853042602539e-01
-8.355616778135299683e-02 -2.816579639911651611e-01 6.810934543609619141e-01
-1.558315008878707886e-01 -2.868418097496032715e-01 5.262595415115356445e-01
6.188530009239912033e-03 8.142184466123580933e-02 8.420156836509704590e-01
5.039284825325012207e-01 -2.822265625000000000e-01 4.670165777206420898e-01
3.467349112033843994e-01 -5.250069499015808105e-01 -2.121501266956329346e-01
7.998616695404052734e-01 1.474341750144958496e-01 -2.829349935054779053e-01
-9.482151269912719727e-02 -2.868418097496032715e-01 -3.427724242210388184e-01
5.432451963424682617e-01 3.344862461090087891e-01 -6.466652750968933105e-01
3.900077342987060547e-01 -3.083093762397766113e-01 5.447703599929809570e-01
-4.203524887561798096e-01 -2.448371350765228271e-01 5.709909796714782715e-01
-6.280212402343750000e-01 -2.479679137468338013e-01 -3.150501847267150879e-01
-4.062932729721069336e-02 -6.042822003364562988e-01 -1.880040764808654785e-01
6.747505664825439453e-01 3.935715556144714355e-01 4.938867986202239990e-01
1.993076354265213013e-01 6.357505917549133301e-01 -7.133656740188598633e-01
1.990827620029449463e-01 3.400160372257232666e-02 8.096118569374084473e-01
-1.203443482518196106e-02 1.967958807945251465e-01 -8.471989035606384277e-01
-6.807622909545898438e-01 5.942584872245788574e-01 -3.291206657886505127e-01
-3.023912310600280762e-01 1.807287186384201050e-01 7.935693264007568359e-01
-3.732812106609344482e-01 6.123256683349609375e-01 6.499931216239929199e-01
-6.145538091659545898e-01 -1.395015418529510498e-01 4.685949087142944336e-01
-9.261599928140640259e-02 2.813919186592102051e-01 -8.474090695381164551e-01
2.784002125263214111e-01 -2.868418097496032715e-01 -5.003640055656433105e-01
7.529463171958923340e-01 -1.507013887166976929e-01 -1.842538416385650635e-01
6.721504926681518555e-01 6.259230971336364746e-01 -3.360921442508697510e-01
8.120177984237670898e-01 2.428361922502517700e-01 2.837308347225189209e-01
1.454526484012603760e-01 -2.868418097496032715e-01 1.132120043039321899e-01
-8.072397708892822266e-01 1.271336674690246582e-01 -2.394192069768905640e-01
-3.818766474723815918e-01 -1.462388783693313599e-02 7.175205349922180176e-01
4.246015548706054688e-01 -2.868418097496032715e-01 -1.922290176153182983e-01
3.666439354419708252e-01 -2.868418097496032715e-01 -5.001701712608337402e-01
-1.166991591453552246e-01 3.479097187519073486e-01 -8.333558440208435059e-01
1.238206401467323303e-02 -4.419668018817901611e-01 -5.318520665168762207e-01
-6.356991529464721680e-01 -2.774296104907989502e-01 2.547602057456970215e-01
-1.951309591531753540e-01 -2.061045616865158081e-01 7.074492573738098145e-01
-8.213335275650024414e-01 3.611574172973632812e-01 -1.369421482086181641e-01
1.034669429063796997e-01 2.501561641693115234e-01 -8.475151062011718750e-01
-6.085059046745300293e-01 -3.704755008220672607e-01 -3.120224922895431519e-02
5.333876013755798340e-01 1.031383797526359558e-01 6.603124737739562988e-01
8.225508332252502441e-01 4.122607111930847168e-01 -1.432140916585922241e-01
-4.514484703540802002e-01 -2.868418097496032715e-01 -2.847967445850372314e-01
1.220862790942192078e-01 -2.868418097496032715e-01 4.227513074874877930e-01
-6.809001564979553223e-01 -2.854814529418945312e-01 -4.000801593065261841e-02
5.624426007270812988e-01 6.417192220687866211e-01 -4.866932928562164307e-01
5.824748873710632324e-01 4.709859192371368408e-01 -5.723292231559753418e-01
2.150804847478866577e-01 -2.868418097496032715e-01 2.158357761800289154e-02
6.421520709991455078e-01 6.334390640258789062e-01 3.767706751823425293e-01
3.248391747474670410e-01 -2.868418097496032715e-01 -3.690395653247833252e-01
-1.594790723174810410e-03 -1.721365191042423248e-02 -8.143582940101623535e-01
-7.939472794532775879e-01 1.578444540500640869e-01 2.784393131732940674e-01
-2.953939698636531830e-02 6.331521868705749512e-01 -7.389668822288513184e-01
-5.981761813163757324e-01 5.610706806182861328e-01 4.984554648399353027e-01
3.862712681293487549e-01 -4.803298711776733398e-01 -3.076789379119873047e-01
-9.727858752012252808e-02 -2.868418097496032715e-01 1.752506494522094727e-01
-7.148727774620056152e-01 -3.337850794196128845e-02 3.773031234741210938e-01
-1.499774008989334106e-01 -3.265410065650939941e-01 -6.388667821884155273e-01
-8.260537981986999512e-01 2.755543589591979980e-01 1.995043754577636719e-01
-2.967292368412017822e-01 -2.868418097496032715e-01 -3.135020136833190918e-01
5.456721186637878418e-01 -2.631411850452423096e-01 -4.443922638893127441e-01
7.345707416534423828e-01 -1.695869565010070801e-01 2.039688229560852051e-01
7.258210778236389160e-01 5.978769063949584961e-01 -2.304420918226242065e-01
-4.711964130401611328e-01 -2.868418097496032715e-01 -2.191991358995437622e-01
4.975299239158630371e-01 -4.036193490028381348e-01 2.941889166831970215e-01
-2.166054248809814453e-01 -2.868418097496032715e-01 -2.602406144142150879e-01
3.357744589447975159e-02 -6.005621552467346191e-01 -2.084688097238540649e-01
-7.188074290752410889e-02 -2.868418097496032715e-01 -2.823362350463867188e-01
5.437190532684326172e-01 4.074507653713226318e-01 6.344012022018432617e-01
6.921783834695816040e-02 -3.321814835071563721e-01 6.491289734840393066e-01
-3.632917702198028564e-01 8.927810937166213989e-02 -7.645731568336486816e-01
8.919201791286468506e-02 4.956678152084350586e-01 8.039249181747436523e-01
-4.947781562805175781e-01 -2.868418097496032715e-01 1.666991114616394043e-01
-2.519203126430511475e-01 -5.716741681098937988e-01 -1.813754737377166748e-01
6.049797534942626953e-01 -2.043134272098541260e-01 4.302974343299865723e-01
-1.488255560398101807e-01 5.613231658935546875e-01 7.612559795379638672e-01
-5.228406786918640137e-01 2.850976884365081787e-01 6.715916395187377930e-01
4.413901269435882568e-01 -2.353818565607070923e-01 5.677860975265502930e-01
5.527039170265197754e-01 -2.868418097496032715e-01 7.239555567502975464e-02
-7.718387246131896973e-01 2.829868495464324951e-01 3.676694929599761963e-01
8.252509236335754395e-01 2.524589747190475464e-02 -1.385446041822433472e-01
-8.171749114990234375e-01 3.993515670299530029e-01 1.458354890346527100e-01
6.836544871330261230e-01 -2.908582389354705811e-01 6.537315994501113892e-02
6.748582720756530762e-01 1.197469159960746765e-01 -5.145723819732666016e-01
-8.355375528335571289e-01 1.531924754381179810e-01 1.202687844634056091e-01
6.317474246025085449e-01 -3.231638073921203613e-01 -1.954088956117630005e-01
-6.797189712524414062e-01 -1.337301731109619141e-01 -3.669279515743255615e-01
7.403223514556884766e-01 3.455301821231842041e-01 4.032023847103118896e-01
7.574425935745239258e-01 9.401220828294754028e-02 -3.849089145660400391e-01
-7.759904265403747559e-01 5.437462925910949707e-01 1.217178702354431152e-01
2.443431466817855835e-01 6.620822548866271973e-01 6.843361854553222656e-01
-5.324536561965942383e-01 -6.054507568478584290e-02 5.929393172264099121e-01
8.108168840408325195e-01 3.408710062503814697e-01 -2.353493571281433105e-01
5.114805325865745544e-02 -5.552801489830017090e-01 -3.413017988204956055e-01
-8.282722234725952148e-01 1.254924535751342773e-01 -1.400970816612243652e-01
-4.967088699340820312e-01 -4.152310490608215332e-01 2.579771578311920166e-01
-7.866734266281127930e-01 1.962082386016845703e-01 -3.136639893054962158e-01
-4.523694515228271484e-01 -1.792128235101699829e-01 -5.987643599510192871e-01
4.283715784549713135e-01 6.355894207954406738e-01 -6.116304397583007812e-01
7.084173560142517090e-01 6.915491819381713867e-01 1.012031659483909607e-01
7.271900773048400879e-01 -1.526613831520080566e-01 2.723586559295654297e-01
-7.814809083938598633e-01 4.611403942108154297e-01 -2.222842872142791748e-01
-7.457059621810913086e-01 4.493719041347503662e-01 -3.282677531242370605e-01
1.151182428002357483e-01 -2.868418097496032715e-01 -1.779078245162963867e-01
4.969139099121093750e-01 -2.896374464035034180e-01 -4.700175821781158447e-01
7.416430711746215820e-01 -8.704826980829238892e-02 -2.892672121524810791e-01
-5.935385823249816895e-01 5.485576391220092773e-02 5.883042216300964355e-01
-7.098009586334228516e-01 4.731394723057746887e-02 -4.372372627258300781e-01
3.148152828216552734e-01 4.426390528678894043e-01 7.596707940101623535e-01
6.818788647651672363e-01 2.214604616165161133e-01 -5.135195851325988770e-01
-4.474776983261108398e-01 -3.390857279300689697e-01 -4.622181355953216553e-01
-1.291594505310058594e-01 -5.443568825721740723e-01 -3.405746817588806152e-01
6.168093681335449219e-01 4.832350909709930420e-01 5.297737717628479004e-01
8.013555407524108887e-01 1.665106713771820068e-01 2.972473204135894775e-01
3.475499153137207031e-01 -3.694606125354766846e-01 -5.107963085174560547e-01
-7.533262372016906738e-01 1.888655871152877808e-01 3.881756067276000977e-01
-8.200196623802185059e-01 4.157025218009948730e-01 2.502529695630073547e-02
-5.231267809867858887e-01 -2.868418097496032715e-01 -5.096355453133583069e-02
-2.058974802494049072e-01 -3.521533906459808350e-01 5.998745560646057129e-01
6.865741610527038574e-01 5.746889114379882812e-01 -3.617604970932006836e-01
-4.097772240638732910e-01 2.876297235488891602e-01 -7.463897466659545898e-01
-5.123731493949890137e-01 1.101779192686080933e-01 6.687184572219848633e-01
1.839069575071334839e-01 1.443713754415512085e-01 -8.247595429420471191e-01
6.455533206462860107e-02 -4.656286835670471191e-01 -5.028495788574218750e-01
-4.668861925601959229e-01 -3.016844950616359711e-02 6.652464866638183594e-01
-1.821210235357284546e-01 6.133465170860290527e-01 7.271076440811157227e-01
-5.024449229240417480e-01 -3.818227052688598633e-01 -3.219734132289886475e-01
5.140256285667419434e-01 -1.473991572856903076e-01 5.864045619964599609e-01
4.509876072406768799e-01 -1.848957128822803497e-02 6.793996691703796387e-01
-2.286693751811981201e-01 3.535467088222503662e-01 -8.048211932182312012e-01
1.040252074599266052e-01 2.160822600126266479e-01 8.439420461654663086e-01
-4.541493356227874756e-01 4.965069591999053955e-01 -6.646936535835266113e-01
-4.371643662452697754e-01 1.589341312646865845e-01 -7.209488749504089355e-01
6.134924292564392090e-01 1.812093704938888550e-01 -5.897157192230224609e-01
-8.073569536209106445e-01 4.333612322807312012e-01 -1.289583891630172729e-01
5.114927291870117188e-01 5.084399580955505371e-01 6.282584667205810547e-01
5.201519131660461426e-01 6.553788185119628906e-01 5.154783725738525391e-01
-1.956771761178970337e-01 -3.019237220287322998e-01 6.438176631927490234e-01
3.420232236385345459e-01 -5.306275486946105957e-01 2.001238316297531128e-01
-1.088566705584526062e-01 -3.568254709243774414e-01 -6.200544238090515137e-01
-4.261281788349151611e-01 -2.810661494731903076e-01 -5.370634198188781738e-01
-3.271644413471221924e-01 -2.868418097496032715e-01 -2.106381356716156006e-01
-5.549972653388977051e-01 -4.095173776149749756e-01 1.136410534381866455e-01
5.607049465179443359e-01 -2.868418097496032715e-01 -2.383733242750167847e-01
-3.785770237445831299e-01 -4.807527959346771240e-01 3.064932525157928467e-01
2.654187083244323730e-01 -5.793108344078063965e-01 -1.419976055622100830e-01
-4.715195000171661377e-01 6.972486525774002075e-02 7.008637189865112305e-01
-7.327175736427307129e-01 6.377794742584228516e-01 3.284142538905143738e-02
-4.743788838386535645e-01 4.157257676124572754e-01 6.784011125564575195e-01
5.681399106979370117e-01 1.903322488069534302e-01 6.387407183647155762e-01
-1.889262348413467407e-01 -5.092849135398864746e-01 3.886683881282806396e-01
4.911287426948547363e-01 -4.528832435607910156e-01 -1.790700256824493408e-01
2.259684652090072632e-01 5.713315010070800781e-01 -7.412154078483581543e-01
-3.554855287075042725e-02 -2.868418097496032715e-01 -6.093077063560485840e-01
-1.589717715978622437e-01 -2.868418097496032715e-01 3.927098214626312256e-01
9.014928713440895081e-03 -5.776265263557434082e-01 3.001334667205810547e-01
6.512937545776367188e-01 -1.312041580677032471e-01 -4.291294217109680176e-01
-7.615107297897338867e-01 5.463790893554687500e-01 -1.690392494201660156e-01
-7.221181988716125488e-01 2.393567413091659546e-01 -4.453020691871643066e-01
8.182371854782104492e-01 3.010038137435913086e-01 2.506308853626251221e-01
-5.127229690551757812e-01 5.498984456062316895e-01 -5.949485898017883301e-01
2.753047645092010498e-01 -1.704648584127426147e-01 -7.106776833534240723e-01
2.465908825397491455e-01 -2.868418097496032715e-01 5.314167141914367676e-01
3.907796740531921387e-01 -2.868418097496032715e-01 7.215700298547744751e-02
-1.999718993902206421e-01 -2.868418097496032715e-01 2.428986877202987671e-01
-8.125709295272827148e-01 1.058987081050872803e-01 2.123239189386367798e-01
2.463677376508712769e-01 7.491531781852245331e-03 -7.883823513984680176e-01
-5.242605209350585938e-01 -3.203138709068298340e-01 3.971208333969116211e-01
6.780640482902526855e-01 -1.869958788156509399e-01 3.197263181209564209e-01
1.692402958869934082e-01 -2.868418097496032715e-01 -6.193832755088806152e-01
2.950819730758666992e-01 1.953772753477096558e-01 -8.020961880683898926e-01
6.088436245918273926e-01 3.385492265224456787e-01 -5.864298343658447266e-01
2.766366899013519287e-01 -2.769109606742858887e-01 -6.325345039367675781e-01
6.302965879440307617e-01 -3.572545051574707031e-01 1.449397671967744827e-02
-4.130226373672485352e-01 -1.467840224504470825e-01 6.535314321517944336e-01
-4.044288992881774902e-01 -2.868418097496032715e-01 -3.906596004962921143e-01
2.499637454748153687e-01 3.516401350498199463e-01 8.010542988777160645e-01
2.172351628541946411e-01 -4.102402031421661377e-01 5.258408784866333008e-01
-5.687282681465148926e-01 -1.766144633293151855e-01 4.968978166580200195e-01
8.535745143890380859e-01 2.644002437591552734e-01 -3.929923474788665771e-02
-3.193839788436889648e-01 3.453277349472045898e-01 7.770882844924926758e-01
-8.455786108970642090e-01 1.642758548259735107e-01 -6.057105585932731628e-02
-2.422305755317211151e-03 -3.431262969970703125e-01 -6.408353447914123535e-01
6.729284524917602539e-01 -1.592529416084289551e-01 -3.720919489860534668e-01
7.665575742721557617e-01 -1.493617147207260132e-01 1.165926456451416016e-01
-8.150193691253662109e-01 -4.454423673450946808e-03 -2.901619998738169670e-03
-1.197179630398750305e-01 -4.858142733573913574e-01 -4.642505049705505371e-01
7.798277139663696289e-01 1.681141406297683716e-01 -3.481104373931884766e-01
-7.383071780204772949e-01 -1.961788833141326904e-01 -2.901887893676757812e-02
-2.742192447185516357e-01 -2.992378734052181244e-02 -7.606773376464843750e-01
-2.681092917919158936e-01 -4.077116250991821289e-01 -5.013668537139892578e-01
-7.647784948348999023e-01 5.487298965454101562e-02 3.425904214382171631e-01
5.200768634676933289e-02 -6.302452087402343750e-01 -4.480845108628273010e-02
2.688432633876800537e-01 -4.163096845149993896e-01 -4.925965070724487305e-01
2.738728821277618408e-01 2.698730230331420898e-01 -8.123354315757751465e-01
5.420976281166076660e-01 -2.868418097496032715e-01 3.302240371704101562e-01
-1.206191256642341614e-01 -2.868418097496032715e-01 1.182209253311157227e-01
-1.523776818066835403e-02 2.498912364244461060e-01 8.519507646560668945e-01
-2.896983027458190918e-01 -8.775041252374649048e-02 7.378733158111572266e-01
-2.692051529884338379e-01 4.897585809230804443e-01 -7.612433433532714844e-01
-6.474245786666870117e-01 3.973786830902099609e-01 -5.140201449394226074e-01
4.487346708774566650e-01 -3.263704180717468262e-01 4.855343103408813477e-01
5.758402347564697266e-01 5.784925818443298340e-01 5.121150016784667969e-01
-6.688723564147949219e-01 5.791869759559631348e-01 3.726422488689422607e-01
2.716397494077682495e-02 -2.868418097496032715e-01 -4.716277718544006348e-01
6.169109940528869629e-01 5.896528363227844238e-01 -4.550666213035583496e-01
-5.088443756103515625e-01 -4.590285122394561768e-01 -4.901606589555740356e-02
7.953231334686279297e-01 -7.227304577827453613e-02 -1.051500514149665833e-01
7.488592267036437988e-01 5.471259951591491699e-01 -2.431220561265945435e-01
6.127946376800537109e-01 2.900893688201904297e-01 5.955203771591186523e-01
7.396245002746582031e-01 5.515447854995727539e-01 2.772986292839050293e-01
-7.175305485725402832e-01 6.492748260498046875e-01 -1.240890175104141235e-01
5.002833604812622070e-01 6.511827558279037476e-02 6.794375777244567871e-01
5.495024919509887695e-01 -2.954036593437194824e-01 -4.000804126262664795e-01
7.937861680984497070e-01 4.733740687370300293e-01 1.896183490753173828e-01
-7.756389379501342773e-01 -1.157431751489639282e-01 -9.155944734811782837e-02
2.633898258209228516e-01 -2.463543117046356201e-01 6.594156026840209961e-01
-5.899623632431030273e-01 -3.363469243049621582e-01 2.686497569084167480e-01
5.396844744682312012e-01 -1.684954166412353516e-01 -5.372047424316406250e-01
5.657612085342407227e-01 1.638246029615402222e-01 -6.314782500267028809e-01
-4.790096282958984375e-01 6.766667217016220093e-02 -6.880936026573181152e-01
-4.777525085955858231e-03 -6.292621493339538574e-01 4.596870020031929016e-02
-8.066013455390930176e-01 4.804437756538391113e-01 1.836525462567806244e-02
5.218128487467765808e-02 2.134498506784439087e-01 -8.514307141304016113e-01
-6.592809557914733887e-01 8.059563487768173218e-02 -5.199655294418334961e-01
1.004093736410140991e-01 -5.969265103340148926e-01 -2.058049589395523071e-01
4.340973198413848877e-01 -3.642699420452117920e-01 4.443428814411163330e-01
-5.787926912307739258e-01 3.645992279052734375e-01 -6.006338596343994141e-01
-6.430247426033020020e-01 -1.050654053688049316e-01 -4.546789228916168213e-01
4.851359724998474121e-01 -4.326511025428771973e-01 2.476043701171875000e-01
5.202458500862121582e-01 -1.898328661918640137e-01 5.384174585342407227e-01
2.661760151386260986e-01 -5.005180239677429199e-01 -3.707669377326965332e-01
-1.428586095571517944e-01 -1.526346802711486816e-01 -7.597365975379943848e-01
-7.726623415946960449e-01 -5.367525294423103333e-02 -2.023528218269348145e-01
-7.014682292938232422e-01 -6.413765251636505127e-02 -3.739674985408782959e-01
-1.859315782785415649e-01 -6.049007773399353027e-01 1.608660793863236904e-03
-6.201210618019104004e-01 -3.561246022582054138e-02 5.219045877456665039e-01
-1.609653383493423462e-01 -2.628163695335388184e-01 -6.787400245666503906e-01
-6.007487177848815918e-01 -2.952994406223297119e-01 3.091011047363281250e-01
-5.128005146980285645e-01 1.730218380689620972e-01 -6.727170348167419434e-01
-2.439925372600555420e-01 5.182140469551086426e-01 7.634503245353698730e-01
-1.411062479019165039e-01 -6.073285937309265137e-01 -1.053214967250823975e-01
8.090179413557052612e-02 6.139535107649862766e-04 8.165471553802490234e-01
-6.723348498344421387e-01 -2.081041634082794189e-01 -2.850216031074523926e-01
1.321403086185455322e-01 -9.888135641813278198e-02 -7.773953080177307129e-01
3.261685073375701904e-01 2.838998138904571533e-01 7.907056212425231934e-01
6.211454272270202637e-01 -3.604301214218139648e-01 -9.300767630338668823e-02
2.185291796922683716e-01 3.920690715312957764e-01 -8.020694851875305176e-01
-2.845162153244018555e-01 -3.341337665915489197e-03 7.712463140487670898e-01
-4.947205632925033569e-02 7.483287155628204346e-02 -8.388601541519165039e-01
6.083086729049682617e-01 6.363730877637863159e-02 -5.859034061431884766e-01
-6.938014626502990723e-01 2.809635698795318604e-01 4.886900782585144043e-01
-3.799149692058563232e-01 -2.868418097496032715e-01 4.237308502197265625e-01
-6.723925471305847168e-01 -2.868418097496032715e-01 1.203440036624670029e-02
2.244961261749267578e-01 -2.868418097496032715e-01 2.136437892913818359e-01
-2.686503231525421143e-01 -1.320484429597854614e-01 -7.276558279991149902e-01
3.552674651145935059e-01 6.266959309577941895e-01 6.579363942146301270e-01
-4.914888739585876465e-01 -1.616945117712020874e-01 5.794736146926879883e-01
5.920878052711486816e-01 -3.578868508338928223e-01 -2.092519402503967285e-01
7.510448694229125977e-01 5.776697993278503418e-01 1.793842613697052002e-01
-8.293241858482360840e-01 5.534423887729644775e-02 9.495277702808380127e-02
3.370797336101531982e-01 -2.399177998304367065e-01 6.320061087608337402e-01
-2.113052904605865479e-01 3.570505082607269287e-01 8.096377253532409668e-01
-6.165595054626464844e-01 -2.868418097496032715e-01 4.340341314673423767e-02
6.392435431480407715e-01 -1.142820268869400024e-01 4.634111225605010986e-01
1.922921985387802124e-01 -2.868418097496032715e-01 3.215062618255615234e-01
-7.737392187118530273e-01 5.027082562446594238e-01 2.137928307056427002e-01
7.430068850517272949e-01 -1.982112377882003784e-01 7.506449520587921143e-02
-4.032175838947296143e-01 -4.069276452064514160e-01 -3.989432156085968018e-01
9.696239978075027466e-02 -2.868418097496032715e-01 -1.234006583690643311e-01
5.932448506355285645e-01 -2.868418097496032715e-01 -1.307675838470458984e-01
6.541367769241333008e-01 -2.358074635267257690e-01 2.969768047332763672e-01
4.460105597972869873e-01 -5.049186944961547852e-01 -1.860481314361095428e-02
-8.246021270751953125e-01 2.555415630340576172e-01 -1.900260746479034424e-01
8.100863099098205566e-01 4.243944585323333740e-01 1.629687100648880005e-01
-5.853652954101562500e-02 -4.602173864841461182e-01 5.086938738822937012e-01
-4.472907483577728271e-01 -4.974027574062347412e-01 -7.541776448488235474e-02
-3.717088997364044189e-01 3.171393871307373047e-01 7.571396231651306152e-01
6.999373435974121094e-01 -2.394586205482482910e-01 -1.611648797988891602e-01
1.241565346717834473e-01 4.212593734264373779e-01 8.179178833961486816e-01
4.593073427677154541e-01 -2.868418097496032715e-01 -7.574506103992462158e-02
3.386236131191253662e-01 -8.398294448852539062e-02 -7.182548046112060547e-01
-8.153329491615295410e-01 6.311227101832628250e-03 -9.523989260196685791e-02
-1.122890040278434753e-01 -4.232044816017150879e-01 5.392264127731323242e-01
-4.346917569637298584e-01 -3.947275578975677490e-01 3.897504806518554688e-01
7.035531401634216309e-01 -2.518947720527648926e-01 -9.639606624841690063e-02
-1.005463674664497375e-01 -6.188661456108093262e-01 6.705064326524734497e-02
1.831264048814773560e-01 8.663666248321533203e-02 -8.218406438827514648e-01
-8.429802656173706055e-01 2.607173025608062744e-01 8.552137762308120728e-02
7.497982978820800781e-01 1.142693161964416504e-01 3.923996686935424805e-01
-1.923999190330505371e-01 6.948022842407226562e-01 6.825390458106994629e-01
5.977308154106140137e-01 -1.252828985452651978e-01 5.041760206222534180e-01
1.467725038528442383e-01 -2.868418097496032715e-01 -2.635824978351593018e-01
4.663865566253662109e-01 -3.959974050521850586e-01 -3.560209870338439941e-01
-2.298445254564285278e-01 2.903877757489681244e-03 7.888033986091613770e-01
3.389337658882141113e-01 -4.866577684879302979e-01 -3.417911529541015625e-01
1.583040654659271240e-01 -6.109443902969360352e-01 5.021318793296813965e-02
1.465622931718826294e-01 6.441926956176757812e-01 7.256714701652526855e-01
1.599151194095611572e-01 -5.066340565681457520e-01 4.110250473022460938e-01
3.738463222980499268e-01 5.104361176490783691e-01 -7.118484973907470703e-01
-7.009426951408386230e-01 6.952545642852783203e-01 8.031412214040756226e-02
4.840935468673706055e-01 -2.868418097496032715e-01 1.215722784399986267e-01
-6.486384868621826172e-01 6.334252953529357910e-01 -3.482543230056762695e-01
-5.550773739814758301e-01 -3.449260294437408447e-01 -3.088084161281585693e-01
-3.151599168777465820e-01 2.575460076332092285e-01 -7.901105880737304688e-01
-3.897398710250854492e-02 -2.868418097496032715e-01 -3.630708754062652588e-01
7.876158952713012695e-01 5.448291897773742676e-01 -4.155911132693290710e-02
-6.935810297727584839e-02 -2.868418097496032715e-01 8.766511827707290649e-02
9.702098369598388672e-02 -3.858804702758789062e-01 -5.863600373268127441e-01
-7.199643850326538086e-01 6.190954446792602539e-01 -1.864877790212631226e-01
-2.245900481939315796e-01 -2.868418097496032715e-01 1.471338123083114624e-01
-1.105263158679008484e-01 -7.206995505839586258e-03 -8.119098544120788574e-01
4.208797514438629150e-01 5.566554069519042969e-01 6.578356027603149414e-01
4.584751129150390625e-01 6.618109345436096191e-01 -5.665612816810607910e-01
6.936731338500976562e-01 3.371716439723968506e-01 -4.818308651447296143e-01
2.222061753273010254e-01 -2.868418097496032715e-01 -5.880555510520935059e-01
8.591434359550476074e-01 2.785643637180328369e-01 5.297145619988441467e-02
-6.630975008010864258e-01 2.992638153955340385e-03 -4.847695231437683105e-01
-5.124808549880981445e-01 -3.544872403144836426e-01 3.573845922946929932e-01
-9.527122974395751953e-02 -2.868418097496032715e-01 -4.083355665206909180e-01
-5.849913954734802246e-01 -1.974089536815881729e-03 -5.690932869911193848e-01
-7.885704636573791504e-01 3.775772750377655029e-01 2.541416585445404053e-01
-2.791549265384674072e-01 -2.868418097496032715e-01 4.266747236251831055e-01
6.797724366188049316e-01 5.750249028205871582e-01 3.684242069721221924e-01
9.068617224693298340e-02 -3.925702273845672607e-01 5.818582773208618164e-01
7.300804853439331055e-01 6.463662981986999512e-01 -1.374487280845642090e-01
6.599676012992858887e-01 7.000972628593444824e-01 -2.647774219512939453e-01
-2.112424075603485107e-01 -4.460461437702178955e-01 -4.833143949508666992e-01
-3.276942968368530273e-01 9.727222472429275513e-02 7.757779359817504883e-01
-1.178045049309730530e-01 -6.049446463584899902e-01 1.454469412565231323e-01
3.488654494285583496e-01 1.217861548066139221e-01 -7.703695297241210938e-01
2.757113873958587646e-01 -3.348806500434875488e-01 5.947131514549255371e-01
-4.055592119693756104e-01 5.687530040740966797e-01 -6.551263928413391113e-01
-7.468286156654357910e-02 -2.868418097496032715e-01 -2.149552553892135620e-01
-5.444349050521850586e-01 -2.868418097496032715e-01 -3.655744791030883789e-01
4.973205626010894775e-01 3.826272860169410706e-02 -6.747778058052062988e-01
5.467903614044189453e-01 -4.256012439727783203e-01 8.648740500211715698e-02
-3.580622971057891846e-01 4.929014444351196289e-01 -7.279952764511108398e-01
4.200940132141113281e-01 -4.795216917991638184e-01 -2.572321593761444092e-01
2.007032930850982666e-01 3.221560716629028320e-01 -8.210385441780090332e-01
-5.009673833847045898e-01 2.297394126653671265e-01 6.873972415924072266e-01
-1.354727149009704590e-01 -2.008466422557830811e-01 -7.292677760124206543e-01
7.754381895065307617e-01 1.252719014883041382e-01 3.433554768562316895e-01
-2.193330079317092896e-01 4.429224431514739990e-01 7.892875671386718750e-01
4.545043408870697021e-01 -3.806743025779724121e-01 3.944983780384063721e-01
-1.065717427991330624e-03 -5.598781108856201172e-01 -3.348282873630523682e-01
-7.040269970893859863e-01 -1.325240433216094971e-01 -3.200918436050415039e-01
7.128438353538513184e-02 -5.562157630920410156e-01 3.376650810241699219e-01
-5.306867882609367371e-02 -3.519164621829986572e-01 -6.284241676330566406e-01
-7.914746999740600586e-01 2.794141769409179688e-01 3.066155910491943359e-01
-2.721619307994842529e-01 -5.742493271827697754e-01 -1.331634968519210815e-01
6.710115075111389160e-01 5.122823715209960938e-01 -4.440519809722900391e-01
4.322915375232696533e-01 -2.868418097496032715e-01 3.327681422233581543e-01
6.640236377716064453e-01 1.743213683366775513e-01 -5.364965200424194336e-01
3.962589800357818604e-01 2.365877926349639893e-01 -7.529503107070922852e-01
8.130456209182739258e-01 3.035389073193073273e-02 1.811951845884323120e-01
-3.132344186305999756e-01 5.196019411087036133e-01 -7.354767918586730957e-01
6.464131474494934082e-01 5.517826080322265625e-01 4.540635347366333008e-01
4.388176500797271729e-01 -4.392532631754875183e-02 -6.817768812179565430e-01
6.021453142166137695e-01 5.394386649131774902e-01 -5.209907293319702148e-01
6.964067816734313965e-01 -2.664382159709930420e-01 -5.249190330505371094e-02
-4.816528782248497009e-02 4.421032071113586426e-01 -8.169136047363281250e-01
1.925911456346511841e-01 -5.445817708969116211e-01 3.124067783355712891e-01
7.450693845748901367e-01 2.075744569301605225e-01 -4.148633778095245361e-01
-1.153862569481134415e-02 -2.868418097496032715e-01 4.080071151256561279e-01
-9.193367511034011841e-02 1.122274994850158691e-01 -8.385956287384033203e-01
5.920920968055725098e-01 -3.860691785812377930e-01 8.421356976032257080e-02
3.453771173954010010e-01 -1.785408109426498413e-01 6.740676760673522949e-01
-5.340965986251831055e-01 -2.307451218366622925e-01 4.808535873889923096e-01
1.454104185104370117e-01 -2.868418097496032715e-01 4.793614447116851807e-01
-6.445005536079406738e-01 1.260946542024612427e-01 -5.399314165115356445e-01
-6.748607754707336426e-01 6.242733001708984375e-01 3.193687796592712402e-01
6.863406300544738770e-02 -6.067763566970825195e-01 1.693121343851089478e-01
5.306324362754821777e-01 4.275439307093620300e-03 -6.299421787261962891e-01
-8.396366834640502930e-01 1.966085731983184814e-01 -1.045185551047325134e-01
5.831994414329528809e-01 -3.949971795082092285e-01 -8.460863679647445679e-02
2.521873414516448975e-01 -5.020592808723449707e-01 3.730540573596954346e-01
-2.170387655496597290e-01 3.044745624065399170e-01 -8.195558786392211914e-01
-4.150282740592956543e-01 -4.871634542942047119e-01 2.309553176164627075e-01
-8.497294783592224121e-01 2.775591611862182617e-01 -2.661805972456932068e-02
-3.964321613311767578e-01 -3.399429321289062500e-01 5.059628486633300781e-01
-3.159671723842620850e-01 -2.868418097496032715e-01 3.117218613624572754e-01
2.409857809543609619e-01 -5.697529315948486328e-01 2.081429213285446167e-01
-4.107705950736999512e-01 -3.791704401373863220e-02 -6.926829814910888672e-01
-5.912417918443679810e-02 -3.656871318817138672e-01 6.157422065734863281e-01
-4.141538143157958984e-01 1.891108788549900055e-02 -7.124645113945007324e-01
-5.708510875701904297e-01 -1.217868104577064514e-01 5.316260457038879395e-01
1.177881136536598206e-01 -1.731976270675659180e-01 7.498114705085754395e-01
8.275735974311828613e-01 1.622741483151912689e-02 -3.814668580889701843e-02
-1.450236141681671143e-01 -2.868418097496032715e-01 4.458807408809661865e-01
-7.175736427307128906e-01 2.300111502408981323e-01 4.471876621246337891e-01
3.057804405689239502e-01 1.092956284992396832e-03 7.637277245521545410e-01
4.284637570381164551e-01 4.315356612205505371e-01 7.031373381614685059e-01
6.416066884994506836e-01 -3.062838912010192871e-01 2.150248140096664429e-01
-7.300063371658325195e-01 5.149213075637817383e-01 -3.214185833930969238e-01
-8.403500318527221680e-01 2.974202930927276611e-01 -1.125867664813995361e-01
-6.011897921562194824e-01 -3.717195391654968262e-01 8.223653584718704224e-02
8.403879404067993164e-01 1.326319277286529541e-01 1.226155906915664673e-01
4.687548577785491943e-01 -4.860968887805938721e-01 1.186818554997444153e-01
-4.846595227718353271e-01 -4.117315411567687988e-01 -2.838275432586669922e-01
-6.310081481933593750e-01 -3.358627855777740479e-01 -1.311854273080825806e-01
5.195634067058563232e-02 -2.868418097496032715e-01 -7.559541612863540649e-02
-3.748354017734527588e-01 6.635270714759826660e-01 6.199533343315124512e-01
-2.806591689586639404e-01 -2.868418097496032715e-01 3.670043945312500000e-01
-5.099911242723464966e-02 -6.141914725303649902e-01 1.360287219285964966e-01
3.483270108699798584e-01 -2.915836572647094727e-01 5.847625136375427246e-01
7.521786689758300781e-01 2.723301053047180176e-01 -4.101275503635406494e-01
-3.387778401374816895e-01 9.421895956620573997e-04 -7.502347826957702637e-01
5.505104660987854004e-01 -3.719676733016967773e-01 2.675323486328125000e-01
-7.072542905807495117e-01 5.392085909843444824e-01 3.508895039558410645e-01
5.998906120657920837e-02 6.911141276359558105e-01 7.083814144134521484e-01
-5.078235641121864319e-02 7.448998838663101196e-02 8.446329832077026367e-01
3.209915757179260254e-01 -2.868418097496032715e-01 2.990694642066955566e-01
-3.598111867904663086e-01 -5.252637267112731934e-01 -1.725646257400512695e-01
-3.878754973411560059e-01 -4.862140715122222900e-01 -2.806381583213806152e-01
6.433823108673095703e-01 2.168510109186172485e-01 5.572599172592163086e-01
-5.385248661041259766e-01 -2.868418097496032715e-01 2.722475230693817139e-01
1.362144649028778076e-01 -4.816748946905136108e-02 -7.933473587036132812e-01
-3.939397633075714111e-01 5.679293870925903320e-01 6.648252010345458984e-01
-2.344087697565555573e-03 -6.122505068778991699e-01 -1.550454497337341309e-01
3.185775876045227051e-01 -5.207027196884155273e-01 2.656051218509674072e-01
6.504089236259460449e-01 8.465429395437240601e-02 -5.488620400428771973e-01
4.142089486122131348e-01 -5.152466297149658203e-01 1.005828678607940674e-01
-6.474539041519165039e-01 5.036584734916687012e-01 -4.802637398242950439e-01
6.570177078247070312e-01 6.641439199447631836e-01 3.131864666938781738e-01
-5.239245295524597168e-01 -2.868418097496032715e-01 -2.073109149932861328e-01
-7.947837710380554199e-01 3.718696534633636475e-01 -2.508611679077148438e-01
-4.340111315250396729e-01 -1.006630063056945801e-01 6.596267223358154297e-01
4.569803774356842041e-01 1.323131620883941650e-01 -7.158873677253723145e-01
7.539896368980407715e-01 3.709538578987121582e-01 -3.757603168487548828e-01
1.194922104477882385e-01 -8.420349657535552979e-02 7.869769334793090820e-01
5.275791883468627930e-01 -4.272614419460296631e-01 1.679810732603073120e-01
3.550710678100585938e-01 7.566478569060564041e-03 -7.432038187980651855e-01
2.108753770589828491e-01 3.079046607017517090e-01 8.235152363777160645e-01
-4.710628986358642578e-01 2.887378633022308350e-02 6.872584819793701172e-01
1.711312867701053619e-02 -2.054351419210433960e-01 7.341480255126953125e-01
7.795468568801879883e-01 -1.257429420948028564e-01 -7.470536977052688599e-02
-6.520836949348449707e-01 -2.868418097496032715e-01 9.112845361232757568e-02
5.107147693634033203e-01 -3.851016759872436523e-01 -3.099378645420074463e-01
3.551494479179382324e-01 -5.462797284126281738e-01 -8.852169662714004517e-02
-6.937274336814880371e-01 3.852156102657318115e-01 4.508362114429473877e-01
-8.051617741584777832e-01 -2.769414894282817841e-02 4.124580323696136475e-02
8.116663098335266113e-01 3.853232860565185547e-01 1.954302191734313965e-01
7.925541698932647705e-02 -2.868418097496032715e-01 6.367582678794860840e-01
6.170651912689208984e-01 -1.035715043544769287e-01 -4.983066916465759277e-01
9.043546020984649658e-02 -5.358552932739257812e-01 -3.718602061271667480e-01
-4.920075237751007080e-01 -2.302825003862380981e-01 5.191605687141418457e-01
-5.558769106864929199e-01 3.786929845809936523e-01 6.155914068222045898e-01
7.544780969619750977e-01 3.693746924400329590e-01 3.642759323120117188e-01
-1.323858648538589478e-01 6.026471853256225586e-01 -7.491337060928344727e-01
-1.100335195660591125e-01 4.097654297947883606e-02 8.269062042236328125e-01
4.555028676986694336e-01 -2.868418097496032715e-01 -3.491468727588653564e-01
2.571945786476135254e-01 -5.292421579360961914e-01 3.062968254089355469e-01
7.173445224761962891e-01 2.583189010620117188e-01 -4.624326825141906738e-01
-1.561976373195648193e-01 9.348150342702865601e-02 8.263617157936096191e-01
8.919692784547805786e-02 -5.929771661758422852e-01 2.307752668857574463e-01
7.666342854499816895e-01 5.307432413101196289e-01 2.208926975727081299e-01
-6.394769549369812012e-01 -8.701466023921966553e-02 4.614743590354919434e-01
-7.960546016693115234e-01 5.946801509708166122e-03 -1.853324770927429199e-01
-2.992405891418457031e-01 -5.286762118339538574e-01 -2.547294199466705322e-01
5.630585178732872009e-02 5.313393473625183105e-01 7.900017499923706055e-01
-5.927581340074539185e-02 5.077602267265319824e-01 8.080627918243408203e-01
7.116549611091613770e-01 6.663020849227905273e-01 1.477515250444412231e-01
3.907184898853302002e-01 5.292536020278930664e-01 6.940464973449707031e-01
2.933753132820129395e-01 -5.826612710952758789e-01 -2.045778743922710419e-02
-5.780086517333984375e-01 4.140363037586212158e-01 5.855594277381896973e-01
-3.227775394916534424e-01 -4.700681865215301514e-01 3.781017661094665527e-01
6.386895775794982910e-01 6.977828592061996460e-02 5.509862899780273438e-01
-4.875990748405456543e-01 -6.032537296414375305e-02 -6.341326832771301270e-01
2.546056807041168213e-01 1.129081025719642639e-01 -8.080449700355529785e-01
5.396921932697296143e-02 -1.160171553492546082e-01 7.800709605216979980e-01
-2.329623848199844360e-01 1.885546743869781494e-01 8.151187896728515625e-01
-1.648706495761871338e-01 4.222690463066101074e-01 -8.102023005485534668e-01
2.090041190385818481e-01 2.010369300842285156e-01 8.242113590240478516e-01
-5.535671114921569824e-01 -2.868418097496032715e-01 6.026317924261093140e-02
-7.801188230514526367e-01 -9.063564985990524292e-02 1.291183978319168091e-01
6.563905477523803711e-01 2.641410231590270996e-01 -5.568716526031494141e-01
-5.856065154075622559e-01 -2.791845500469207764e-01 3.516106009483337402e-01
1.282022595405578613e-01 -2.589894533157348633e-01 -6.881961226463317871e-01
-3.997006919234991074e-03 1.118923649191856384e-01 -8.431780934333801270e-01
-3.462516069412231445e-01 3.168697357177734375e-01 -7.748176455497741699e-01
2.675363421440124512e-01 -2.868418097496032715e-01 -3.248879611492156982e-01
-4.898751974105834961e-01 2.130784653127193451e-02 -6.642267107963562012e-01
-3.063568174839019775e-01 -2.868418097496032715e-01 5.597093105316162109e-01
-9.510495513677597046e-02 -6.206537485122680664e-01 -6.043028086423873901e-02
-7.278508543968200684e-01 6.007251143455505371e-01 1.950304657220840454e-01
-8.176935315132141113e-01 1.195703074336051941e-01 -1.883590221405029297e-01
-2.307499647140502930e-01 -2.868418097496032715e-01 4.108415246009826660e-01
-3.178074061870574951e-01 -2.868418097496032715e-01 2.400970011949539185e-01
-7.580482363700866699e-01 3.957741707563400269e-02 -3.370398283004760742e-01
-4.634469747543334961e-01 -2.868418097496032715e-01 4.536198079586029053e-01
1.839707046747207642e-01 -6.068486571311950684e-01 -1.658383943140506744e-02
-3.604849278926849365e-01 -3.372773826122283936e-01 5.403180122375488281e-01
1.003697440028190613e-01 -6.191849112510681152e-01 -7.674977928400039673e-02
-7.487618327140808105e-01 4.864202141761779785e-01 3.018814921379089355e-01
-2.094478309154510498e-01 -1.750102788209915161e-01 -7.228519916534423828e-01
-1.478321999311447144e-01 -3.150447905063629150e-01 6.452934741973876953e-01
-5.554780364036560059e-01 4.662213101983070374e-02 6.189849376678466797e-01
3.036576509475708008e-01 -2.868418097496032715e-01 -1.818622350692749023e-01
1.636764965951442719e-02 -5.827215313911437988e-01 -2.909187674522399902e-01
2.284445166587829590e-01 -4.089220464229583740e-01 -5.223804116249084473e-01
7.095468044281005859e-01 6.974239349365234375e-01 -4.732514545321464539e-02
7.327408790588378906e-01 1.700538396835327148e-02 -3.919699788093566895e-01
2.507977187633514404e-01 -2.868418097496032715e-01 -4.444586336612701416e-01
7.858894467353820801e-01 -1.255646049976348877e-01 4.547159746289253235e-02
8.408178687095642090e-01 2.816171944141387939e-01 1.580312848091125488e-01
2.184128761291503906e-01 1.140289604663848877e-01 8.163766264915466309e-01
-1.036806683987379074e-02 -2.868418097496032715e-01 2.371729910373687744e-01
3.206762671470642090e-01 8.324052393436431885e-02 -7.824748754501342773e-01
-8.175772428512573242e-01 2.789164520800113678e-02 1.490386575460433960e-01
2.072810679674148560e-01 -1.638055779039859772e-02 7.897648215293884277e-01
-2.937500774860382080e-01 -2.868418097496032715e-01 5.851040035486221313e-02
-8.719009906053543091e-02 2.147126346826553345e-01 8.475121855735778809e-01
1.762634664773941040e-01 -1.715357303619384766e-01 7.387236356735229492e-01
-6.538154929876327515e-02 -2.868418097496032715e-01 -8.259085565805435181e-02
-5.495911836624145508e-01 5.563590526580810547e-01 5.496638417243957520e-01
-3.848463296890258789e-01 1.943064033985137939e-01 -7.571218013763427734e-01
1.177821028977632523e-02 -4.073505997657775879e-01 -5.702598094940185547e-01
-3.089371025562286377e-01 5.922657847404479980e-01 6.942428946495056152e-01
2.814741432666778564e-01 -2.868418097496032715e-01 2.429805397987365723e-01
8.207123875617980957e-01 3.786283731460571289e-01 -1.789356321096420288e-01
5.112376809120178223e-01 -4.715089499950408936e-02 6.291949748992919922e-01
8.311351537704467773e-01 1.514334082603454590e-01 -1.873398423194885254e-01
7.685451507568359375e-01 4.304820299148559570e-01 -3.038951158523559570e-01
1.463529318571090698e-01 5.431730672717094421e-02 -8.251782059669494629e-01
6.883988976478576660e-01 8.558093570172786713e-03 4.673508703708648682e-01
1.295600235462188721e-01 -3.848763182759284973e-03 8.125522732734680176e-01
1.523448675870895386e-01 -1.707431226968765259e-01 -7.415591478347778320e-01
-6.652797460556030273e-01 5.455158352851867676e-01 4.096431434154510498e-01
-6.373455524444580078e-01 3.002298176288604736e-01 -5.560411810874938965e-01
-4.281941056251525879e-01 6.320046186447143555e-01 -6.020484566688537598e-01
7.571212649345397949e-01 -3.494217619299888611e-02 -2.963248491287231445e-01
-7.744043469429016113e-01 5.460775494575500488e-01 -1.091423779726028442e-01
6.430634856224060059e-02 5.476963520050048828e-01 -7.874269485473632812e-01
-7.711340188980102539e-01 -1.420404762029647827e-01 -1.829724758863449097e-02
-1.935656182467937469e-02 -2.868418097496032715e-01 -2.550395727157592773e-01
-5.947757363319396973e-01 6.258757710456848145e-01 -4.460515975952148438e-01
4.813461005687713623e-01 2.223958224058151245e-01 7.015323042869567871e-01
2.093590795993804932e-01 -2.214699387550354004e-01 -6.958094835281372070e-01
5.215148925781250000e-01 5.414873361587524414e-01 -5.922003388404846191e-01
3.006741032004356384e-02 -2.868418097496032715e-01 -3.608162701129913330e-01
-3.566743731498718262e-01 -5.618488416075706482e-02 7.152331471443176270e-01
-5.258086919784545898e-01 4.697435796260833740e-01 6.166493892669677734e-01
2.681575119495391846e-01 -2.868418097496032715e-01 4.012871980667114258e-01
7.743992209434509277e-01 5.087578892707824707e-01 -2.277032881975173950e-01
-3.408636152744293213e-01 -4.778873920440673828e-01 -3.505916595458984375e-01
-2.669979333877563477e-01 -3.418184816837310791e-01 -5.867305397987365723e-01
7.780590057373046875e-01 5.701814293861389160e-01 2.274931222200393677e-02
4.371057748794555664e-01 -4.445849955081939697e-01 -3.021754920482635498e-01
-7.422116398811340332e-01 -7.816591858863830566e-02 2.723750174045562744e-01
6.104469895362854004e-01 2.047762125730514526e-01 5.928901433944702148e-01
4.244093224406242371e-02 -2.983405888080596924e-01 6.725022196769714355e-01
3.625542819499969482e-01 -4.763340353965759277e-01 3.380811810493469238e-01
-3.539846837520599365e-01 5.186447501182556152e-01 7.133395671844482422e-01
-1.287717670202255249e-01 -5.855749249458312988e-01 2.472433745861053467e-01
8.059983253479003906e-01 7.638620585203170776e-02 -2.520319819450378418e-01
-1.785802096128463745e-02 5.315332412719726562e-01 7.937813401222229004e-01
7.689819335937500000e-01 -4.140966385602951050e-02 2.735337615013122559e-01
-2.521718740463256836e-01 -2.157975882291793823e-01 -6.811686754226684570e-01
3.659831583499908447e-01 -3.295150101184844971e-01 -5.487190485000610352e-01
2.652576267719268799e-01 6.787605881690979004e-01 -6.710388064384460449e-01
-3.238269090652465820e-01 6.328825354576110840e-01 6.634544730186462402e-01
-2.277682423591613770e-01 6.210408806800842285e-01 7.133972644805908203e-01
3.445767760276794434e-01 -5.436391830444335938e-01 1.389639377593994141e-01
-6.339460015296936035e-01 -2.700006663799285889e-01 -2.719616889953613281e-01
4.131819903850555420e-01 2.949905395507812500e-01 -7.452258467674255371e-01
-6.781054288148880005e-02 -5.072878599166870117e-01 -4.345225989818572998e-01
-5.351691842079162598e-01 6.955578327178955078e-01 -4.592450261116027832e-01
3.943015933036804199e-01 5.991864800453186035e-01 6.492848992347717285e-01
-5.261360406875610352e-01 -7.535560429096221924e-02 -5.988771915435791016e-01
2.666567265987396240e-01 4.623326957225799561e-01 -7.765811681747436523e-01
-3.117249906063079834e-01 -5.187884569168090820e-01 2.745055854320526123e-01
2.476668730378150940e-02 -2.868418097496032715e-01 -1.959714740514755249e-01
-5.797403454780578613e-01 -2.528441548347473145e-01 -4.023014307022094727e-01
-1.097035557031631470e-01 -6.055883169174194336e-01 -1.484969854354858398e-01
1.300330162048339844e-01 5.581888556480407715e-01 -7.684526443481445312e-01
5.974137783050537109e-01 1.263953298330307007e-01 -6.003417968750000000e-01
7.786094546318054199e-01 -1.403449922800064087e-01 -1.930772443301975727e-03
-7.749376296997070312e-01 -1.500899530947208405e-02 2.379397302865982056e-01
2.322697043418884277e-01 -1.251898407936096191e-01 -7.473787665367126465e-01
6.495043635368347168e-01 -3.363107740879058838e-01 -6.288865208625793457e-02
6.474771499633789062e-01 -2.719856202602386475e-01 -2.543986141681671143e-01
7.105048298835754395e-01 5.418635159730911255e-02 -4.483647942543029785e-01
