1.314262002706527710e-01 -2.178811877965927124e-01 -4.613551497459411621e-01
-2.114007771015167236e-01 -5.739400908350944519e-02 3.605474904179573059e-02
-3.165558278560638428e-01 5.964950844645500183e-02 -4.511291086673736572e-01
1.408527642488479614e-01 -5.739400908350944519e-02 -3.558802902698516846e-01
-6.338544934988021851e-02 -2.178811877965927124e-01 3.366725146770477295e-01
3.739806413650512695e-01 -2.178811877965927124e-01 1.732170134782791138e-01
-9.095702320337295532e-02 1.985956281423568726e-01 -6.892698407173156738e-01
-2.395413368940353394e-01 -5.739400908350944519e-02 4.571138024330139160e-01
-3.023898005485534668e-01 4.563765600323677063e-02 2.227374538779258728e-02
3.336114883422851562e-01 -2.178811877965927124e-01 -5.620056390762329102e-01
3.823985457420349121e-01 -2.862164936959743500e-02 2.056815177202224731e-01
1.115682944655418396e-01 3.271334245800971985e-02 2.037174254655838013e-01
1.707294285297393799e-01 1.473460793495178223e-01 -3.328789174556732178e-01
6.620860844850540161e-02 2.801541388034820557e-01 4.783692657947540283e-01
-2.629266679286956787e-01 5.195082724094390869e-02 9.003750979900360107e-02
-5.794409196823835373e-03 -5.739400908350944519e-02 -4.719571769237518311e-01
1.726372390985488892e-01 1.593076437711715698e-02 -5.762329101562500000e-01
-1.738747395575046539e-02 -1.657789200544357300e-01 -8.653270602226257324e-01
9.898556396365165710e-03 4.479083046317100525e-02 -5.531672835350036621e-01
-1.962852776050567627e-01 -2.178811877965927124e-01 5.450836420059204102e-01
1.017439737915992737e-01 1.985956281423568726e-01 -8.022269010543823242e-01
3.684920966625213623e-01 -2.178811877965927124e-01 -1.097706984728574753e-02
1.491561681032180786e-01 4.233530163764953613e-01 3.446936607360839844e-01
2.030498236417770386e-01 -2.178811877965927124e-01 -7.024124264717102051e-01
1.207720022648572922e-02 -5.739400908350944519e-02 -8.184912055730819702e-02
1.707294285297393799e-01 2.702863514423370361e-01 -2.252623736858367920e-01
3.385710418224334717e-01 1.985956281423568726e-01 7.632677555084228516e-01
-4.185565114021301270e-01 -1.041760221123695374e-01 7.003739476203918457e-01
3.237121403217315674e-01 -2.178811877965927124e-01 -1.664684116840362549e-01
-2.601029276847839355e-01 -2.178811877965927124e-01 -3.225828111171722412e-01
2.889252901077270508e-01 -2.178811877965927124e-01 7.562049627304077148e-01
-2.510908842086791992e-01 8.896960318088531494e-02 -6.497820615768432617e-01
6.620860844850540161e-02 3.952509462833404541e-01 -5.676294565200805664e-01
-2.332878708839416504e-01 -5.739400908350944519e-02 2.874827980995178223e-01
-1.939333230257034302e-01 -1.684117317199707031e-02 8.793298602104187012e-01
3.823985457420349121e-01 -4.455783590674400330e-02 -5.108982324600219727e-01
6.752285175025463104e-03 -2.178811877965927124e-01 8.723766803741455078e-01
-4.185565114021301270e-01 -4.268521443009376526e-03 -3.278690278530120850e-01
-8.418984711170196533e-02 -2.178811877965927124e-01 -9.484083205461502075e-02
-2.740064561367034912e-01 6.014803051948547363e-02 4.674108922481536865e-01
-4.185565114021301270e-01 -1.582808792591094971e-01 3.648515939712524414e-01
2.681366801261901855e-01 1.985956281423568726e-01 1.595188230276107788e-01
1.463028192520141602e-01 2.853031754493713379e-01 -6.404946446418762207e-01
3.823985457420349121e-01 -1.756022423505783081e-01 7.786241173744201660e-01
-4.162440299987792969e-01 1.985956281423568726e-01 8.724783062934875488e-01
1.276589184999465942e-01 -2.178811877965927124e-01 -9.993361681699752808e-02
1.707294285297393799e-01 4.042659401893615723e-01 -4.194739162921905518e-01
2.194256633520126343e-01 1.985956281423568726e-01 -2.888372242450714111e-01
-5.659498274326324463e-02 4.479083046317100525e-02 -3.187424838542938232e-01
-1.522682607173919678e-01 -2.044307440519332886e-01 -8.653270602226257324e-01
-2.182612121105194092e-01 5.929094180464744568e-02 2.043520510196685791e-01
-6.143677607178688049e-02 -2.178811877965927124e-01 2.084697037935256958e-01
-3.321539461612701416e-01 1.162835303694009781e-02 -6.497820615768432617e-01
-4.185565114021301270e-01 -2.465123683214187622e-02 8.311241269111633301e-01
1.546814199537038803e-02 1.985956281423568726e-01 8.412633538246154785e-01
-3.097970187664031982e-01 -2.377144806087017059e-02 6.771879792213439941e-01
3.823985457420349121e-01 -6.306029390543699265e-03 1.445632129907608032e-01
1.726372390985488892e-01 9.878406673669815063e-02 3.754832446575164795e-01
3.823985457420349121e-01 -1.025520563125610352e-01 -5.836400985717773438e-01
-4.185565114021301270e-01 -7.607355713844299316e-02 -4.489982128143310547e-01
-1.860079318284988403e-01 5.523113161325454712e-02 5.583653450012207031e-01
3.562871813774108887e-01 -2.178811877965927124e-01 -3.005387783050537109e-01
2.369049489498138428e-01 -2.178811877965927124e-01 -8.314146995544433594e-01
2.565062046051025391e-01 1.985956281423568726e-01 -5.341582298278808594e-01
-3.561511635780334473e-01 -1.137771010398864746e-01 8.793298602104187012e-01
-7.841093093156814575e-02 -5.739400908350944519e-02 -2.517211437225341797e-01
1.109909117221832275e-01 -4.339093714952468872e-02 -6.497820615768432617e-01
1.707294285297393799e-01 3.870117068290710449e-01 3.270032256841659546e-02
3.383341729640960693e-01 1.985956281423568726e-01 -7.639580368995666504e-01
2.387664020061492920e-01 1.985956281423568726e-01 3.505246937274932861e-01
1.707294285297393799e-01 1.685748845338821411e-01 -3.774931188672780991e-03
1.726372390985488892e-01 1.876580119132995605e-01 6.404982209205627441e-01
-4.185565114021301270e-01 1.843940913677215576e-01 7.064279913902282715e-01
3.823985457420349121e-01 -3.719097003340721130e-02 -1.985489726066589355e-01
-4.185565114021301270e-01 3.458188101649284363e-02 6.077544093132019043e-01
-3.571638166904449463e-01 1.985956281423568726e-01 -7.353348135948181152e-01
3.745234906673431396e-01 -1.320185214281082153e-01 -8.653270602226257324e-01
-4.185565114021301270e-01 -1.177464704960584641e-02 -1.209146752953529358e-01
-8.713240921497344971e-02 -2.178811877965927124e-01 -2.132124304771423340e-01
6.620860844850540161e-02 3.221182227134704590e-01 2.194280624389648438e-01
-1.618557274341583252e-01 -2.178811877965927124e-01 -8.757730573415756226e-02
-4.185565114021301270e-01 -2.438504248857498169e-01 8.011744618415832520e-01
-3.579948544502258301e-01 -5.739400908350944519e-02 -3.293198943138122559e-01
1.726372390985488892e-01 -2.572576329112052917e-02 -1.403116583824157715e-01
3.502609580755233765e-02 -2.178811877965927124e-01 4.911485612392425537e-01
-3.358383178710937500e-01 -5.739400908350944519e-02 5.928157269954681396e-02
-1.819031089544296265e-01 -2.178811877965927124e-01 2.227531820535659790e-01
6.620860844850540161e-02 1.733113676309585571e-01 -2.022254467010498047e-01
-5.413229018449783325e-02 -2.178811877965927124e-01 -4.228700995445251465e-01
2.547484338283538818e-01 1.985956281423568726e-01 4.635765254497528076e-01
6.620860844850540161e-02 2.203100174665451050e-01 -5.911973714828491211e-01
1.707294285297393799e-01 1.574566364288330078e-01 -4.325582087039947510e-01
6.968561559915542603e-02 -2.095801057294011116e-03 -3.288382291793823242e-01
3.823985457420349121e-01 -4.137316718697547913e-02 -3.698153793811798096e-01
-2.278851866722106934e-01 -5.739400908350944519e-02 -7.490062713623046875e-02
6.620860844850540161e-02 3.867738246917724609e-01 4.074444174766540527e-01
1.075051166117191315e-02 9.886696934700012207e-02 -8.653270602226257324e-01
3.823985457420349121e-01 1.393397599458694458e-01 -3.289093077182769775e-01
-1.086175218224525452e-01 1.985956281423568726e-01 -7.617096900939941406e-01
1.689765453338623047e-01 -5.739400908350944519e-02 6.423488259315490723e-01
-2.808264195919036865e-01 -5.739400908350944519e-02 -1.539812386035919189e-01
2.901304066181182861e-01 -2.178811877965927124e-01 -5.202300548553466797e-01
-4.185565114021301270e-01 -5.973678082227706909e-02 3.132783472537994385e-01
3.823985457420349121e-01 -1.133400648832321167e-01 6.319461464881896973e-01
-2.302785962820053101e-01 1.985956281423568726e-01 -7.760306596755981445e-01
3.823985457420349121e-01 -1.731358021497726440e-01 3.764386475086212158e-01
-3.289719223976135254e-01 -2.178811877965927124e-01 -6.068853139877319336e-01
2.788858413696289062e-01 1.985956281423568726e-01 -3.910185098648071289e-01
6.620860844850540161e-02 9.847317636013031006e-02 -8.924055099487304688e-02
-3.889838159084320068e-01 6.221336871385574341e-02 2.984766960144042969e-01
-2.045788019895553589e-01 -2.178811877965927124e-01 -3.044846951961517334e-01
1.244522333145141602e-01 3.186356276273727417e-02 4.982468485832214355e-01
1.284881494939327240e-02 1.985956281423568726e-01 6.774712800979614258e-01
-1.848275214433670044e-01 -2.178811877965927124e-01 6.700906753540039062e-01
-4.014472961425781250e-01 -5.739400908350944519e-02 4.377977848052978516e-01
3.823985457420349121e-01 1.421042680740356445e-01 1.309262216091156006e-01
7.900627329945564270e-03 6.016273796558380127e-02 2.238072603940963745e-01
-2.402608394622802734e-01 6.231019645929336548e-02 3.093067705631256104e-01
1.726372390985488892e-01 1.150010228157043457e-01 1.836197078227996826e-01
-2.093202173709869385e-01 4.479083046317100525e-02 -4.859652817249298096e-01
7.990628946572542191e-04 -2.178811877965927124e-01 6.655880808830261230e-01
-1.766306906938552856e-01 4.914743080735206604e-02 -6.056860685348510742e-01
-2.929612398147583008e-01 1.205626055598258972e-01 -8.653270602226257324e-01
-6.168815493583679199e-02 -5.739400908350944519e-02 -4.013866484165191650e-01
-4.185565114021301270e-01 -1.758223325014114380e-01 -7.316859960556030273e-01
-2.711293995380401611e-01 -2.178811877965927124e-01 3.816143572330474854e-01
-4.185565114021301270e-01 -1.044806912541389465e-01 6.150066852569580078e-01
-4.744219034910202026e-02 -2.178811877965927124e-01 -6.035541892051696777e-01
-1.373166143894195557e-01 7.124357670545578003e-02 -8.653270602226257324e-01
3.823985457420349121e-01 1.765979826450347900e-01 7.408230900764465332e-01
-1.720205545425415039e-01 4.479083046317100525e-02 -6.475633382797241211e-02
-3.431300520896911621e-01 -2.178811877965927124e-01 -3.338540494441986084e-01
-1.088339835405349731e-02 4.669381678104400635e-02 3.296424075961112976e-02
2.293111830949783325e-01 -2.178811877965927124e-01 3.824690878391265869e-01
-4.185565114021301270e-01 5.724909156560897827e-02 -6.582878232002258301e-01
-3.833146393299102783e-01 -2.608618736267089844e-01 -8.572990298271179199e-01
3.823985457420349121e-01 4.308475553989410400e-02 -7.140330076217651367e-01
-1.458223462104797363e-01 1.109208762645721436e-01 6.771879792213439941e-01
-3.725911974906921387e-01 4.479083046317100525e-02 -7.247988134622573853e-02
3.344504237174987793e-01 1.028079614043235779e-01 -8.653270602226257324e-01
-2.988552488386631012e-02 -2.178811877965927124e-01 8.851718902587890625e-02
1.448884904384613037e-01 9.533460438251495361e-02 -6.469761133193969727e-01
1.726372390985488892e-01 -3.424577787518501282e-02 -4.524575471878051758e-01
1.516857743263244629e-01 2.976663969457149506e-02 8.793298602104187012e-01
3.823985457420349121e-01 1.620095521211624146e-01 3.142633140087127686e-01
1.764449775218963623e-01 -2.178811877965927124e-01 6.053008437156677246e-01
2.379284501075744629e-01 -4.483882710337638855e-02 -8.653270602226257324e-01
-1.722654886543750763e-02 1.145943850278854370e-01 8.793298602104187012e-01
6.620860844850540161e-02 2.137130945920944214e-01 -3.237839639186859131e-01
6.840541213750839233e-02 -2.178811877965927124e-01 -2.474100291728973389e-01
-1.379887461662292480e-01 6.262947618961334229e-02 -3.175976276397705078e-01
1.707294285297393799e-01 3.475031852722167969e-01 1.627945750951766968e-01
1.707294285297393799e-01 2.286272346973419189e-01 2.350143343210220337e-01
1.242291927337646484e-01 1.312223542481660843e-02 6.771879792213439941e-01
-3.340351283550262451e-01 5.285292118787765503e-02 5.896878838539123535e-01
-4.015657603740692139e-01 6.215998157858848572e-02 3.983800709247589111e-01
6.620860844850540161e-02 1.610413193702697754e-01 2.914257645606994629e-01
-3.359429240226745605e-01 -2.178811877965927124e-01 -7.233687639236450195e-01
7.232300937175750732e-02 5.907469615340232849e-02 -4.639548063278198242e-01
-1.934218779206275940e-02 5.379597470164299011e-02 1.128735020756721497e-01
-1.616399921476840973e-02 4.479083046317100525e-02 -3.496780991554260254e-02
1.697513312101364136e-01 -2.178811877965927124e-01 -3.496021628379821777e-01
7.428382337093353271e-02 -5.739400908350944519e-02 3.091547489166259766e-01
8.176270872354507446e-02 4.628441855311393738e-02 -2.425047755241394043e-01
-3.474895358085632324e-01 -5.739400908350944519e-02 6.651962399482727051e-01
1.680349707603454590e-01 1.667252928018569946e-01 -8.653270602226257324e-01
-6.681182235479354858e-02 -5.739400908350944519e-02 4.189268648624420166e-01
-2.637803182005882263e-02 2.391912229359149933e-02 8.793298602104187012e-01
-9.248732775449752808e-02 5.884986370801925659e-02 -1.671079546213150024e-01
-2.347387224435806274e-01 1.796960979700088501e-01 8.793298602104187012e-01
-1.091283857822418213e-01 -5.739400908350944519e-02 5.892467498779296875e-01
-2.518666386604309082e-01 4.479083046317100525e-02 -1.895645558834075928e-01
-2.319110482931137085e-01 9.322740882635116577e-02 8.793298602104187012e-01
1.707294285297393799e-01 5.513687431812286377e-02 -9.268322959542274475e-03
3.063592016696929932e-01 -2.178811877965927124e-01 8.660797476768493652e-01
9.002958983182907104e-02 4.233530163764953613e-01 -3.323282003402709961e-01
-3.253754079341888428e-01 1.842361688613891602e-01 6.771879792213439941e-01
2.484961599111557007e-02 6.241746991872787476e-02 3.213053643703460693e-01
3.511292636394500732e-01 1.985956281423568726e-01 -5.686657428741455078e-01
2.321803122758865356e-01 -2.178811877965927124e-01 4.497323185205459595e-02
3.823985457420349121e-01 -1.167058711871504784e-03 8.318456411361694336e-01
1.944108456373214722e-01 6.140395253896713257e-02 8.793298602104187012e-01
6.620860844850540161e-02 1.699971109628677368e-01 8.331732451915740967e-02
-3.257840275764465332e-01 -2.178811877965927124e-01 6.299534440040588379e-01
2.478336840867996216e-01 1.985956281423568726e-01 -6.211706623435020447e-02
3.823985457420349121e-01 -2.664229460060596466e-02 -7.634803056716918945e-01
6.620860844850540161e-02 4.153111577033996582e-01 1.623232848942279816e-02
-1.104388944804668427e-02 -1.478941761888563633e-03 6.771879792213439941e-01
6.620860844850540161e-02 3.197041153907775879e-01 -1.474997848272323608e-01
-4.185565114021301270e-01 1.325819641351699829e-01 -6.528219580650329590e-01
-3.748947978019714355e-01 -5.739400908350944519e-02 -4.789627194404602051e-01
-1.472564190626144409e-01 -5.739400908350944519e-02 -1.865987032651901245e-01
-4.185565114021301270e-01 -1.093664169311523438e-01 -7.381635308265686035e-01
-2.309625595808029175e-01 -2.178811877965927124e-01 8.421210050582885742e-01
3.823985457420349121e-01 -1.117789745330810547e-01 -6.777844429016113281e-01
-7.751830667257308960e-02 -2.178811877965927124e-01 4.051753580570220947e-01
1.668891012668609619e-01 -2.178811877965927124e-01 2.487391978502273560e-01
2.550839781761169434e-01 1.985956281423568726e-01 6.784276366233825684e-01
3.823985457420349121e-01 -1.452553831040859222e-02 -1.292417794466018677e-01
-9.932212531566619873e-03 4.479083046317100525e-02 -4.721743166446685791e-01
-6.443499773740768433e-02 -5.739400908350944519e-02 1.034463346004486084e-01
2.765587344765663147e-02 -2.178811877965927124e-01 -5.122237205505371094e-01
9.865375608205795288e-02 -2.178811877965927124e-01 6.417537480592727661e-02
-2.419185638427734375e-02 -5.739400908350944519e-02 -1.954035013914108276e-01
1.726372390985488892e-01 1.079086288809776306e-01 -1.974030882120132446e-01
2.125819921493530273e-01 -2.178811877965927124e-01 -5.417164564132690430e-01
5.202896893024444580e-02 -1.313207298517227173e-01 8.793298602104187012e-01
1.726372390985488892e-01 -2.437833696603775024e-02 4.278421700000762939e-01
7.357537001371383667e-02 1.985956281423568726e-01 -7.067905664443969727e-01
-4.185565114021301270e-01 -1.672613471746444702e-01 -4.123894274234771729e-01
2.852912843227386475e-01 1.985956281423568726e-01 -2.148655951023101807e-01
1.726372390985488892e-01 9.560996294021606445e-02 6.021938920021057129e-01
3.823985457420349121e-01 1.976293921470642090e-01 2.245613038539886475e-01
-3.730432093143463135e-01 3.930632397532463074e-02 8.793298602104187012e-01
6.713064014911651611e-02 1.985956281423568726e-01 7.957904934883117676e-01
-4.143124818801879883e-01 -5.739400908350944519e-02 1.668786853551864624e-01
1.726372390985488892e-01 9.245362877845764160e-02 4.601221084594726562e-01
-1.874725967645645142e-01 -5.739400908350944519e-02 -6.199439167976379395e-01
-3.684488832950592041e-01 5.683288723230361938e-02 -5.054441690444946289e-01
1.707294285297393799e-01 2.398708164691925049e-01 4.404468834400177002e-02
1.707294285297393799e-01 3.483036160469055176e-01 -1.411673575639724731e-01
-1.904611587524414062e-01 -5.739400908350944519e-02 -4.652368724346160889e-01
-5.327964201569557190e-02 1.985956281423568726e-01 7.558032870292663574e-01
6.620860844850540161e-02 1.146891266107559204e-01 -4.550503492355346680e-01
-2.555757164955139160e-01 -5.739400908350944519e-02 3.602078855037689209e-01
1.726372390985488892e-01 4.236024804413318634e-03 2.617593407630920410e-01
-3.157287240028381348e-01 -5.739400908350944519e-02 2.848159968852996826e-01
-2.683096230030059814e-01 1.985956281423568726e-01 7.382273077964782715e-01
1.881356686353683472e-01 1.985956281423568726e-01 -6.171271204948425293e-01
6.620860844850540161e-02 8.046881854534149170e-02 5.987966656684875488e-01
-1.014897003769874573e-01 6.114181503653526306e-02 -2.255811691284179688e-01
-3.333758115768432617e-01 6.094224750995635986e-02 -2.181561738252639771e-01
1.707294285297393799e-01 2.319247275590896606e-01 2.858720719814300537e-01
-4.185565114021301270e-01 5.362848192453384399e-02 -7.760336399078369141e-01
-3.550694882869720459e-01 -3.456540405750274658e-03 -8.653270602226257324e-01
3.444020450115203857e-01 -2.178811877965927124e-01 -4.395597875118255615e-01
3.823985457420349121e-01 -1.747425943613052368e-01 -7.841228842735290527e-01
3.668339848518371582e-01 -1.891825720667839050e-02 -8.653270602226257324e-01
3.823985457420349121e-01 1.047937497496604919e-01 -3.769689053297042847e-02
9.993682056665420532e-02 1.540189981460571289e-01 6.771879792213439941e-01
6.968561559915542603e-02 -1.873013935983181000e-02 -4.118149876594543457e-01
-8.759371936321258545e-02 -2.150041759014129639e-01 8.793298602104187012e-01
-4.185565114021301270e-01 -2.115319967269897461e-01 -5.064726471900939941e-01
1.026480346918106079e-01 -5.739400908350944519e-02 5.744125247001647949e-01
3.262911140918731689e-01 -2.242422401905059814e-01 -8.653270602226257324e-01
-2.532918453216552734e-01 -5.739400908350944519e-02 -3.222728967666625977e-01
3.823985457420349121e-01 -8.720196783542633057e-02 -2.599396407604217529e-01
1.819286048412322998e-01 -1.180731505155563354e-02 -8.653270602226257324e-01
6.620860844850540161e-02 1.358054131269454956e-01 -6.388740539550781250e-01
-4.185565114021301270e-01 1.254041306674480438e-02 -2.354874163866043091e-01
5.469468608498573303e-02 -2.178811877965927124e-01 -8.267403841018676758e-01
3.823985457420349121e-01 1.293437033891677856e-01 6.082914397120475769e-02
1.726372390985488892e-01 1.935966163873672485e-01 -1.159699484705924988e-01
-1.023928821086883545e-01 -3.265627473592758179e-02 8.793298602104187012e-01
3.823985457420349121e-01 1.056415513157844543e-01 -1.423073112964630127e-01
3.701946139335632324e-01 -2.178811877965927124e-01 5.559512376785278320e-01
-4.185565114021301270e-01 -2.104759514331817627e-01 -2.848064303398132324e-01
-1.980075389146804810e-01 -2.178811877965927124e-01 -7.464017271995544434e-01
1.707294285297393799e-01 3.670324087142944336e-01 -5.102626085281372070e-01
4.778735712170600891e-02 -9.948648512363433838e-03 -8.653270602226257324e-01
6.968561559915542603e-02 -3.341261064633727074e-03 4.650461077690124512e-01
-3.057524263858795166e-01 -5.739400908350944519e-02 -2.560924291610717773e-01
-4.185565114021301270e-01 -1.036940887570381165e-01 -9.620088338851928711e-02
-2.288218140602111816e-01 -2.178811877965927124e-01 6.558497250080108643e-02
6.620860844850540161e-02 2.711855173110961914e-01 -5.256602540612220764e-02
9.374653548002243042e-02 -2.178811877965927124e-01 7.696120142936706543e-01
3.767787218093872070e-01 -2.178811877965927124e-01 -3.707974255084991455e-01
1.122858226299285889e-01 -2.178811877965927124e-01 -6.834102272987365723e-01
2.715180814266204834e-01 -1.509131342172622681e-01 8.793298602104187012e-01
6.620860844850540161e-02 3.801532089710235596e-01 3.532941639423370361e-01
3.059527836740016937e-02 4.479083046317100525e-02 -3.737287223339080811e-01
3.548807501792907715e-01 4.984798654913902283e-02 8.793298602104187012e-01
-1.272544264793395996e-01 4.479083046317100525e-02 -4.525029659271240234e-01
-4.011206328868865967e-01 -5.739400908350944519e-02 5.228500962257385254e-01
3.823985457420349121e-01 -9.806083887815475464e-02 1.488674134016036987e-01
3.777479231357574463e-01 1.985956281423568726e-01 6.007962822914123535e-01
-2.434961348772048950e-01 -2.178811877965927124e-01 -4.834198653697967529e-01
3.823985457420349121e-01 1.782324165105819702e-01 -8.380333185195922852e-01
-3.357652723789215088e-01 -5.739400908350944519e-02 -5.895224809646606445e-01
6.620860844850540161e-02 4.097377061843872070e-01 1.446283608675003052e-01
-3.509725332260131836e-01 5.397411808371543884e-02 1.150783970952033997e-01
-1.845570802688598633e-01 -5.739400908350944519e-02 5.253046751022338867e-01
-4.185565114021301270e-01 -1.190632209181785583e-01 7.840011119842529297e-01
2.024093177169561386e-03 -2.178811877965927124e-01 5.403757691383361816e-01
-1.097528338432312012e-01 5.855634063482284546e-02 5.029290318489074707e-01
3.823985457420349121e-01 -2.034319192171096802e-01 6.040937900543212891e-01
3.530301749706268311e-01 -2.178811877965927124e-01 2.735418379306793213e-01
1.038027927279472351e-01 -5.739400908350944519e-02 1.253231763839721680e-01
8.884128183126449585e-02 -5.739400908350944519e-02 -2.559572160243988037e-01
9.306453168392181396e-02 -2.178811877965927124e-01 6.701054573059082031e-01
-2.524756193161010742e-01 6.115720793604850769e-02 -4.099269509315490723e-01
-2.416781187057495117e-01 -1.025618985295295715e-02 -6.497820615768432617e-01
3.823985457420349121e-01 -1.036593317985534668e-01 -4.265495538711547852e-01
3.256357610225677490e-01 -2.608618736267089844e-01 8.055694699287414551e-01
9.674988687038421631e-02 1.602675467729568481e-01 8.793298602104187012e-01
-1.202370524406433105e-01 4.997569322586059570e-02 6.247056722640991211e-01
-3.984557986259460449e-01 -2.178811877965927124e-01 2.710478007793426514e-02
6.620860844850540161e-02 2.988740503787994385e-01 5.676379799842834473e-01
-4.769821092486381531e-02 1.446023136377334595e-01 -6.497820615768432617e-01
-2.170366980135440826e-02 1.985956281423568726e-01 -8.091771602630615234e-01
-1.394405961036682129e-01 -2.178811877965927124e-01 -2.639595866203308105e-01
-2.941248714923858643e-01 -2.178811877965927124e-01 -2.382815331220626831e-01
1.726372390985488892e-01 -8.124229498207569122e-03 -5.280488729476928711e-01
3.823985457420349121e-01 8.118337392807006836e-02 1.974560767412185669e-01
3.074636161327362061e-01 -2.178811877965927124e-01 6.603344678878784180e-01
-2.019090503454208374e-01 -1.318181753158569336e-01 -8.653270602226257324e-01
1.980074914172291756e-03 -2.178811877965927124e-01 1.477629840373992920e-01
-1.758588850498199463e-01 -5.739400908350944519e-02 -7.859456539154052734e-02
-3.097782731056213379e-01 -1.896981894969940186e-01 8.793298602104187012e-01
-8.381045609712600708e-02 -5.739400908350944519e-02 -4.656435251235961914e-01
2.940980195999145508e-01 -2.178811877965927124e-01 -6.726798415184020996e-01
6.156924366950988770e-02 6.134581565856933594e-02 4.303145408630371094e-01
-2.046577632427215576e-01 6.220437958836555481e-02 3.934106528759002686e-01
1.987091153860092163e-01 -1.355795264244079590e-01 8.793298602104187012e-01
3.823985457420349121e-01 -1.131344810128211975e-01 4.594578742980957031e-01
-2.062122374773025513e-01 4.479083046317100525e-02 -8.774342946708202362e-03
-3.211659491062164307e-01 -1.798038035631179810e-01 -8.653270602226257324e-01
2.569475956261157990e-02 5.357854440808296204e-02 5.807083845138549805e-01
-8.814247697591781616e-02 5.750659480690956116e-02 1.687707006931304932e-01
-4.027767479419708252e-01 -2.178811877965927124e-01 1.445651799440383911e-01
6.968561559915542603e-02 -2.856952836737036705e-03 -1.134797371923923492e-02
-2.711027562618255615e-01 -5.739400908350944519e-02 5.699099898338317871e-01
-4.185565114021301270e-01 -2.126492559909820557e-01 -8.473917096853256226e-02
2.806714549660682678e-02 -5.739400908350944519e-02 2.626347839832305908e-01
6.620860844850540161e-02 1.827774345874786377e-01 -5.359998941421508789e-01
-2.766672754660248756e-03 -2.178811877965927124e-01 2.949433326721191406e-01
2.024576216936111450e-01 -2.178811877965927124e-01 7.660570144653320312e-01
-1.310513168573379517e-01 -2.178811877965927124e-01 -5.831752419471740723e-01
2.288611084222793579e-01 1.985956281423568726e-01 -8.136116266250610352e-01
-2.019366919994354248e-01 4.362166672945022583e-02 -8.653270602226257324e-01
3.823985457420349121e-01 -1.183911859989166260e-01 7.284049987792968750e-01
-6.358215957880020142e-02 -2.178811877965927124e-01 1.453633420169353485e-02
3.823985457420349121e-01 -7.824982702732086182e-02 2.799196541309356689e-01
1.120736300945281982e-01 -2.178811877965927124e-01 4.595388174057006836e-01
-1.879828721284866333e-01 5.860825628042221069e-02 -1.617151498794555664e-01
-1.738622486591339111e-01 -2.178811877965927124e-01 7.600571513175964355e-01
1.726372390985488892e-01 3.487797826528549194e-02 1.457061320543289185e-01
1.512722373008728027e-01 3.030627667903900146e-01 6.725127100944519043e-01
5.195553600788116455e-02 -3.180180117487907410e-02 8.793298602104187012e-01
6.620860844850540161e-02 1.948875784873962402e-01 1.710298657417297363e-01
3.823985457420349121e-01 3.950865566730499268e-02 7.283250093460083008e-01
1.726372390985488892e-01 1.323050446808338165e-02 3.593650162220001221e-01
4.340687394142150879e-02 -5.739400908350944519e-02 -5.705320835113525391e-01
1.499062627553939819e-01 4.233530163764953613e-01 5.401774048805236816e-01
-2.083026617765426636e-01 -2.178811877965927124e-01 1.502166092395782471e-01
-1.002042666077613831e-01 -2.178811877965927124e-01 -1.450382620096206665e-01
-2.294515222311019897e-01 6.262721121311187744e-02 -3.187355995178222656e-01
6.620860844850540161e-02 7.575405389070510864e-02 2.580187320709228516e-01
-2.283540070056915283e-01 2.335842326283454895e-02 6.771879792213439941e-01
1.632629632949829102e-01 -5.739400908350944519e-02 1.489098519086837769e-01
1.894169487059116364e-02 4.479083046317100525e-02 -1.392062455415725708e-01
-2.076236158609390259e-01 -5.739400908350944519e-02 2.072172313928604126e-01
3.823985457420349121e-01 3.293788433074951172e-02 3.877543210983276367e-01
1.217905618250370026e-02 -5.739400908350944519e-02 6.006137132644653320e-01
1.726372390985488892e-01 8.657225221395492554e-02 -3.955734074115753174e-01
1.692598164081573486e-01 -5.739400908350944519e-02 2.718274593353271484e-01
1.819187253713607788e-01 -1.135569065809249878e-01 -8.653270602226257324e-01
-4.171046614646911621e-01 4.479083046317100525e-02 -3.911122679710388184e-01
6.620860844850540161e-02 2.130676209926605225e-01 8.583693765103816986e-03
6.620860844850540161e-02 1.617588549852371216e-01 4.057704806327819824e-01
-1.469494849443435669e-01 -7.905805855989456177e-02 8.793298602104187012e-01
-6.885802838951349258e-03 -2.178811877965927124e-01 -2.286644726991653442e-01
3.976029809564352036e-03 -2.178811877965927124e-01 7.922413349151611328e-01
-1.201186180114746094e-01 -2.178811877965927124e-01 -3.706464171409606934e-01
2.058764994144439697e-01 1.985956281423568726e-01 -3.798341453075408936e-01
3.646665811538696289e-01 1.985956281423568726e-01 5.178806781768798828e-01
3.823985457420349121e-01 1.452991068363189697e-01 -4.788067638874053955e-01
5.575340986251831055e-02 5.785785987973213196e-02 -6.497820615768432617e-01
-2.856152057647705078e-01 -2.178811877965927124e-01 2.588359415531158447e-01
1.726372390985488892e-01 -1.916369539685547352e-03 -2.834038808941841125e-02
3.823985457420349121e-01 1.274033188819885254e-01 -7.120265364646911621e-01
-7.596086710691452026e-02 -5.739400908350944519e-02 2.314750552177429199e-01
3.823985457420349121e-01 -6.671340018510818481e-02 3.847273439168930054e-02
-9.736948460340499878e-02 -1.428747922182083130e-02 -8.653270602226257324e-01
3.823985457420349121e-01 -3.306220844388008118e-02 -4.983645677566528320e-02
2.292847260832786560e-02 -2.178811877965927124e-01 -4.354007244110107422e-01
3.571566939353942871e-01 -2.178811877965927124e-01 -9.445592015981674194e-02
-4.185565114021301270e-01 -6.786963343620300293e-02 -5.486558079719543457e-01
3.823985457420349121e-01 -1.327498704195022583e-01 -2.076912112534046173e-02
2.642371654510498047e-01 -2.178811877965927124e-01 -3.257736861705780029e-01
1.707294285297393799e-01 1.776017397642135620e-01 1.415045857429504395e-01
1.707294285297393799e-01 1.642094999551773071e-01 4.271365106105804443e-01
3.778930008411407471e-01 -2.178811877965927124e-01 4.575589299201965332e-01
7.208534330129623413e-02 1.266137510538101196e-01 -8.653270602226257324e-01
3.823985457420349121e-01 1.769927740097045898e-01 -4.024881124496459961e-01
-5.127135291695594788e-02 4.479083046317100525e-02 -5.998204946517944336e-01
-2.552055716514587402e-01 -2.178811877965927124e-01 6.040493845939636230e-01
1.209257841110229492e-01 4.470772668719291687e-02 -2.893129587173461914e-01
-3.535771667957305908e-01 1.985956281423568726e-01 8.408389091491699219e-01
7.383968681097030640e-02 2.871334366500377655e-02 5.305810570716857910e-01
1.365929841995239258e-01 -5.739400908350944519e-02 -1.958604604005813599e-01
-1.822534948587417603e-01 -5.739400908350944519e-02 4.012659788131713867e-01
-4.185565114021301270e-01 -2.155489772558212280e-01 4.893167614936828613e-01
2.936539053916931152e-01 -2.178811877965927124e-01 5.064209699630737305e-01
6.620860844850540161e-02 8.719108253717422485e-02 7.780468463897705078e-02
-3.754721581935882568e-01 -5.739400908350944519e-02 2.367277145385742188e-01
-2.269712537527084351e-01 -2.178811877965927124e-01 -8.356892466545104980e-01
2.932057976722717285e-01 1.985956281423568726e-01 -6.613267064094543457e-01
-3.059823811054229736e-01 -2.178811877965927124e-01 6.965789794921875000e-01
-2.032532989978790283e-01 1.713176965713500977e-01 6.771879792213439941e-01
-4.185565114021301270e-01 -1.407532244920730591e-01 -5.932117700576782227e-01
-4.170118868350982666e-01 5.272895470261573792e-02 -5.638177394866943359e-01
-4.185565114021301270e-01 -7.865054160356521606e-02 -2.275768220424652100e-01
1.477161645889282227e-01 -5.739400908350944519e-02 2.156766690313816071e-02
-7.639069855213165283e-02 -1.558667421340942383e-01 -8.653270602226257324e-01
3.155705928802490234e-01 -1.823191717267036438e-02 8.793298602104187012e-01
-2.967996001243591309e-01 -2.178811877965927124e-01 -4.143179655075073242e-01
7.267851382493972778e-02 3.078683316707611084e-01 -6.397247910499572754e-01
5.606716871261596680e-02 -1.273396909236907959e-01 -8.653270602226257324e-01
2.696191370487213135e-01 -2.178811877965927124e-01 3.220258653163909912e-01
1.669729948043823242e-01 -5.739400908350944519e-02 -5.784831643104553223e-01
2.635827958583831787e-01 1.076283380389213562e-01 -8.653270602226257324e-01
3.007827997207641602e-01 -2.178811877965927124e-01 1.495878845453262329e-01
3.823985457420349121e-01 -1.684871613979339600e-01 -1.752554327249526978e-01
-4.185565114021301270e-01 -1.177665367722511292e-01 5.539535880088806152e-01
3.821519762277603149e-02 5.635973438620567322e-02 8.793298602104187012e-01
3.823985457420349121e-01 1.223371848464012146e-01 2.430759221315383911e-01
3.823985457420349121e-01 1.172789484262466431e-01 8.640021681785583496e-01
-4.185565114021301270e-01 -3.163901623338460922e-03 2.379170209169387817e-01
3.823985457420349121e-01 -3.209520503878593445e-02 -6.827992796897888184e-01
-4.185565114021301270e-01 1.220681704580783844e-02 -8.115400075912475586e-01
-4.185565114021301270e-01 1.132313832640647888e-01 7.742103338241577148e-01
-3.631320595741271973e-01 5.831729248166084290e-02 1.826268136501312256e-01
6.620860844850540161e-02 5.534887313842773438e-02 -5.998097062110900879e-01
6.968561559915542603e-02 -7.032637950032949448e-03 2.770159542560577393e-01
3.823985457420349121e-01 1.284662932157516479e-01 -6.350800991058349609e-01
-7.003428786993026733e-02 4.479083046317100525e-02 -6.401284933090209961e-01
3.862923011183738708e-02 -2.178811877965927124e-01 -6.352163553237915039e-01
-1.079548746347427368e-01 6.141619011759757996e-02 -4.002911150455474854e-01
-4.069396108388900757e-02 -5.739400908350944519e-02 -5.858460068702697754e-01
1.297147870063781738e-01 -2.178811877965927124e-01 2.911217510700225830e-01
-2.660119533538818359e-01 -2.178811877965927124e-01 -1.407745480537414551e-01
9.344156086444854736e-02 4.233530163764953613e-01 -4.985561072826385498e-01
-2.636787593364715576e-01 -2.178811877965927124e-01 -7.457118630409240723e-01
6.968561559915542603e-02 2.100054547190666199e-02 -1.717131733894348145e-01
4.307257942855358124e-03 -5.739400908350944519e-02 -9.803262539207935333e-03
-2.471410334110260010e-01 -5.739400908350944519e-02 1.220513582229614258e-01
1.707294285297393799e-01 2.321280390024185181e-01 -4.078345298767089844e-01
1.593989729881286621e-01 -2.178811877965927124e-01 1.750804185867309570e-01
2.852824032306671143e-01 1.985956281423568726e-01 5.115867853164672852e-01
2.809426784515380859e-01 2.221531048417091370e-02 8.793298602104187012e-01
9.698577225208282471e-02 -5.739400908350944519e-02 -3.212563097476959229e-01
3.823985457420349121e-01 -3.061047196388244629e-02 6.008417010307312012e-01
-3.495137989521026611e-01 -2.178811877965927124e-01 -4.790150225162506104e-01
-4.128764569759368896e-01 1.695401370525360107e-01 -8.653270602226257324e-01
-5.755806714296340942e-02 -5.739400908350944519e-02 6.057311296463012695e-01
-4.185565114021301270e-01 -2.159526646137237549e-01 -8.062438964843750000e-01
-2.373670339584350586e-01 -2.178811877965927124e-01 4.836791455745697021e-01
-4.185565114021301270e-01 -2.393991798162460327e-01 8.760699033737182617e-01
-7.797162979841232300e-02 -2.178811877965927124e-01 -8.412863612174987793e-01
2.537960112094879150e-01 1.753534227609634399e-01 8.793298602104187012e-01
2.339451946318149567e-02 4.479083046317100525e-02 -2.768454849720001221e-01
-4.185565114021301270e-01 -1.851600855588912964e-01 7.682302594184875488e-01
-8.067296445369720459e-02 -2.178811877965927124e-01 -6.529858112335205078e-01
3.569593429565429688e-01 -2.178811877965927124e-01 -7.350801825523376465e-01
-2.377568930387496948e-01 1.657491773366928101e-01 -6.497820615768432617e-01
-4.185565114021301270e-01 -1.085008308291435242e-01 4.097934067249298096e-01
1.707294285297393799e-01 3.142955005168914795e-01 -2.422096207737922668e-02
3.823985457420349121e-01 7.219403237104415894e-02 -3.986280858516693115e-01
-1.932286173105239868e-01 -2.178811877965927124e-01 -3.016431070864200592e-02
3.823985457420349121e-01 -1.773314327001571655e-01 -5.604541301727294922e-01
8.471178263425827026e-02 2.174981534481048584e-01 6.725127100944519043e-01
-4.185565114021301270e-01 -1.691977828741073608e-01 6.572610139846801758e-01
1.465219408273696899e-01 -2.178811877965927124e-01 -1.654419600963592529e-01
5.673416331410408020e-02 4.984176531434059143e-02 6.771879792213439941e-01
2.774626016616821289e-01 1.985956281423568726e-01 -1.415315568447113037e-01
-4.185565114021301270e-01 -1.740779355168342590e-02 6.695142984390258789e-01
-4.185565114021301270e-01 -1.513499300926923752e-02 1.502087116241455078e-01
-1.087058559060096741e-01 -2.178811877965927124e-01 2.685329318046569824e-01
3.823985457420349121e-01 1.410713233053684235e-02 5.373112559318542480e-01
-1.777361035346984863e-01 1.475355774164199829e-01 -6.497820615768432617e-01
-1.322793308645486832e-02 6.229390203952789307e-02 3.834017515182495117e-01
-3.758738636970520020e-01 -4.986843839287757874e-02 -6.497820615768432617e-01
-4.185565114021301270e-01 -7.764971349388360977e-03 -4.075503051280975342e-01
-1.712931543588638306e-01 1.985956281423568726e-01 8.754312992095947266e-01
3.823985457420349121e-01 -2.168902754783630371e-01 7.266176491975784302e-02
1.830389350652694702e-01 1.985956281423568726e-01 -5.140249133110046387e-01
-5.213366821408271790e-02 -2.178811877965927124e-01 8.308142423629760742e-01
-1.702291965484619141e-01 -5.739400908350944519e-02 2.863803505897521973e-01
3.823985457420349121e-01 -2.533602714538574219e-02 -4.543979465961456299e-01
1.496121436357498169e-01 -2.178811877965927124e-01 -5.370638370513916016e-01
1.707294285297393799e-01 1.614213138818740845e-01 5.607390403747558594e-01
-2.351660877466201782e-01 -2.178811877965927124e-01 2.799492478370666504e-01
-9.573979675769805908e-02 6.119037047028541565e-02 4.360991716384887695e-01
-4.185565114021301270e-01 -8.359902352094650269e-02 1.750270137563347816e-03
6.375360302627086639e-03 5.681838095188140869e-02 5.330810546875000000e-01
3.462370485067367554e-02 -2.178811877965927124e-01 -9.461186081171035767e-02
6.620860844850540161e-02 3.171192109584808350e-01 -5.147711038589477539e-01
-3.488673269748687744e-01 6.071751192212104797e-02 4.536939561367034912e-01
1.381543874740600586e-01 3.957912698388099670e-02 -1.918365657329559326e-01
3.786263167858123779e-01 1.985956281423568726e-01 3.793531954288482666e-01
3.791859447956085205e-01 4.357438907027244568e-02 -8.653270602226257324e-01
6.620860844850540161e-02 7.362712174654006958e-02 1.815855503082275391e-01
-3.614907264709472656e-01 4.479083046317100525e-02 -3.561615943908691406e-01
1.726372390985488892e-01 1.607067435979843140e-01 -6.446813941001892090e-01
-3.667651116847991943e-01 -5.739400908350944519e-02 1.184706166386604309e-01
-1.279591321945190430e-01 -1.531555205583572388e-01 8.793298602104187012e-01
-2.389234751462936401e-01 1.070144400000572205e-01 -8.653270602226257324e-01
1.726372390985488892e-01 7.988747954368591309e-02 -2.716737687587738037e-01
6.620860844850540161e-02 2.625494897365570068e-01 -1.923882961273193359e-01
-2.519367337226867676e-01 -1.632542312145233154e-01 -8.653270602226257324e-01
-3.911058008670806885e-01 5.566786229610443115e-02 5.514081716537475586e-01
1.707294285297393799e-01 4.285005107522010803e-02 5.871997475624084473e-01
-2.303822189569473267e-01 5.459985882043838501e-02 -5.406643152236938477e-01
3.823985457420349121e-01 -1.676393598318099976e-01 8.409257531166076660e-01
3.823985457420349121e-01 -1.339683588594198227e-02 3.268284797668457031e-01
-4.185565114021301270e-01 -3.221247345209121704e-02 3.766735494136810303e-01
-2.928813099861145020e-01 4.479083046317100525e-02 -5.033597350120544434e-01
3.485021367669105530e-02 -5.739400908350944519e-02 4.659166038036346436e-01
-1.801206320524215698e-01 -5.739400908350944519e-02 -3.322146832942962646e-01
-2.484744340181350708e-01 -7.341583818197250366e-02 -8.653270602226257324e-01
3.541158437728881836e-01 -2.178811877965927124e-01 8.317143321037292480e-01
-4.184933304786682129e-01 4.479083046317100525e-02 -1.295002829283475876e-02
-7.313082367181777954e-02 5.839793011546134949e-02 -4.790574610233306885e-01
1.509277969598770142e-01 1.985956281423568726e-01 8.187415599822998047e-01
3.566772490739822388e-02 -5.739400908350944519e-02 1.123237535357475281e-01
-1.791089922189712524e-01 4.517999291419982910e-02 6.732490062713623047e-01
8.430613577365875244e-02 -5.739400908350944519e-02 -9.740696102380752563e-02
1.028523445129394531e-01 -5.739400908350944519e-02 4.130375981330871582e-01
6.968561559915542603e-02 1.054820884019136429e-02 1.027285084128379822e-01
-3.599283397197723389e-01 9.329353272914886475e-02 -6.497820615768432617e-01
-3.391713201999664307e-01 -2.178811877965927124e-01 -2.423290349543094635e-02
3.823985457420349121e-01 7.612119615077972412e-02 6.551103591918945312e-01
1.726372390985488892e-01 6.936734169721603394e-02 -5.825672745704650879e-01
1.830813735723495483e-01 -2.178811877965927124e-01 -4.739518761634826660e-01
1.707294285297393799e-01 3.585602343082427979e-01 -3.528789281845092773e-01
2.284535169601440430e-01 1.985956281423568726e-01 2.749907076358795166e-01
3.120253980159759521e-01 1.985956281423568726e-01 6.591480970382690430e-01
-4.185565114021301270e-01 -1.103919818997383118e-01 -6.646004915237426758e-01
-2.573522552847862244e-02 5.492921546101570129e-02 -1.003116294741630554e-01
2.197059690952301025e-01 -2.178811877965927124e-01 -1.291578859090805054e-01
-8.825183659791946411e-02 4.875767230987548828e-02 -2.644905261695384979e-02
3.823985457420349121e-01 1.449359059333801270e-01 -2.677752077579498291e-01
1.664301604032516479e-01 -2.178811877965927124e-01 8.328030258417129517e-02
-2.315458655357360840e-01 1.985956281423568726e-01 8.045074343681335449e-01
-3.724253773689270020e-01 -2.178811877965927124e-01 -5.599912405014038086e-01
3.823985457420349121e-01 7.068297266960144043e-02 4.848832786083221436e-01
-4.185565114021301270e-01 -1.972564309835433960e-01 4.198457300662994385e-01
1.726372390985488892e-01 1.708784848451614380e-01 3.561987876892089844e-01
-3.573158383369445801e-01 2.248376980423927307e-02 6.771879792213439941e-01
2.238593250513076782e-02 -7.462655007839202881e-02 -8.653270602226257324e-01
6.218531355261802673e-02 -2.178811877965927124e-01 -7.642462253570556641e-01
-4.185565114021301270e-01 4.264648072421550751e-03 -6.766386032104492188e-01
3.823985457420349121e-01 3.083681315183639526e-02 -1.853037923574447632e-01
1.668821871280670166e-01 -2.178811877965927124e-01 4.195703566074371338e-01
1.325691044330596924e-01 4.233530163764953613e-01 -3.612928688526153564e-01
4.509487189352512360e-03 -5.739400908350944519e-02 -2.546307146549224854e-01
3.823985457420349121e-01 -6.120974570512771606e-02 7.239171862602233887e-01
6.620860844850540161e-02 2.537348568439483643e-01 -2.641165256500244141e-01
-2.382197827100753784e-01 1.127949100919067860e-03 -8.653270602226257324e-01
9.090504050254821777e-02 3.918912708759307861e-01 -6.348668932914733887e-01
-4.185565114021301270e-01 1.610344052314758301e-01 -7.108539342880249023e-01
-3.225872218608856201e-01 -2.178811877965927124e-01 4.268295466899871826e-01
6.620860844850540161e-02 1.383389830589294434e-01 6.345961689949035645e-01
-3.553418815135955811e-01 -2.178811877965927124e-01 -6.550850868225097656e-01
2.195006757974624634e-01 1.985956281423568726e-01 1.234508901834487915e-01
-3.563456237316131592e-01 -2.178811877965927124e-01 2.155551910400390625e-01
-1.244593262672424316e-01 -2.178811877965927124e-01 4.557606577873229980e-01
-4.185565114021301270e-01 -7.336174696683883667e-02 8.751302957534790039e-01
-2.223620861768722534e-01 5.843898653984069824e-02 5.055475234985351562e-01
-4.185565114021301270e-01 1.815002858638763428e-01 -8.037320375442504883e-01
-3.222762942314147949e-01 4.479083046317100525e-02 -1.205485165119171143e-01
-5.319486185908317566e-02 4.671346023678779602e-02 6.577268242835998535e-01
-2.775091826915740967e-01 -5.739400908350944519e-02 4.320624768733978271e-01
3.530005812644958496e-01 1.985956281423568726e-01 -2.902900576591491699e-01
2.183024883270263672e-01 1.985956281423568726e-01 -1.885814592242240906e-02
-1.936430670320987701e-02 -2.178811877965927124e-01 4.486130177974700928e-01
1.707294285297393799e-01 3.985010385513305664e-01 2.054643779993057251e-01
1.707294285297393799e-01 3.018092811107635498e-01 -5.758143663406372070e-01
1.220568567514419556e-01 4.233530163764953613e-01 -1.296680513769388199e-02
6.968561559915542603e-02 -1.472016796469688416e-02 -2.365691363811492920e-01
3.072731196880340576e-01 -2.608618736267089844e-01 -8.191771507263183594e-01
5.625578016042709351e-02 4.479083046317100525e-02 -4.905606508255004883e-01
3.112397789955139160e-01 -2.178811877965927124e-01 -2.402091026306152344e-01
1.707294285297393799e-01 1.105941906571388245e-01 -4.852230846881866455e-01
-1.262941211462020874e-01 1.985956281423568726e-01 7.347294688224792480e-01
-3.179533779621124268e-01 5.731088295578956604e-02 5.252356529235839844e-01
-2.890980429947376251e-02 -5.739400908350944519e-02 3.587994873523712158e-01
-3.405027389526367188e-01 6.144836917519569397e-02 2.643896341323852539e-01
2.629886269569396973e-01 1.985956281423568726e-01 -4.590732455253601074e-01
1.586409658193588257e-01 -2.178811877965927124e-01 -8.365262150764465332e-01
-3.414916694164276123e-01 -2.178811877965927124e-01 5.542950630187988281e-01
2.984476387500762939e-01 1.985956281423568726e-01 3.862274587154388428e-01
1.726372390985488892e-01 -2.094981027767062187e-04 -3.924407362937927246e-01
-4.185565114021301270e-01 -6.902752909809350967e-03 5.552386641502380371e-01
-1.451531797647476196e-01 5.284611135721206665e-02 -5.623678565025329590e-01
3.376768529415130615e-01 1.985956281423568726e-01 1.653942614793777466e-01
-8.086849004030227661e-02 -2.178811877965927124e-01 -4.718574881553649902e-01
-1.900505721569061279e-01 1.235156357288360596e-01 8.793298602104187012e-01
3.823985457420349121e-01 -1.082795485854148865e-01 -1.486722975969314575e-01
1.662949621677398682e-01 1.303741037845611572e-01 8.793298602104187012e-01
1.707294285297393799e-01 3.336243629455566406e-01 4.152395129203796387e-01
-1.601857692003250122e-01 6.176300719380378723e-02 2.760990560054779053e-01
-2.487941980361938477e-01 4.479083046317100525e-02 -2.508377730846405029e-01
-2.739571034908294678e-01 4.479083046317100525e-02 -4.196218773722648621e-02
1.586222201585769653e-01 2.853351831436157227e-02 -9.398513287305831909e-02
1.651816517114639282e-01 1.985956281423568726e-01 -6.934121847152709961e-01
2.973935306072235107e-01 1.985956281423568726e-01 -9.556026197969913483e-03
-1.597702503204345703e-01 1.985956281423568726e-01 -7.977549433708190918e-01
3.823985457420349121e-01 -3.372813016176223755e-02 -5.779047608375549316e-01
9.156334400177001953e-02 -2.178811877965927124e-01 -3.001943230628967285e-01
-4.182120263576507568e-01 -2.178811877965927124e-01 -1.831196397542953491e-01
-1.274024844169616699e-01 -2.178811877965927124e-01 1.790806055068969727e-01
3.178209364414215088e-01 1.985956281423568726e-01 8.238906264305114746e-01
1.707294285297393799e-01 6.259986758232116699e-02 5.941629409790039062e-02
6.968561559915542603e-02 -1.448191329836845398e-02 3.754112124443054199e-01
1.707294285297393799e-01 5.984848737716674805e-02 3.193630278110504150e-01
6.620860844850540161e-02 3.935109078884124756e-01 5.974692106246948242e-01
-1.474715769290924072e-01 -5.739400908350944519e-02 5.903946608304977417e-02
1.707294285297393799e-01 3.082315325736999512e-01 5.794727206230163574e-01
1.113225445151329041e-01 1.265618391335010529e-02 -8.653270602226257324e-01
6.620860844850540161e-02 4.029355049133300781e-01 -2.082953155040740967e-01
6.968561559915542603e-02 4.073003306984901428e-02 5.200580507516860962e-02
-2.874726951122283936e-01 7.398835569620132446e-02 8.793298602104187012e-01
1.668585347943007946e-03 1.816463619470596313e-01 -8.653270602226257324e-01
-3.641723096370697021e-01 4.823763668537139893e-02 4.859107732772827148e-02
3.823985457420349121e-01 1.562614142894744873e-01 8.059099316596984863e-01
-3.726583123207092285e-01 -2.178811877965927124e-01 8.375878334045410156e-01
-4.185565114021301270e-01 1.710462719202041626e-01 8.089823722839355469e-01
2.109910100698471069e-01 1.985956281423568726e-01 5.236367583274841309e-01
-1.295629590749740601e-01 -5.739400908350944519e-02 -3.124525249004364014e-01
-1.703555285930633545e-01 -5.739400908350944519e-02 4.794460535049438477e-01
-2.938475310802459717e-01 -2.178811877965927124e-01 8.347709774971008301e-01
-1.774755567312240601e-01 -5.739400908350944519e-02 1.445079445838928223e-01
1.165140196681022644e-01 -2.178811877965927124e-01 2.184154242277145386e-01
3.823985457420349121e-01 -3.645250946283340454e-02 3.874611854553222656e-01
1.088827475905418396e-01 2.539385855197906494e-02 1.297625750303268433e-01
