6.770587563514709473e-01 -1.577168516814708710e-02 -4.705797880887985229e-02
6.552938222885131836e-01 5.783893465995788574e-01 2.678288817405700684e-01
3.133019432425498962e-02 5.456090569496154785e-01 -1.541938632726669312e-01
1.939596086740493774e-01 -4.014256894588470459e-01 3.681696355342864990e-01
3.075630869716405869e-03 4.409564137458801270e-01 3.464047014713287354e-01
-3.847334980964660645e-01 6.225796341896057129e-01 3.606443107128143311e-01
-4.341962337493896484e-01 5.779399350285530090e-02 -2.172456681728363037e-01
-6.593217849731445312e-01 4.154189825057983398e-01 2.641941606998443604e-01
-4.123771786689758301e-01 -3.094448745250701904e-01 3.681696355342864990e-01
2.097060531377792358e-01 1.921822279691696167e-01 -4.972126707434654236e-02
-6.103786826133728027e-01 -1.181484200060367584e-02 -4.972126707434654236e-02
-4.732479453086853027e-01 -2.661570906639099121e-01 -4.972126707434654236e-02
2.151369452476501465e-01 6.225796341896057129e-01 2.225077003240585327e-01
5.169544816017150879e-01 1.453837603330612183e-01 -4.972126707434654236e-02
6.738836765289306641e-01 -1.853746324777603149e-01 -2.360274642705917358e-02
1.557228267192840576e-01 -3.133226633071899414e-01 3.445838987827301025e-01
-6.593217849731445312e-01 2.069070637226104736e-01 2.163812145590782166e-02
-2.862725853919982910e-01 8.392884582281112671e-02 -2.045197635889053345e-01
-2.130341678857803345e-01 1.809552758932113647e-01 -1.280757486820220947e-01
5.822089314460754395e-01 -3.133571147918701172e-01 1.254795193672180176e-01
5.998440980911254883e-01 -2.694246768951416016e-01 -4.972126707434654236e-02
-6.613413691520690918e-01 -5.539938211441040039e-01 -2.360274642705917358e-02
-1.804123371839523315e-01 -3.133571147918701172e-01 1.037283539772033691e-01
5.987034440040588379e-01 -4.186504483222961426e-01 7.100870460271835327e-02
6.552938222885131836e-01 -6.157372891902923584e-02 5.138728395104408264e-02
5.794177055358886719e-01 -3.605167865753173828e-01 3.681696355342864990e-01
3.064445853233337402e-01 -3.133226633071899414e-01 -2.184808552265167236e-01
2.601907029747962952e-02 -3.133571147918701172e-01 -4.994086921215057373e-03
1.733668446540832520e-01 -4.238579273223876953e-01 -3.718461990356445312e-01
6.770587563514709473e-01 -2.568090260028839111e-01 3.400850594043731689e-01
6.770587563514709473e-01 -3.064892590045928955e-01 9.835906326770782471e-02
5.639163255691528320e-01 4.329360723495483398e-01 3.681696355342864990e-01
-4.996682107448577881e-01 5.504691004753112793e-01 3.681696355342864990e-01
-2.177101820707321167e-01 5.079067349433898926e-01 -4.972126707434654236e-02
3.277597427368164062e-01 1.134331673383712769e-01 -4.972126707434654236e-02
-5.685573816299438477e-01 -3.096938729286193848e-01 3.464047014713287354e-01
5.987034440040588379e-01 -5.340192317962646484e-01 -7.647135853767395020e-02
-3.126288950443267822e-01 -3.947094082832336426e-01 3.681696355342864990e-01
4.455811679363250732e-01 -3.154987692832946777e-01 1.219349652528762817e-01
3.119679987430572510e-01 4.420095682144165039e-01 3.681696355342864990e-01
-6.593217849731445312e-01 3.804373741149902344e-02 6.914075464010238647e-02
1.933720260858535767e-01 1.092813536524772644e-01 -4.972126707434654236e-02
6.770587563514709473e-01 6.529755145311355591e-02 5.498301610350608826e-02
5.879637002944946289e-01 2.372346818447113037e-01 -2.360274642705917358e-02
2.381557822227478027e-01 -3.132872283458709717e-01 -3.634370565414428711e-01
-6.593217849731445312e-01 -5.337771177291870117e-01 1.435618102550506592e-01
-2.375263720750808716e-01 6.443445682525634766e-01 2.027525305747985840e-01
-2.334435284137725830e-02 6.198129653930664062e-01 -4.972126707434654236e-02
2.691175416111946106e-02 -3.132872283458709717e-01 -3.685776293277740479e-01
6.810000631958246231e-03 2.223090529441833496e-01 -1.836927831172943115e-01
1.837654039263725281e-02 -3.132872283458709717e-01 -2.426630258560180664e-01
5.375711619853973389e-02 -2.727395296096801758e-01 -3.782012760639190674e-01
3.533161804080009460e-02 -2.854660339653491974e-02 -4.972126707434654236e-02
2.439419925212860107e-01 -3.133571147918701172e-01 -2.777276635169982910e-01
-4.379411637783050537e-01 -3.154987692832946777e-01 -3.478648066520690918e-01
-1.803257167339324951e-01 2.067860066890716553e-01 -2.360274642705917358e-02
-8.067608624696731567e-02 6.225796341896057129e-01 1.561932414770126343e-01
1.183747947216033936e-01 5.884509682655334473e-01 -4.972126707434654236e-02
5.782455205917358398e-01 5.042743310332298279e-02 -4.972126707434654236e-02
-4.064393937587738037e-01 -2.826299071311950684e-01 -2.360274642705917358e-02
5.006263256072998047e-01 2.908104062080383301e-01 -4.972126707434654236e-02
1.515005230903625488e-01 -3.154987692832946777e-01 -2.628423869609832764e-01
-5.479331612586975098e-01 -3.691247403621673584e-01 3.681696355342864990e-01
-1.870754957199096680e-01 -3.133226633071899414e-01 -3.841882646083831787e-01
1.243342235684394836e-01 3.026259243488311768e-01 -4.972126707434654236e-02
5.564697384834289551e-01 -2.800384461879730225e-01 3.464047014713287354e-01
2.065398246049880981e-01 -2.570615522563457489e-02 -2.579065263271331787e-01
-1.973946765065193176e-02 4.849479198455810547e-01 -1.541938632726669312e-01
6.552938222885131836e-01 6.065359711647033691e-01 2.936572209000587463e-02
2.905770540237426758e-01 -2.054467201232910156e-01 -3.454328179359436035e-01
-6.810876727104187012e-01 -5.018767118453979492e-01 3.122878670692443848e-01
1.767899394035339355e-01 -2.920311391353607178e-01 -3.875956237316131592e-01
3.991507887840270996e-01 7.733214646577835083e-02 -2.077312618494033813e-01
3.705662190914154053e-01 -3.112026751041412354e-01 -3.969309031963348389e-01
-2.847322821617126465e-01 -3.154987692832946777e-01 1.493381429463624954e-02
3.617742061614990234e-01 3.728250861167907715e-01 -1.541938632726669312e-01
-1.613667756319046021e-01 -2.939267158508300781e-01 -4.972126707434654236e-02
-6.778112053871154785e-01 -3.204060494899749756e-01 -3.488253951072692871e-01
-6.623528152704238892e-02 2.118645608425140381e-01 -4.972126707434654236e-02
1.097176373004913330e-01 -1.889128834009170532e-01 -4.972126707434654236e-02
-6.593217849731445312e-01 -4.178364872932434082e-01 3.491103053092956543e-01
5.412232875823974609e-01 -4.216985702514648438e-01 3.681696355342864990e-01
2.699016332626342773e-01 -3.133571147918701172e-01 2.090741395950317383e-01
-3.548173010349273682e-01 -5.331776738166809082e-01 -3.979633748531341553e-01
-5.029702782630920410e-01 -6.373023986816406250e-02 -1.715268790721893311e-01
-2.077695876359939575e-01 -2.273120582103729248e-01 3.681696355342864990e-01
-4.626016616821289062e-01 -3.132872283458709717e-01 -2.963982224464416504e-01
-3.794984519481658936e-01 -3.154987692832946777e-01 -1.580337062478065491e-03
-4.013155698776245117e-01 -2.926571071147918701e-01 -3.879007399082183838e-01
-5.764970779418945312e-01 6.225796341896057129e-01 2.604373991489410400e-01
-3.511373102664947510e-01 5.583910346031188965e-01 3.681696355342864990e-01
4.581111967563629150e-01 -3.133226633071899414e-01 -2.028052508831024170e-01
2.078645974397659302e-01 -2.496809512376785278e-02 -2.360274642705917358e-02
2.136714607477188110e-01 -3.154987692832946777e-01 3.084779679775238037e-01
-6.288514137268066406e-01 -4.362442791461944580e-01 -2.691531777381896973e-01
-3.218693658709526062e-02 -3.133571147918701172e-01 2.160020321607589722e-01
6.529868245124816895e-01 -5.401852726936340332e-01 -4.972126707434654236e-02
-4.972775876522064209e-01 -3.154987692832946777e-01 1.823910921812057495e-01
5.987034440040588379e-01 -5.672847032546997070e-01 1.872157007455825806e-01
4.950242042541503906e-01 -3.160696327686309814e-01 3.681696355342864990e-01
8.067806810140609741e-02 1.044603735208511353e-01 -1.945211142301559448e-01
-6.810876727104187012e-01 6.009032726287841797e-01 2.644490599632263184e-01
-1.794359982013702393e-01 -4.616695046424865723e-01 -3.767604231834411621e-01
-5.659669041633605957e-01 5.562641620635986328e-01 -4.972126707434654236e-02
-6.098954677581787109e-01 -6.093294024467468262e-01 2.546630203723907471e-01
6.552938222885131836e-01 -4.000015258789062500e-01 3.481192514300346375e-02
-6.810876727104187012e-01 -8.456637710332870483e-02 3.323973417282104492e-01
5.964712500572204590e-01 -6.512515991926193237e-02 -2.360274642705917358e-02
4.809410572052001953e-01 -2.804170176386833191e-02 -2.087735384702682495e-01
-6.468871235847473145e-01 -3.449130356311798096e-01 -1.976893097162246704e-01
-6.141787171363830566e-01 5.360054597258567810e-02 -4.972126707434654236e-02
-6.178518533706665039e-01 -2.917073369026184082e-01 3.681696355342864990e-01
4.204974174499511719e-01 -1.339493840932846069e-01 -3.106161952018737793e-01
2.320959866046905518e-01 -3.133571147918701172e-01 -1.038177907466888428e-01
-2.913216054439544678e-01 2.105900049209594727e-01 -1.280757486820220947e-01
-4.978493750095367432e-01 -4.741277098655700684e-01 -3.718461990356445312e-01
1.356290876865386963e-01 -3.133571147918701172e-01 7.709410786628723145e-02
5.927440524101257324e-01 6.377375125885009766e-01 -2.360274642705917358e-02
5.742633938789367676e-01 -2.130783349275588989e-01 -1.260817348957061768e-01
2.229230701923370361e-01 -5.377680659294128418e-01 -3.718461990356445312e-01
-4.420876801013946533e-01 5.033822655677795410e-01 -2.360274642705917358e-02
1.463944315910339355e-01 5.862876772880554199e-01 3.464047014713287354e-01
-2.773496806621551514e-01 6.112827658653259277e-01 -2.360274642705917358e-02
4.759156703948974609e-01 -3.133226633071899414e-01 -1.569969207048416138e-01
5.987034440040588379e-01 -5.594591498374938965e-01 -3.443560898303985596e-01
1.793892681598663330e-01 6.225796341896057129e-01 -1.931048370897769928e-02
3.229498863220214844e-01 -3.786548674106597900e-01 -3.696681261062622070e-01
2.906990945339202881e-01 1.533322781324386597e-01 -2.360274642705917358e-02
-5.663350224494934082e-01 9.370260685682296753e-02 -4.972126707434654236e-02
5.331025123596191406e-01 -1.843540072441101074e-01 -2.360274642705917358e-02
3.915851116180419922e-01 6.271513104438781738e-01 -4.972126707434654236e-02
6.552938222885131836e-01 -3.024145960807800293e-01 -1.782199251465499401e-03
-5.525982975959777832e-01 -2.708606421947479248e-01 -4.972126707434654236e-02
-4.031521081924438477e-01 -1.544299125671386719e-01 -2.360274642705917358e-02
-2.070560306310653687e-01 -5.361496657133102417e-02 -2.360274642705917358e-02
-5.052595734596252441e-01 -9.422251582145690918e-02 -4.972126707434654236e-02
-4.658948481082916260e-01 -4.198915362358093262e-01 3.464047014713287354e-01
3.068225383758544922e-01 -3.760663866996765137e-01 3.464047014713287354e-01
-4.450609982013702393e-01 6.443445682525634766e-01 2.269484847784042358e-01
-6.810876727104187012e-01 4.504826664924621582e-01 2.301983684301376343e-01
4.584369957447052002e-01 1.657904870808124542e-02 -1.097555607557296753e-01
1.465725600719451904e-01 -4.377019107341766357e-01 -3.979633748531341553e-01
5.276036858558654785e-01 -1.205630674958229065e-01 -1.534842401742935181e-01
-6.807313561439514160e-01 -3.415637314319610596e-01 -2.360274642705917358e-02
-1.740395426750183105e-01 1.196071505546569824e-01 -4.972126707434654236e-02
-3.678758740425109863e-01 -1.164539754390716553e-01 -3.020968437194824219e-01
2.647069692611694336e-01 -3.133571147918701172e-01 -3.345109894871711731e-02
1.712478250265121460e-01 -3.133226633071899414e-01 -1.613894701004028320e-01
-1.292843073606491089e-01 5.185854434967041016e-01 -1.541938632726669312e-01
-6.066249012947082520e-01 -4.661043882369995117e-01 3.681696355342864990e-01
-6.593217849731445312e-01 2.951468825340270996e-01 1.312502622604370117e-01
-1.680309027433395386e-01 -3.133226633071899414e-01 -1.785118728876113892e-01
-1.515541672706604004e-01 -5.471259951591491699e-01 -3.771619796752929688e-01
-1.175711750984191895e-01 -4.347049891948699951e-01 -3.718461990356445312e-01
-4.099697768688201904e-01 1.206661686301231384e-01 -1.357408165931701660e-01
-6.055029034614562988e-01 6.443445682525634766e-01 2.166516184806823730e-01
6.521531939506530762e-01 -3.133226633071899414e-01 -2.422811537981033325e-01
-6.593217849731445312e-01 2.189792320132255554e-02 3.153743445873260498e-01
2.777655124664306641e-01 -2.143233716487884521e-01 -2.360274642705917358e-02
-6.810876727104187012e-01 5.975146293640136719e-01 1.730607077479362488e-02
-6.027333140373229980e-01 -4.179703593254089355e-01 1.281509697437286377e-01
-5.088745355606079102e-01 -2.212745137512683868e-02 -4.972126707434654236e-02
3.792066276073455811e-01 -4.311057031154632568e-01 -3.979633748531341553e-01
9.613605588674545288e-02 6.225796341896057129e-01 1.135408878326416016e-01
6.770587563514709473e-01 1.260527819395065308e-01 2.077670991420745850e-01
-6.288514137268066406e-01 -3.936247825622558594e-01 -3.772721886634826660e-01
1.119980663061141968e-01 5.940456315875053406e-02 -2.164612412452697754e-01
-4.559700489044189453e-01 -4.576427489519119263e-02 -2.676739096641540527e-01
-1.289034336805343628e-01 -4.743989557027816772e-02 -2.684898078441619873e-01
-6.699660420417785645e-01 3.351847827434539795e-01 -2.360274642705917358e-02
6.015635728836059570e-01 -4.700323939323425293e-01 1.076157093048095703e-01
6.258756518363952637e-01 1.367443054914474487e-01 -4.972126707434654236e-02
1.887471824884414673e-01 2.332673072814941406e-01 -1.541938632726669312e-01
6.007476449012756348e-01 6.225796341896057129e-01 7.489182054996490479e-02
-2.381090223789215088e-01 -4.077256619930267334e-01 -3.718461990356445312e-01
6.586765646934509277e-01 4.972063004970550537e-01 -2.360274642705917358e-02
-1.149826869368553162e-01 3.504676818847656250e-01 -4.972126707434654236e-02
-2.682880461215972900e-01 1.067558601498603821e-01 -4.972126707434654236e-02
7.558219134807586670e-02 -3.133226633071899414e-01 -4.310270845890045166e-01
2.934483438730239868e-02 -4.167361259460449219e-01 3.442285954952239990e-01
3.540816009044647217e-01 -2.883806824684143066e-01 -4.972126707434654236e-02
6.861247122287750244e-02 6.443445682525634766e-01 -1.117249801754951477e-01
-6.233732700347900391e-01 4.419524371623992920e-01 -2.360274642705917358e-02
5.552926659584045410e-01 -3.685912787914276123e-01 -3.696681261062622070e-01
-2.913472354412078857e-01 6.104619503021240234e-01 -1.541938632726669312e-01
-6.593217849731445312e-01 -6.117727980017662048e-02 1.226549148559570312e-01
-5.365376174449920654e-02 -4.897265732288360596e-01 -3.979633748531341553e-01
3.221575617790222168e-01 -5.002310872077941895e-01 -3.845839500427246094e-01
-6.982047855854034424e-02 -3.332008719444274902e-01 3.681696355342864990e-01
-6.005571484565734863e-01 -4.143622219562530518e-01 -1.664089709520339966e-01
5.987034440040588379e-01 -3.903572261333465576e-01 -1.383342295885086060e-01
-6.593217849731445312e-01 -5.361972451210021973e-01 5.084813013672828674e-02
-1.055627614259719849e-01 -3.133226633071899414e-01 -2.026950269937515259e-01
6.552938222885131836e-01 -4.356695115566253662e-01 9.908393770456314087e-02
8.539954572916030884e-02 -6.411595642566680908e-02 -4.972126707434654236e-02
5.188372731208801270e-01 -3.132872283458709717e-01 -8.834198117256164551e-02
-4.630061984062194824e-01 -3.154987692832946777e-01 2.714635729789733887e-01
4.194276034832000732e-01 -3.154987692832946777e-01 -3.094746964052319527e-03
2.547585070133209229e-01 -4.078103005886077881e-01 -3.718461990356445312e-01
-1.499105244874954224e-01 3.525876700878143311e-01 -1.541938632726669312e-01
-4.643447101116180420e-01 -3.133226633071899414e-01 -1.381462365388870239e-01
-3.418108820915222168e-01 -2.531044185161590576e-01 3.464047014713287354e-01
-2.961088418960571289e-01 -3.133571147918701172e-01 1.868013441562652588e-01
6.552938222885131836e-01 3.477945327758789062e-01 1.332009881734848022e-01
-6.847909837961196899e-02 -3.133226633071899414e-01 -5.505355075001716614e-02
-2.618296146392822266e-01 -3.133571147918701172e-01 -6.839351356029510498e-02
-2.086777240037918091e-02 -3.133226633071899414e-01 -3.858683109283447266e-01
-1.766054183244705200e-01 -2.280010133981704712e-01 -4.972126707434654236e-02
1.616979986429214478e-01 -3.154987692832946777e-01 2.298853844404220581e-01
-4.221720695495605469e-01 2.023137211799621582e-01 -2.360274642705917358e-02
1.376772224903106689e-01 2.085064053535461426e-01 -4.972126707434654236e-02
1.968023180961608887e-02 6.405976414680480957e-01 -2.360274642705917358e-02
-5.175740122795104980e-01 -3.133226633071899414e-01 -2.603149116039276123e-01
6.288095712661743164e-01 -3.155686259269714355e-01 3.464047014713287354e-01
6.770587563514709473e-01 -3.005219399929046631e-01 1.976661086082458496e-01
-4.975607246160507202e-02 6.225796341896057129e-01 -3.916275221854448318e-03
-1.732954829931259155e-01 -3.639822006225585938e-01 -3.979633748531341553e-01
5.011735558509826660e-01 4.418117105960845947e-01 3.464047014713287354e-01
2.837594151496887207e-01 -3.164973482489585876e-02 -2.360274642705917358e-02
6.552938222885131836e-01 4.500479996204376221e-02 2.523053670302033424e-03
6.134184598922729492e-01 -3.678993582725524902e-01 -3.865602314472198486e-01
4.104092419147491455e-01 -3.133571147918701172e-01 -1.642062813043594360e-01
2.574857771396636963e-01 -3.133226633071899414e-01 -2.264333218336105347e-01
-2.988554723560810089e-02 -9.359753876924514771e-02 -4.972126707434654236e-02
4.349952563643455505e-02 -4.575102031230926514e-01 3.681696355342864990e-01
-3.257288336753845215e-01 -3.154987692832946777e-01 -1.704324334859848022e-01
-3.071478009223937988e-01 -2.314880937337875366e-01 -3.581134378910064697e-01
-3.606202304363250732e-01 3.529892265796661377e-01 -1.541938632726669312e-01
6.552938222885131836e-01 2.672266662120819092e-01 8.118154853582382202e-02
1.718019545078277588e-01 6.443445682525634766e-01 2.700118422508239746e-01
3.159343898296356201e-01 -1.063096672296524048e-01 -2.360274642705917358e-02
1.477851122617721558e-01 1.885337233543395996e-01 -1.280757486820220947e-01
-6.005571484565734863e-01 -4.206602275371551514e-01 5.510545521974563599e-02
-4.232340753078460693e-01 -3.690026700496673584e-01 3.681696355342864990e-01
8.021558076143264771e-02 3.605086207389831543e-01 -2.360274642705917358e-02
4.118786454200744629e-01 -3.477446138858795166e-01 -3.979633748531341553e-01
-4.456059634685516357e-02 4.045138955116271973e-01 -4.972126707434654236e-02
5.963343977928161621e-01 -3.133571147918701172e-01 -1.031879242509603500e-02
-1.347710192203521729e-02 5.153177976608276367e-01 -2.360274642705917358e-02
3.764590248465538025e-02 1.735431402921676636e-01 -2.360274642705917358e-02
-5.312979817390441895e-01 4.028239846229553223e-01 3.681696355342864990e-01
1.808232814073562622e-01 -1.491456776857376099e-01 -3.180165290832519531e-01
1.471266746520996094e-01 -4.169841706752777100e-01 3.464047014713287354e-01
6.313380002975463867e-01 6.443445682525634766e-01 2.882651090621948242e-01
2.397187203168869019e-01 -2.829369604587554932e-01 -3.831666409969329834e-01
-6.593217849731445312e-01 2.798630297183990479e-01 3.116392493247985840e-01
-6.593217849731445312e-01 -1.812783330678939819e-01 1.833808724768459797e-03
-2.808091938495635986e-01 6.025714874267578125e-01 3.464047014713287354e-01
-1.352900117635726929e-01 6.443445682525634766e-01 -3.765970841050148010e-02
4.705251157283782959e-01 -1.612308472394943237e-01 -2.360274642705917358e-02
3.105576336383819580e-01 -5.422930791974067688e-02 -2.717967629432678223e-01
3.897200524806976318e-01 1.528283655643463135e-01 -9.819987416267395020e-02
3.260885477066040039e-01 1.523618400096893311e-01 -1.711952090263366699e-01
-5.645210742950439453e-01 -3.132872283458709717e-01 -3.658808767795562744e-01
-3.349991440773010254e-01 3.110025823116302490e-01 -2.360274642705917358e-02
-5.907731056213378906e-01 6.225796341896057129e-01 3.938909620046615601e-02
6.552938222885131836e-01 -5.945031642913818359e-01 2.326707094907760620e-01
-1.535058617591857910e-01 -1.253660321235656738e-01 -4.972126707434654236e-02
-3.626024425029754639e-01 4.803949296474456787e-01 -1.541938632726669312e-01
-1.371048986911773682e-01 6.443445682525634766e-01 2.920759916305541992e-01
5.438274741172790527e-01 6.443445682525634766e-01 1.667991094291210175e-02
-1.259813010692596436e-01 -3.154987692832946777e-01 2.487331330776214600e-01
-6.593217849731445312e-01 4.912508130073547363e-01 1.241656839847564697e-01
-4.826176762580871582e-01 2.313707172870635986e-01 -2.360274642705917358e-02
-3.834431767463684082e-01 1.732616573572158813e-01 -1.533553153276443481e-01
9.866686165332794189e-02 3.450042903423309326e-01 -1.541938632726669312e-01
-3.772475719451904297e-01 -1.941075772047042847e-01 -3.399113714694976807e-01
3.501368761062622070e-01 2.389570474624633789e-01 -1.541938632726669312e-01
3.926540017127990723e-01 5.405413508415222168e-01 -4.972126707434654236e-02
6.753246188163757324e-01 6.443445682525634766e-01 7.310389727354049683e-02
3.723466694355010986e-01 4.137536883354187012e-01 -6.285285949707031250e-02
-3.556834161281585693e-01 -8.734383434057235718e-02 -4.972126707434654236e-02
-6.268672347068786621e-01 5.653514266014099121e-01 -2.360274642705917358e-02
-6.353806853294372559e-01 -6.093294024467468262e-01 5.171177908778190613e-02
-1.409453004598617554e-01 -3.133571147918701172e-01 1.572640538215637207e-01
-2.297884672880172729e-01 5.606074929237365723e-01 3.681696355342864990e-01
3.247903585433959961e-01 2.370122373104095459e-01 -2.360274642705917358e-02
-5.064297914505004883e-01 -3.387587368488311768e-01 -3.718461990356445312e-01
6.552938222885131836e-01 -2.578522562980651855e-01 2.413347512483596802e-01
-6.027333140373229980e-01 -5.603755116462707520e-01 -7.086230814456939697e-02
5.173245668411254883e-01 -3.133571147918701172e-01 -3.710637390613555908e-01
3.703510016202926636e-02 6.225796341896057129e-01 1.419723033905029297e-01
-5.321552157402038574e-01 -3.154987692832946777e-01 1.093430072069168091e-01
6.035870909690856934e-01 -3.133226633071899414e-01 -1.466429680585861206e-01
-2.967613935470581055e-01 4.515613615512847900e-01 3.464047014713287354e-01
-2.496233731508255005e-01 2.487903535366058350e-01 -2.360274642705917358e-02
-6.240307092666625977e-01 -3.133226633071899414e-01 -2.836014628410339355e-01
6.770587563514709473e-01 -1.948309838771820068e-01 3.487403690814971924e-02
4.053129553794860840e-01 1.556619107723236084e-01 -2.360274642705917358e-02
2.502803206443786621e-01 -3.154987692832946777e-01 2.398480847477912903e-02
-5.040781944990158081e-02 1.204230636358261108e-01 -1.867477893829345703e-01
-4.420000910758972168e-01 -3.807049989700317383e-01 -3.718461990356445312e-01
7.019252330064773560e-02 6.381469368934631348e-01 -4.972126707434654236e-02
1.632235199213027954e-01 6.126400232315063477e-01 -1.541938632726669312e-01
-6.593217849731445312e-01 -3.538546264171600342e-01 2.197737246751785278e-02
3.904995322227478027e-01 -3.432369232177734375e-01 3.464047014713287354e-01
5.965273380279541016e-01 -3.669043481349945068e-01 -8.211484551429748535e-02
-6.810876727104187012e-01 1.664686053991317749e-01 2.966033816337585449e-01
6.770587563514709473e-01 -1.476014405488967896e-01 1.504217982292175293e-01
4.585058689117431641e-01 9.248244576156139374e-03 -4.972126707434654236e-02
-5.188279151916503906e-01 -3.749542534351348877e-01 -3.979633748531341553e-01
4.520818889141082764e-01 -4.563990235328674316e-01 -3.979633748531341553e-01
1.376437544822692871e-01 -3.132872283458709717e-01 -1.926491409540176392e-01
-2.416954934597015381e-01 3.269502148032188416e-02 -4.972126707434654236e-02
-3.433885872364044189e-01 -3.133226633071899414e-01 -7.262701541185379028e-02
2.538559734821319580e-01 -2.810748517513275146e-01 3.681696355342864990e-01
-6.124583482742309570e-01 5.429871082305908203e-01 3.464047014713287354e-01
1.676829904317855835e-01 -3.440902233123779297e-01 -3.718461990356445312e-01
5.260092616081237793e-01 -2.000492960214614868e-01 -3.428039848804473877e-01
9.801137447357177734e-02 -3.154987692832946777e-01 -2.552107870578765869e-01
-6.593217849731445312e-01 4.204447939991950989e-02 1.807740181684494019e-01
-2.549912631511688232e-01 -3.133226633071899414e-01 -2.577382624149322510e-01
5.987034440040588379e-01 -3.776244223117828369e-01 -1.888106912374496460e-01
-3.431835398077964783e-02 -2.840137183666229248e-01 3.464047014713287354e-01
2.774200737476348877e-01 -3.568535149097442627e-01 -3.831597566604614258e-01
-6.810876727104187012e-01 -4.317533075809478760e-01 2.240922898054122925e-01
5.029927194118499756e-02 6.443445682525634766e-01 2.877031564712524414e-01
2.728801965713500977e-02 2.742736339569091797e-01 -4.972126707434654236e-02
2.310881316661834717e-01 6.225796341896057129e-01 3.264940083026885986e-01
-2.737366259098052979e-01 -4.300456941127777100e-01 3.464047014713287354e-01
7.327617704868316650e-02 2.223090529441833496e-01 -1.745336651802062988e-01
-6.369711756706237793e-01 -4.700323939323425293e-01 2.301501333713531494e-01
-1.143212914466857910e-01 5.262013077735900879e-01 -4.972126707434654236e-02
3.358017504215240479e-01 6.225796341896057129e-01 2.087218016386032104e-01
6.362915635108947754e-01 2.089837640523910522e-01 -2.360274642705917358e-02
-5.398242473602294922e-01 6.443445682525634766e-01 1.517918258905410767e-01
-2.073257118463516235e-01 5.617973804473876953e-01 -2.360274642705917358e-02
-6.593217849731445312e-01 -2.331514209508895874e-01 5.575749650597572327e-02
2.749693691730499268e-01 -4.700323939323425293e-01 3.618558943271636963e-01
-7.795807719230651855e-02 6.123113036155700684e-01 -1.541938632726669312e-01
6.552938222885131836e-01 -9.786078706383705139e-03 3.263424336910247803e-01
6.770587563514709473e-01 -4.340406060218811035e-01 -3.481546882539987564e-03
-6.810876727104187012e-01 -1.935170590877532959e-01 1.979633420705795288e-01
-3.271726667881011963e-01 -3.133571147918701172e-01 6.327572464942932129e-02
-5.653980374336242676e-01 -3.133226633071899414e-01 -1.792362481355667114e-01
-6.810876727104187012e-01 1.754761487245559692e-01 6.194781884551048279e-02
-1.067908364348113537e-03 5.695038437843322754e-01 3.681696355342864990e-01
-4.175354242324829102e-01 3.045392334461212158e-01 -2.360274642705917358e-02
6.552938222885131836e-01 1.385700255632400513e-01 3.415111899375915527e-01
-4.882877469062805176e-01 3.823887407779693604e-01 -4.972126707434654236e-02
3.840854167938232422e-01 -3.133571147918701172e-01 -1.339790672063827515e-01
6.175531148910522461e-01 -4.583595991134643555e-01 3.681696355342864990e-01
-4.117049574851989746e-01 -1.009039767086505890e-02 -4.972126707434654236e-02
-4.812535345554351807e-01 -1.876619607210159302e-01 -3.367717266082763672e-01
3.365232050418853760e-01 -2.107762545347213745e-01 -4.972126707434654236e-02
7.595078647136688232e-02 -3.133226633071899414e-01 -1.021239608526229858e-01
2.930041253566741943e-01 2.996565699577331543e-01 -2.360274642705917358e-02
-4.972854554653167725e-01 -1.028855741024017334e-01 -2.954897880554199219e-01
2.944696247577667236e-01 6.225796341896057129e-01 4.816472996026277542e-03
4.014794230461120605e-01 -3.133571147918701172e-01 1.597708612680435181e-01
6.552938222885131836e-01 5.731651186943054199e-01 5.254442989826202393e-02
6.484870314598083496e-01 -3.133226633071899414e-01 -3.530791699886322021e-01
-6.810876727104187012e-01 4.319961369037628174e-01 3.216556310653686523e-01
2.879433035850524902e-01 3.855746090412139893e-01 3.681696355342864990e-01
6.248216032981872559e-01 -5.225107669830322266e-01 -2.749747931957244873e-01
-2.613611221313476562e-01 -1.665308624505996704e-01 -3.264817297458648682e-01
-6.810876727104187012e-01 2.589769661426544189e-01 2.963281422853469849e-02
6.552938222885131836e-01 -2.045825719833374023e-01 3.170780241489410400e-01
-5.019496083259582520e-01 -2.369997054338455200e-01 3.464047014713287354e-01
-2.478202879428863525e-01 5.759268403053283691e-01 -4.972126707434654236e-02
-6.593217849731445312e-01 -2.801506817340850830e-01 2.301747351884841919e-01
-2.220722138881683350e-01 2.282054871320724487e-01 -1.541938632726669312e-01
1.150205880403518677e-01 -2.913077473640441895e-01 -4.972126707434654236e-02
-2.771627008914947510e-01 1.324600279331207275e-01 -1.808867752552032471e-01
2.933683097362518311e-01 5.047139525413513184e-01 -4.972126707434654236e-02
1.845760941505432129e-01 -2.262618988752365112e-01 3.554811477661132812e-01
5.414772033691406250e-01 -4.077069461345672607e-01 -3.718461990356445312e-01
7.945597171783447266e-02 -2.331858575344085693e-01 3.464047014713287354e-01
-6.027333140373229980e-01 -4.899568855762481689e-01 1.481531858444213867e-01
5.987034440040588379e-01 -4.776827096939086914e-01 -1.729284077882766724e-01
-6.690710783004760742e-02 -3.154987692832946777e-01 9.440064430236816406e-02
3.063254952430725098e-01 5.936318635940551758e-01 3.464047014713287354e-01
-1.176321953535079956e-01 -3.439337313175201416e-01 -4.192292988300323486e-01
4.199157655239105225e-01 -3.876417577266693115e-01 -3.718461990356445312e-01
1.155248098075389862e-02 6.443445682525634766e-01 3.273758590221405029e-01
6.552938222885131836e-01 3.533947467803955078e-01 1.871074438095092773e-01
3.481516838073730469e-01 1.008698600344359875e-03 -2.360274642705917358e-02
4.088108539581298828e-01 -2.062390297651290894e-01 -3.458186388015747070e-01
5.324991941452026367e-01 5.100296139717102051e-01 -4.972126707434654236e-02
-6.783338189125061035e-01 -6.093294024467468262e-01 3.137553036212921143e-01
-1.176321953535079956e-01 -2.152642756700515747e-01 -3.502131700515747070e-01
6.770587563514709473e-01 3.921885490417480469e-01 -3.246658667922019958e-02
-6.810876727104187012e-01 -3.440357372164726257e-02 1.641712784767150879e-01
-6.810876727104187012e-01 -4.553488790988922119e-01 1.046844124794006348e-01
4.569606482982635498e-01 1.687519848346710205e-01 -2.360274642705917358e-02
-6.810876727104187012e-01 -3.288102746009826660e-01 3.138261735439300537e-01
-4.005478918552398682e-01 -7.793039828538894653e-02 -2.833376824855804443e-01
-6.027333140373229980e-01 -5.950730443000793457e-01 4.148387815803289413e-03
-6.810876727104187012e-01 3.157671689987182617e-01 2.108418047428131104e-01
-5.017537474632263184e-01 6.225796341896057129e-01 2.451092302799224854e-01
6.552938222885131836e-01 -4.621724486351013184e-01 2.917964756488800049e-01
-5.622535347938537598e-01 -2.284921258687973022e-01 -3.566548526287078857e-01
6.770587563514709473e-01 -4.393032193183898926e-01 1.870503574609756470e-01
-9.948677616193890572e-04 -2.402722090482711792e-01 -4.972126707434654236e-02
3.575785160064697266e-01 -3.475408852100372314e-01 -3.718461990356445312e-01
9.670729190111160278e-02 -3.133571147918701172e-01 2.988759577274322510e-01
-3.119104206562042236e-01 -7.060045748949050903e-02 -2.360274642705917358e-02
9.341441094875335693e-03 5.638741254806518555e-01 -2.360274642705917358e-02
-1.985484957695007324e-01 -2.269400209188461304e-01 -3.558989763259887695e-01
-6.810876727104187012e-01 4.220988452434539795e-01 3.152604401111602783e-02
4.384455978870391846e-01 -5.268206000328063965e-01 -3.951140642166137695e-01
-6.027333140373229980e-01 -6.049299836158752441e-01 1.126501709222793579e-01
2.570914104580879211e-02 -5.191841125488281250e-01 -3.718461990356445312e-01
-5.971094965934753418e-01 -2.503850460052490234e-01 -1.081916466355323792e-01
-7.547785341739654541e-02 2.872790694236755371e-01 -4.972126707434654236e-02
-6.548278331756591797e-01 -6.093294024467468262e-01 1.304825693368911743e-01
5.504059791564941406e-01 -1.657739877700805664e-01 -1.369927376508712769e-01
-6.152042746543884277e-01 -3.619173169136047363e-01 -3.979633748531341553e-01
5.965273380279541016e-01 -4.491109251976013184e-01 2.762675285339355469e-01
-4.334925115108489990e-01 -4.620592594146728516e-01 3.464047014713287354e-01
-6.810876727104187012e-01 2.045291960239410400e-01 1.245401799678802490e-01
-5.149845480918884277e-01 -1.478740572929382324e-01 -3.173974454402923584e-01
-1.016780585050582886e-01 2.493001669645309448e-01 -2.360274642705917358e-02
5.906898975372314453e-01 -3.133571147918701172e-01 2.646911740303039551e-01
-6.410960555076599121e-01 3.039595484733581543e-01 -4.972126707434654236e-02
6.412953734397888184e-01 -3.453027606010437012e-01 -8.370828628540039062e-02
6.248216032981872559e-01 -4.916516840457916260e-01 -5.832970887422561646e-02
3.332575559616088867e-01 6.443445682525634766e-01 -7.407283037900924683e-02
-4.096755087375640869e-01 3.903214931488037109e-01 -2.360274642705917358e-02
-6.625755429267883301e-01 -1.970824971795082092e-02 -4.972126707434654236e-02
-6.027333140373229980e-01 -3.402409553527832031e-01 -1.498003304004669189e-01
5.140540599822998047e-01 -3.154987692832946777e-01 -2.991215586662292480e-01
-3.076408803462982178e-01 -3.240151703357696533e-01 -3.696681261062622070e-01
9.052228927612304688e-02 5.858113169670104980e-01 3.464047014713287354e-01
-4.121143817901611328e-01 -3.133226633071899414e-01 -2.133963853120803833e-01
4.544144868850708008e-01 6.392266750335693359e-01 -2.360274642705917358e-02
6.770587563514709473e-01 -3.681907057762145996e-01 2.743207514286041260e-01
-3.808891773223876953e-01 -3.154987692832946777e-01 -1.267293393611907959e-01
1.145934462547302246e-01 3.599214553833007812e-02 -2.360274642705917358e-02
6.221661567687988281e-01 -1.573372930288314819e-01 -2.360274642705917358e-02
-4.394949600100517273e-02 4.486421644687652588e-01 3.681696355342864990e-01
-5.558039546012878418e-01 -5.552182197570800781e-01 -3.718461990356445312e-01
3.524265717715024948e-03 -1.739616841077804565e-01 -4.972126707434654236e-02
5.463284254074096680e-01 6.443445682525634766e-01 1.018617898225784302e-01
-4.617838263511657715e-01 -1.638754308223724365e-01 -2.360274642705917358e-02
4.751115441322326660e-01 -1.648346707224845886e-02 -1.468909829854965210e-01
-2.802452743053436279e-01 1.552347689867019653e-01 -4.972126707434654236e-02
-4.726377427577972412e-01 -3.588276449590921402e-03 -1.193782314658164978e-01
5.992873758077621460e-02 -3.270180225372314453e-01 -3.718461990356445312e-01
3.675023615360260010e-01 5.606085062026977539e-01 -1.541938632726669312e-01
-3.763755559921264648e-01 6.292634010314941406e-01 -8.996101468801498413e-02
6.115257740020751953e-01 5.875198841094970703e-01 -4.972126707434654236e-02
5.671288371086120605e-01 -5.171762704849243164e-01 -3.821282982826232910e-01
4.308661222457885742e-01 2.881510853767395020e-01 -4.972126707434654236e-02
1.597807407379150391e-01 -3.632357716560363770e-02 -4.972126707434654236e-02
-2.702643275260925293e-01 -3.598278462886810303e-01 3.464047014713287354e-01
-2.832234799861907959e-01 5.132027864456176758e-01 3.464047014713287354e-01
5.987034440040588379e-01 -4.965235292911529541e-01 3.337742686271667480e-01
-3.381886705756187439e-02 -4.417972266674041748e-01 -3.979633748531341553e-01
1.533272266387939453e-01 -2.326957136392593384e-01 -3.587010204792022705e-01
6.552938222885131836e-01 -5.720561742782592773e-01 -7.708359044045209885e-03
6.552938222885131836e-01 4.321939647197723389e-01 2.897818088531494141e-01
-6.005571484565734863e-01 -3.645235300064086914e-01 -1.807037144899368286e-01
-6.810876727104187012e-01 -1.424959395080804825e-02 7.006326317787170410e-02
-4.322297871112823486e-01 -3.439218997955322266e-01 -4.192657172679901123e-01
4.390843510627746582e-01 6.225796341896057129e-01 5.700125172734260559e-02
-5.417906641960144043e-01 -4.228087365627288818e-01 -3.820692598819732666e-01
-1.701735407114028931e-01 4.475930035114288330e-01 -1.541938632726669312e-01
4.842627942562103271e-01 -4.262879490852355957e-01 -3.696681261062622070e-01
-2.049695104360580444e-01 2.223090529441833496e-01 -2.025631368160247803e-01
6.552938222885131836e-01 4.174553453922271729e-01 9.606810659170150757e-02
3.638637065887451172e-01 -2.960743010044097900e-01 3.464047014713287354e-01
-6.810876727104187012e-01 -6.147333607077598572e-02 2.266729027032852173e-01
-8.038691245019435883e-03 -3.132872283458709717e-01 -1.589062958955764771e-01
-2.575659751892089844e-01 -2.719117701053619385e-01 -2.360274642705917358e-02
1.029570624232292175e-01 -3.548486828804016113e-01 -4.034060835838317871e-01
-3.502574265003204346e-01 2.214537709951400757e-01 -5.049378052353858948e-02
1.975421458482742310e-01 2.489232271909713745e-01 -4.972126707434654236e-02
-4.134191200137138367e-02 3.865175247192382812e-01 -1.541938632726669312e-01
-3.596478402614593506e-01 1.125461831688880920e-01 -4.972126707434654236e-02
6.770587563514709473e-01 2.426793575286865234e-01 2.268774807453155518e-02
-4.749152064323425293e-01 -5.832486152648925781e-01 -3.979633748531341553e-01
-6.755750775337219238e-01 6.443445682525634766e-01 3.583550453186035156e-01
1.198658794164657593e-01 4.335502088069915771e-01 3.464047014713287354e-01
1.748946681618690491e-02 3.969029486179351807e-01 3.681696355342864990e-01
6.464460492134094238e-02 -3.133571147918701172e-01 7.068430632352828979e-02
-6.027333140373229980e-01 -3.162881135940551758e-01 7.929864525794982910e-02
4.893669188022613525e-01 -3.154987692832946777e-01 9.081898629665374756e-02
-6.832447648048400879e-02 5.078575015068054199e-01 -1.541938632726669312e-01
-5.460611581802368164e-01 3.127338290214538574e-01 -2.360274642705917358e-02
-5.822271704673767090e-01 -2.208772599697113037e-01 -2.393826246261596680e-01
-6.593217849731445312e-01 -4.193738400936126709e-01 -1.895974040962755680e-03
-6.027333140373229980e-01 -6.052370071411132812e-01 -3.400865495204925537e-01
5.310406088829040527e-01 6.225796341896057129e-01 3.283305764198303223e-01
-9.246452152729034424e-02 1.667067855596542358e-01 -1.642102301120758057e-01
-5.417906641960144043e-01 -4.611518383026123047e-01 -3.958374559879302979e-01
-1.718250662088394165e-01 -4.164044857025146484e-01 3.442285954952239990e-01
2.490766346454620361e-01 5.611459016799926758e-01 -4.972126707434654236e-02
-2.298081517219543457e-01 3.848719298839569092e-01 3.464047014713287354e-01
9.579610824584960938e-02 -3.154987692832946777e-01 1.531362682580947876e-01
-3.312719166278839111e-01 6.225796341896057129e-01 4.555836692452430725e-02
-6.810876727104187012e-01 -4.000852108001708984e-01 1.330307126045227051e-01
-4.541187286376953125e-01 -2.298119813203811646e-01 -2.360274642705917358e-02
-4.542089626193046570e-02 -3.544628620147705078e-01 -3.718461990356445312e-01
6.552938222885131836e-01 -5.894945263862609863e-01 9.320551902055740356e-02
4.222670495510101318e-01 -5.779880285263061523e-01 -3.718461990356445312e-01
4.669809639453887939e-01 -2.419365197420120239e-01 3.464047014713287354e-01
6.770587563514709473e-01 1.686939150094985962e-01 8.897270262241363525e-02
6.552938222885131836e-01 9.499242156744003296e-02 1.742663830518722534e-01
3.478800356388092041e-01 -4.494061768054962158e-01 3.681696355342864990e-01
6.552938222885131836e-01 3.744573146104812622e-02 2.980767488479614258e-01
2.605486214160919189e-01 6.225796341896057129e-01 1.953945308923721313e-01
-4.121291339397430420e-01 -4.390837252140045166e-01 -3.979633748531341553e-01
6.552938222885131836e-01 4.751047790050506592e-01 1.176717281341552734e-01
-6.417672634124755859e-01 -3.471717834472656250e-01 -2.561743259429931641e-01
2.085705660283565521e-02 3.221084773540496826e-01 -2.360274642705917358e-02
3.025293648242950439e-01 2.095122933387756348e-01 -1.280757486820220947e-01
6.770587563514709473e-01 -2.563218176364898682e-01 1.022819578647613525e-01
3.226467370986938477e-01 -3.133571147918701172e-01 2.275557368993759155e-01
-6.810876727104187012e-01 -2.553976476192474365e-01 -3.370355069637298584e-02
5.079498887062072754e-01 6.443445682525634766e-01 1.408699899911880493e-01
1.322886496782302856e-01 8.063782751560211182e-02 -4.972126707434654236e-02
6.552938222885131836e-01 4.760663807392120361e-01 2.583892345428466797e-01
-2.541684806346893311e-01 6.225796341896057129e-01 1.301755011081695557e-01
-1.413950920104980469e-01 -3.031399548053741455e-01 -3.930048644542694092e-01
-3.169899582862854004e-01 -3.132872283458709717e-01 -3.279895782470703125e-01
3.723466694355010986e-01 2.982117533683776855e-01 -1.168074682354927063e-01
2.807083427906036377e-01 6.033735871315002441e-01 -1.541938632726669312e-01
-2.159090489149093628e-01 -4.993718862533569336e-01 -3.772003352642059326e-01
6.770587563514709473e-01 3.736380636692047119e-01 3.306542932987213135e-01
-3.069352209568023682e-01 5.946219563484191895e-01 -4.972126707434654236e-02
5.024038553237915039e-01 -3.133226633071899414e-01 -1.970662921667098999e-01
2.082376182079315186e-01 6.443445682525634766e-01 -6.159159168601036072e-02
-1.915654689073562622e-01 4.910593107342720032e-02 -4.972126707434654236e-02
6.552938222885131836e-01 2.447078227996826172e-01 3.172827661037445068e-01
-3.763755559921264648e-01 3.970171213150024414e-01 -1.361591070890426636e-01
-4.900239109992980957e-01 -3.154987692832946777e-01 6.091301143169403076e-02
3.867536187171936035e-01 5.828803181648254395e-01 -2.360274642705917358e-02
3.735700547695159912e-01 -4.126945510506629944e-02 -2.654849886894226074e-01
-6.201910227537155151e-02 -3.154987692832946777e-01 -2.969946563243865967e-01
5.987034440040588379e-01 -5.624167919158935547e-01 -2.597342431545257568e-01
9.222231805324554443e-02 -3.482829630374908447e-01 3.442285954952239990e-01
6.552938222885131836e-01 5.922362208366394043e-01 1.356654614210128784e-01
2.080181241035461426e-01 4.016370475292205811e-01 -2.360274642705917358e-02
-1.003330349922180176e-01 1.071512103080749512e-01 -4.972126707434654236e-02
-4.622266888618469238e-01 5.858713388442993164e-01 -2.360274642705917358e-02
3.637751340866088867e-01 6.225796341896057129e-01 7.127198576927185059e-02
-6.027333140373229980e-01 -4.156928956508636475e-01 -8.397206664085388184e-02
1.213746890425682068e-01 2.223090529441833496e-01 -1.544035077095031738e-01
-5.807045698165893555e-01 -4.550063908100128174e-01 -3.696681261062622070e-01
6.770587563514709473e-01 -9.193027019500732422e-02 2.336342632770538330e-01
-6.785946488380432129e-01 3.067915141582489014e-02 -4.972126707434654236e-02
-4.810429215431213379e-01 -3.133226633071899414e-01 -3.444013595581054688e-01
3.959806561470031738e-01 5.403336882591247559e-01 3.681696355342864990e-01
-6.713252663612365723e-01 6.443445682525634766e-01 2.071657478809356689e-01
-1.743108779191970825e-02 -3.314627408981323242e-01 3.681696355342864990e-01
6.770587563514709473e-01 -2.784515172243118286e-02 1.547552943229675293e-01
-1.640231907367706299e-01 4.941591918468475342e-01 -4.972126707434654236e-02
5.647499561309814453e-01 1.588970422744750977e-01 -4.972126707434654236e-02
3.008424341678619385e-01 4.809441268444061279e-01 -1.541938632726669312e-01
-2.457553744316101074e-01 3.763653337955474854e-01 -4.972126707434654236e-02
-6.027333140373229980e-01 -3.827236294746398926e-01 -2.668294310569763184e-01
-1.346886456012725830e-01 4.641278088092803955e-01 3.681696355342864990e-01
-5.224242210388183594e-01 -2.931108176708221436e-01 3.681696355342864990e-01
-1.627929359674453735e-01 6.225796341896057129e-01 5.589082837104797363e-03
3.361482322216033936e-01 -2.229234427213668823e-01 -3.539433181285858154e-01
1.908957362174987793e-01 -7.448820024728775024e-02 -2.816615700721740723e-01
-6.288514137268066406e-01 -5.407069325447082520e-01 -1.883451491594314575e-01
2.047790586948394775e-01 4.637321531772613525e-01 -2.360274642705917358e-02
-2.142181843519210815e-01 -3.133571147918701172e-01 -2.214669585227966309e-01
2.703163214027881622e-02 4.251075983047485352e-01 -2.360274642705917358e-02
5.278596282005310059e-01 6.118388772010803223e-01 -4.972126707434654236e-02
-5.722225904464721680e-01 -3.133226633071899414e-01 -3.174624145030975342e-01
4.106296896934509277e-01 -3.132872283458709717e-01 -2.162831127643585205e-01
6.423366665840148926e-01 -3.133226633071899414e-01 -1.441804617643356323e-01
1.857128441333770752e-01 -4.606351256370544434e-01 3.464047014713287354e-01
1.924153715372085571e-01 6.443445682525634766e-01 -1.302774399518966675e-01
-5.290253758430480957e-01 2.340566366910934448e-01 -4.972126707434654236e-02
3.593933880329132080e-01 -1.717452108860015869e-01 -2.360274642705917358e-02
-6.005571484565734863e-01 -3.235722780227661133e-01 -6.224009022116661072e-02
4.527698457241058350e-01 6.443445682525634766e-01 2.587524354457855225e-01
2.796493172645568848e-01 -3.133571147918701172e-01 3.200828433036804199e-01
-6.810876727104187012e-01 -1.117868125438690186e-01 -3.905050083994865417e-02
4.784096777439117432e-01 -2.302151359617710114e-02 -8.913230150938034058e-02
-5.110191702842712402e-01 -3.133226633071899414e-01 -1.976755112409591675e-01
2.128840833902359009e-01 -4.521314799785614014e-01 -3.718461990356445312e-01
6.770587563514709473e-01 -5.634363889694213867e-01 2.826393544673919678e-01
-2.690871953964233398e-01 1.797486245632171631e-01 -1.587586551904678345e-01
2.807240784168243408e-01 -3.133226633071899414e-01 -1.570628583431243896e-01
-6.027333140373229980e-01 -4.276048243045806885e-01 -3.074283301830291748e-01
6.343133449554443359e-01 -4.219042658805847168e-01 -2.360274642705917358e-02
-2.746500074863433838e-01 -3.133226633071899414e-01 -1.648548841476440430e-01
-4.375809729099273682e-01 6.489481031894683838e-02 -4.972126707434654236e-02
9.520301967859268188e-02 6.443445682525634766e-01 3.142277598381042480e-01
-3.395058810710906982e-01 5.801947414875030518e-02 -4.972126707434654236e-02
4.320718348026275635e-01 8.869184181094169617e-03 -2.410705685615539551e-01
-6.230553984642028809e-01 4.780653119087219238e-01 3.681696355342864990e-01
-6.810876727104187012e-01 3.516999185085296631e-01 1.141315177083015442e-01
1.929665207862854004e-01 1.078719571232795715e-01 -1.928597539663314819e-01
-3.334440886974334717e-01 -4.255871772766113281e-01 -3.979633748531341553e-01
5.667498707771301270e-01 -1.981792747974395752e-01 -6.410066038370132446e-02
-6.318542361259460449e-01 3.788091242313385010e-01 3.503700792789459229e-01
-2.508024573326110840e-01 -3.133571147918701172e-01 9.928492456674575806e-02
-3.705263435840606689e-01 -3.133571147918701172e-01 3.159540593624114990e-01
-3.533970713615417480e-01 -3.133226633071899414e-01 -2.299095690250396729e-01
5.851015448570251465e-01 -4.136339128017425537e-01 3.681696355342864990e-01
2.425315976142883301e-01 -1.145682111382484436e-01 -2.360274642705917358e-02
2.854817807674407959e-01 -3.133226633071899414e-01 -3.493706583976745605e-01
-6.810876727104187012e-01 5.334599018096923828e-01 1.792465150356292725e-01
-1.104562804102897644e-01 7.897686958312988281e-02 -2.069310843944549561e-01
6.770587563514709473e-01 -5.646618008613586426e-01 1.741640269756317139e-01
-5.532111972570419312e-02 -3.133226633071899414e-01 -9.489094465970993042e-02
4.801782965660095215e-01 -3.829716444015502930e-01 -3.819167017936706543e-01
5.122656822204589844e-01 -4.693808257579803467e-01 3.681696355342864990e-01
5.761976912617683411e-02 -3.133226633071899414e-01 -2.408943921327590942e-01
3.661638200283050537e-01 2.038707733154296875e-01 -1.941500753164291382e-01
1.098430599085986614e-03 -3.133571147918701172e-01 -4.625741764903068542e-02
3.569092452526092529e-01 6.443445682525634766e-01 -2.100225351750850677e-02
2.881371974945068359e-01 5.490931868553161621e-01 -2.360274642705917358e-02
3.857743144035339355e-01 1.897285580635070801e-01 -5.147061124444007874e-02
-7.573108188807964325e-03 1.507162302732467651e-01 -1.719963550567626953e-01
6.273283362388610840e-01 -3.645333349704742432e-01 3.681696355342864990e-01
6.552938222885131836e-01 -1.246190220117568970e-01 1.110067293047904968e-01
4.170450940728187561e-02 6.443445682525634766e-01 1.845711171627044678e-01
3.575342297554016113e-01 -3.133571147918701172e-01 -2.983705997467041016e-01
-6.027333140373229980e-01 -3.905087709426879883e-01 -2.825960516929626465e-03
-6.593217849731445312e-01 -4.786915481090545654e-01 4.930094256997108459e-02
6.552938222885131836e-01 -4.784543216228485107e-01 3.406263887882232666e-01
5.544708371162414551e-01 2.592446804046630859e-01 -4.972126707434654236e-02
4.353295564651489258e-01 2.167738229036331177e-01 -4.972126707434654236e-02
-3.479327261447906494e-01 -3.165764808654785156e-01 -3.979633748531341553e-01
2.105780690908432007e-01 3.323138058185577393e-01 -1.541938632726669312e-01
5.157133936882019043e-01 -1.361550092697143555e-01 -2.360274642705917358e-02
6.770587563514709473e-01 5.271343588829040527e-01 1.699033528566360474e-01
3.928517997264862061e-01 3.479189425706863403e-02 -4.972126707434654236e-02
