2.827858030796051025e-01 -4.940465688705444336e-01 4.829262197017669678e-02
-2.469771951436996460e-01 -2.772485315799713135e-01 2.230835258960723877e-01
5.187905579805374146e-02 -5.924031138420104980e-01 1.659754812717437744e-01
4.133842885494232178e-02 -4.899152517318725586e-01 2.932882308959960938e-01
-2.105971425771713257e-02 6.689801216125488281e-01 -1.566005125641822815e-02
-2.181100547313690186e-01 6.457665562629699707e-01 3.255208209156990051e-02
3.718205988407135010e-01 4.512305557727813721e-01 -5.925551801919937134e-02
2.869894206523895264e-01 3.043006360530853271e-01 8.298848569393157959e-02
-2.226456850767135620e-01 8.397629261016845703e-01 4.717182740569114685e-02
-2.674169242382049561e-01 2.634657919406890869e-01 -9.907706826925277710e-02
-3.127420321106910706e-02 4.415482580661773682e-01 3.772763311862945557e-01
-1.909097582101821899e-01 5.442587733268737793e-01 7.809309661388397217e-02
-4.603197053074836731e-02 7.753731608390808105e-01 1.185318920761346817e-03
2.340505123138427734e-01 -1.490498483180999756e-01 -3.423165157437324524e-02
-2.596006393432617188e-01 -2.350502014160156250e-01 1.534739434719085693e-01
2.669337987899780273e-01 2.695612311363220215e-01 3.249384164810180664e-01
-1.815258115530014038e-01 -1.763980835676193237e-01 2.072079926729202271e-01
-1.093937233090400696e-01 3.324738144874572754e-01 -3.989470303058624268e-01
2.194879353046417236e-01 3.649309277534484863e-01 -4.458196461200714111e-01
-1.653459481894969940e-02 -1.106003895401954651e-01 2.026446312665939331e-01
1.704921387135982513e-02 2.834149003028869629e-01 -2.737768590450286865e-01
1.704921387135982513e-02 3.579257428646087646e-01 -1.558295637369155884e-01
-1.342203170061111450e-01 3.326956927776336670e-01 -2.738088071346282959e-01
-2.413429617881774902e-01 -3.157702386379241943e-01 -2.670146226882934570e-01
-1.925874948501586914e-01 3.275061547756195068e-01 2.520960569381713867e-01
2.024650424718856812e-01 -7.660084962844848633e-02 -4.119589179754257202e-02
-2.811398208141326904e-01 -1.753288805484771729e-01 3.003605268895626068e-02
-1.743785887956619263e-01 -2.087963819503784180e-01 -2.698892951011657715e-01
-7.540519535541534424e-02 -1.265776455402374268e-01 -2.089239507913589478e-01
-2.203198820352554321e-01 2.643663585186004639e-01 -4.694568514823913574e-01
-2.846255339682102203e-02 -4.174755513668060303e-01 3.119005858898162842e-01
1.965635269880294800e-01 2.793820798397064209e-01 -3.266863226890563965e-01
-2.105971425771713257e-02 4.695932567119598389e-01 -1.956000924110412598e-02
8.682506531476974487e-02 2.679340243339538574e-01 4.380903840065002441e-01
-7.361220568418502808e-02 8.876702785491943359e-01 4.007343947887420654e-02
1.441642493009567261e-01 -5.893762111663818359e-01 -1.487875822931528091e-02
6.266344338655471802e-02 8.594092130661010742e-01 5.722417682409286499e-02
1.116087809205055237e-01 -2.691632509231567383e-01 -3.171477317810058594e-01
1.191157624125480652e-01 3.112338483333587646e-01 3.567222654819488525e-01
-1.075680479407310486e-01 -2.856489643454551697e-02 1.538269668817520142e-01
3.166769146919250488e-01 2.953287363052368164e-01 -1.058678999543190002e-01
2.467286400496959686e-02 -1.113291606307029724e-01 -1.813529580831527710e-01
3.902480304241180420e-01 3.273573517799377441e-01 -3.487516939640045166e-01
-2.605285942554473877e-01 -5.395827293395996094e-01 5.255196243524551392e-02
-1.652552187442779541e-01 -4.849442839622497559e-02 8.531513810157775879e-02
-2.871085703372955322e-01 2.975727617740631104e-01 -2.088886350393295288e-01
-3.623271360993385315e-02 2.710554599761962891e-01 3.974655866622924805e-01
-1.452592909336090088e-01 -1.113291606307029724e-01 1.812541112303733826e-02
-3.157932758331298828e-01 2.153489291667938232e-01 2.855845689773559570e-01
2.744458317756652832e-01 -3.236613869667053223e-01 -2.300512790679931641e-01
8.650061488151550293e-02 -1.113291606307029724e-01 -1.904040277004241943e-01
-3.620523214340209961e-01 2.715893387794494629e-01 5.464091300964355469e-01
-2.661056518554687500e-01 -3.666792213916778564e-01 -2.164527922868728638e-01
2.611196935176849365e-01 -5.139046311378479004e-01 -9.744892269372940063e-02
-4.729271307587623596e-02 3.526008427143096924e-01 4.424965679645538330e-01
-1.892664730548858643e-01 -1.065253838896751404e-01 -7.123995572328567505e-02
-3.250629305839538574e-01 -3.949764370918273926e-01 4.973030462861061096e-02
-7.703863829374313354e-02 -1.384596973657608032e-01 1.947551965713500977e-01
-1.412355750799179077e-01 -1.421841979026794434e-01 -1.897324323654174805e-01
6.325552612543106079e-02 -3.483544662594795227e-02 1.894067525863647461e-01
1.750226616859436035e-01 -2.460614740848541260e-01 2.470846772193908691e-01
-2.189977020025253296e-01 -4.622543454170227051e-01 2.266558706760406494e-01
1.704921387135982513e-02 3.762775659561157227e-01 -2.702347636222839355e-01
-2.080502547323703766e-02 -1.113291606307029724e-01 -4.475891217589378357e-02
2.427090704441070557e-01 -4.790385365486145020e-01 -1.888809502124786377e-01
-1.710079759359359741e-01 3.581325113773345947e-01 1.349548548460006714e-01
2.994607090950012207e-01 -1.985777467489242554e-01 3.145314380526542664e-02
-3.727105259895324707e-01 4.458392262458801270e-01 -4.268972203135490417e-02
-1.528721898794174194e-01 -3.779400885105133057e-01 3.014365434646606445e-01
2.848173975944519043e-01 -2.809040844440460205e-01 1.518314927816390991e-01
2.727681100368499756e-01 -4.723637104034423828e-01 -1.824994683265686035e-01
-3.000514209270477295e-01 -2.229731231927871704e-01 9.256742894649505615e-02
1.302514076232910156e-01 3.328436613082885742e-01 2.085402756929397583e-01
2.187465578317642212e-01 8.448078632354736328e-01 6.730863451957702637e-02
3.474975749850273132e-02 -2.267699241638183594e-01 2.888173162937164307e-01
1.570096015930175781e-01 -1.165414303541183472e-01 1.443682312965393066e-01
2.158163934946060181e-01 7.050684094429016113e-01 1.186640933156013489e-01
3.374436497688293457e-01 -3.370530605316162109e-01 -2.016108110547065735e-02
8.876926451921463013e-02 -5.120714306831359863e-01 2.473889738321304321e-01
4.655221849679946899e-02 -1.113291606307029724e-01 7.466448098421096802e-02
-1.316910833120346069e-01 -2.836316451430320740e-02 -1.617142707109451294e-01
-2.105971425771713257e-02 5.231752395629882812e-01 3.895247727632522583e-02
2.610322833061218262e-01 2.593397796154022217e-01 2.194817513227462769e-01
-4.836568534374237061e-01 7.134453654289245605e-01 -4.077368229627609253e-02
6.219239160418510437e-02 -5.004239082336425781e-01 -2.906913161277770996e-01
3.103618621826171875e-01 3.447811901569366455e-01 2.202315032482147217e-01
1.704921387135982513e-02 5.888333320617675781e-01 3.653017058968544006e-02
1.327033191919326782e-01 -1.720726042985916138e-01 -2.638734579086303711e-01
-4.618435725569725037e-02 -1.939614564180374146e-01 -2.901491522789001465e-01
1.543148420751094818e-02 -5.446403622627258301e-01 -2.524528503417968750e-01
-1.821747273206710815e-01 -5.433668494224548340e-01 1.443396508693695068e-01
1.720765084028244019e-01 -3.968743979930877686e-01 -3.156784474849700928e-01
4.784751310944557190e-02 3.568700253963470459e-01 -4.269441962242126465e-01
-3.210273757576942444e-02 -5.049418210983276367e-01 2.648548185825347900e-01
2.182977050542831421e-01 -3.124803304672241211e-01 2.580740749835968018e-01
-6.379210948944091797e-02 -8.180302381515502930e-02 1.659057289361953735e-01
-3.476368486881256104e-01 3.067940473556518555e-01 2.117041051387786865e-01
-2.920148670673370361e-01 -3.652998208999633789e-01 1.800648421049118042e-01
-2.740161120891571045e-01 -5.098834633827209473e-01 -1.195394918322563171e-01
5.981984734535217285e-02 8.149661007337272167e-04 -2.273749411106109619e-01
-6.345008313655853271e-02 -5.218478441238403320e-01 -2.726572453975677490e-01
-3.349965810775756836e-01 3.805173039436340332e-01 -2.904374897480010986e-01
6.651838868856430054e-02 -1.113291606307029724e-01 -1.011212989687919617e-01
1.306800991296768188e-01 -3.930550068616867065e-02 1.309227198362350464e-01
2.342682182788848877e-01 -1.927502155303955078e-01 1.714516878128051758e-01
-2.105971425771713257e-02 3.907317221164703369e-01 2.849045395851135254e-01
-1.321668475866317749e-01 -5.871488451957702637e-01 6.039482355117797852e-02
3.289414346218109131e-01 -3.774248361587524414e-01 -1.329168975353240967e-01
4.515218734741210938e-01 6.166236996650695801e-01 1.007754355669021606e-01
1.753008812665939331e-01 5.009736418724060059e-01 4.216734319925308228e-02
-2.687416374683380127e-01 2.689993977546691895e-01 -3.081445693969726562e-01
2.399100065231323242e-01 -5.218671560287475586e-01 1.432729810476303101e-01
-3.449159562587738037e-01 -3.067721128463745117e-01 -4.556643217802047729e-02
-4.405028522014617920e-01 5.649254918098449707e-01 -2.946789935231208801e-02
-1.264132410287857056e-01 -3.839021325111389160e-01 -3.372983038425445557e-01
2.178001105785369873e-01 7.996298074722290039e-01 -5.058848485350608826e-02
-2.023042365908622742e-02 -3.289316594600677490e-01 -3.629393875598907471e-01
3.126557171344757080e-01 2.498380690813064575e-01 -1.842915266752243042e-01
1.874577999114990234e-01 -1.113291606307029724e-01 -3.998112305998802185e-02
-1.184177526738494635e-04 -2.785009443759918213e-01 3.300557136535644531e-01
1.024215370416641235e-01 -5.999773740768432617e-01 1.084665060043334961e-01
4.425455927848815918e-01 5.857325196266174316e-01 3.322671353816986084e-02
2.838264107704162598e-01 -4.356533885002136230e-01 -1.651285886764526367e-01
1.134538650512695312e-02 -6.100564002990722656e-01 -6.517822295427322388e-02
4.868696630001068115e-01 7.382795810699462891e-01 3.008563769981265068e-03
-2.916854023933410645e-01 -4.078839719295501709e-01 -1.956978440284729004e-01
2.621107734739780426e-02 4.026087224483489990e-01 -3.388499915599822998e-01
-9.597261250019073486e-02 3.932265043258666992e-01 -5.157452821731567383e-01
1.978335827589035034e-01 -2.833492457866668701e-01 -2.733397781848907471e-01
2.149447351694107056e-01 3.479769825935363770e-01 -5.231194496154785156e-01
8.095271140336990356e-02 -1.810950934886932373e-01 2.467778921127319336e-01
2.482525110244750977e-01 3.396041989326477051e-01 5.441522598266601562e-01
-2.105971425771713257e-02 2.934648990631103516e-01 2.027707099914550781e-01
-2.113066017627716064e-01 3.194443881511688232e-01 4.366067945957183838e-01
-2.147108614444732666e-01 -2.560817003250122070e-01 -2.481668889522552490e-01
-2.861873209476470947e-01 2.181513160467147827e-01 1.754829883575439453e-01
-2.138392031192779541e-01 -5.593432784080505371e-01 -5.275526270270347595e-02
-2.610228359699249268e-01 -5.261053442955017090e-01 -1.464694039896130562e-03
-1.833691447973251343e-01 2.225021272897720337e-01 3.264833688735961914e-01
-1.532411873340606689e-01 2.964530587196350098e-01 1.300746053457260132e-01
-4.513711109757423401e-02 -2.185047715902328491e-01 2.827342152595520020e-01
-2.809641361236572266e-01 2.503466010093688965e-01 9.152094274759292603e-02
5.683378502726554871e-02 3.017394542694091797e-01 -3.175764381885528564e-01
3.227222338318824768e-02 3.426882326602935791e-01 -2.000636756420135498e-01
-3.138306140899658203e-01 -3.509759902954101562e-01 -1.679982542991638184e-01
1.348745170980691910e-02 -1.113291606307029724e-01 -6.480501592159271240e-02
2.468866109848022461e-01 -4.406563639640808105e-01 2.136213928461074829e-01
1.239069253206253052e-01 -2.568617165088653564e-01 2.968319952487945557e-01
4.481630027294158936e-01 6.050643920898437500e-01 -6.537398695945739746e-02
-5.095071718096733093e-02 -2.124200016260147095e-02 1.840314120054244995e-01
1.818899661302566528e-01 2.613220512866973877e-01 -2.613845765590667725e-01
-5.146648362278938293e-02 3.125257790088653564e-01 2.960586845874786377e-01
-2.867068052291870117e-01 3.571163117885589600e-01 -4.241871237754821777e-01
-2.238375991582870483e-01 8.967314362525939941e-01 -1.847565756179392338e-03
1.869728118181228638e-01 -5.011921525001525879e-01 -2.490149885416030884e-01
-2.638874351978302002e-01 -4.779684841632843018e-01 1.626115888357162476e-01
1.548073440790176392e-01 4.244967699050903320e-01 -1.667071692645549774e-02
-1.935348063707351685e-01 -1.444570422172546387e-01 1.103854849934577942e-01
1.704921387135982513e-02 5.360684990882873535e-01 8.112077414989471436e-02
-2.921039052307605743e-02 -5.810118913650512695e-01 -1.828768849372863770e-01
-5.051431059837341309e-01 7.873947620391845703e-01 3.032898530364036560e-02
-2.994050383567810059e-01 -2.449510842561721802e-01 -1.469163149595260620e-01
4.389211535453796387e-02 4.570917487144470215e-01 -2.473750710487365723e-01
-6.083596125245094299e-02 3.311432301998138428e-01 3.368020057678222656e-01
-3.725532814860343933e-02 -5.955165028572082520e-01 5.014410614967346191e-02
-2.320682853460311890e-01 1.124790031462907791e-02 -9.907178580760955811e-03
1.890641003847122192e-01 -1.996015608310699463e-01 2.012829333543777466e-01
-3.449201583862304688e-01 2.419158518314361572e-01 4.548947215080261230e-01
2.995347417891025543e-02 -1.383781731128692627e-01 -2.327637374401092529e-01
-1.869675517082214355e-01 -7.699760049581527710e-02 1.630595140159130096e-02
2.123171687126159668e-01 6.391152739524841309e-01 -4.393123090267181396e-03
6.224206835031509399e-02 3.293687999248504639e-01 -4.855526089668273926e-01
-1.296922415494918823e-01 -5.605199933052062988e-01 1.933481097221374512e-01
1.965450197458267212e-01 -2.780421450734138489e-02 -1.017475053668022156e-01
2.005536258220672607e-01 5.952156782150268555e-01 5.466191470623016357e-02
-2.060069292783737183e-01 6.005994081497192383e-01 -2.973208390176296234e-02
9.362345933914184570e-02 3.862078487873077393e-01 5.359804034233093262e-01
1.879898607730865479e-01 -4.199812412261962891e-01 2.531677484512329102e-01
-8.558303117752075195e-02 3.249869942665100098e-01 -4.846985936164855957e-01
-1.466781497001647949e-01 -1.113291606307029724e-01 -7.552400976419448853e-02
-5.647736042737960815e-02 -3.197359740734100342e-01 3.318250775337219238e-01
-4.872754216194152832e-01 7.258990406990051270e-01 7.770728319883346558e-02
3.006247105076909065e-03 -2.067462503910064697e-01 -3.239848017692565918e-01
1.704921387135982513e-02 3.134167790412902832e-01 -9.548429399728775024e-02
3.128515779972076416e-01 -2.156788408756256104e-01 -5.030294880270957947e-02
3.380497172474861145e-02 -2.652311325073242188e-01 -3.331359028816223145e-01
2.106806188821792603e-01 -5.573310256004333496e-01 5.737791210412979126e-02
-3.033590018749237061e-01 1.699283421039581299e-01 4.063040018081665039e-01
3.565460443496704102e-01 2.689852118492126465e-01 -4.990527033805847168e-01
1.582628637552261353e-01 -5.313671231269836426e-01 2.145594656467437744e-01
-1.354332417249679565e-01 3.372262716293334961e-01 -1.887506693601608276e-01
2.960749566555023193e-01 -1.986752450466156006e-01 -8.401687443256378174e-02
1.037143021821975708e-01 -1.456086188554763794e-01 1.934313178062438965e-01
3.505503833293914795e-01 4.143899381160736084e-01 4.670742526650428772e-02
1.417308598756790161e-01 -5.893813371658325195e-01 -1.451150178909301758e-01
-1.290929466485977173e-01 -4.439941644668579102e-01 2.926847040653228760e-01
-2.035676538944244385e-01 -3.175841569900512695e-01 2.702141702175140381e-01
-2.928075194358825684e-01 3.074437975883483887e-01 -5.419588461518287659e-02
2.806961834430694580e-01 -4.447279572486877441e-01 1.665176451206207275e-01
4.221730828285217285e-01 5.384421348571777344e-01 7.088980823755264282e-02
-2.250463068485260010e-01 -4.291718304157257080e-01 2.402560263872146606e-01
-2.754811942577362061e-01 -4.841750860214233398e-01 9.277000278234481812e-02
-2.580607235431671143e-01 -1.635872125625610352e-01 -1.046255677938461304e-01
-1.591519713401794434e-01 -2.691531777381896973e-01 2.708479464054107666e-01
-1.772104054689407349e-01 -1.014501377940177917e-01 1.019740626215934753e-01
1.485242098569869995e-01 4.010410904884338379e-01 2.659164369106292725e-01
-1.145194172859191895e-01 -5.341191291809082031e-01 -2.376826405525207520e-01
-3.745790570974349976e-02 -3.669918775558471680e-01 3.344904780387878418e-01
1.704921387135982513e-02 6.584782600402832031e-01 -4.752088710665702820e-02
-9.664184181019663811e-04 3.602557778358459473e-01 9.043746441602706909e-02
-1.216431185603141785e-01 2.937953770160675049e-01 -3.100164830684661865e-01
-2.456121444702148438e-01 -5.045215487480163574e-01 -1.824624836444854736e-01
2.422173321247100830e-01 -1.375855356454849243e-01 1.397341676056385040e-02
-1.990479975938796997e-01 -3.758573532104492188e-02 -8.049806952476501465e-02
3.242856264114379883e-01 -2.887052297592163086e-01 -6.428924947977066040e-02
2.006133049726486206e-01 -1.199431568384170532e-01 8.708786219358444214e-02
-1.484601348638534546e-01 -6.018341183662414551e-01 -4.773438349366188049e-02
2.131434381008148193e-01 6.421967148780822754e-01 1.294559538364410400e-01
2.669857582077383995e-03 -4.623619616031646729e-01 2.970950901508331299e-01
1.589546352624893188e-01 -3.485030531883239746e-01 -3.258071243762969971e-01
-8.488108962774276733e-02 -5.990065336227416992e-01 1.256364881992340088e-01
1.690026074647903442e-01 -5.946574807167053223e-01 4.300965741276741028e-02
4.348873719573020935e-02 2.726348042488098145e-01 -2.457318007946014404e-01
1.639853417873382568e-01 -1.208778396248817444e-01 -1.681907176971435547e-01
-2.004466801881790161e-01 3.133932352066040039e-01 2.978759706020355225e-01
-2.669579982757568359e-01 -2.056896686553955078e-01 -1.702357977628707886e-01
2.180262207984924316e-01 8.104435801506042480e-01 1.143839024007320404e-02
5.987650528550148010e-02 3.970560431480407715e-01 -4.759165048599243164e-01
2.407582104206085205e-02 7.023038268089294434e-01 -5.947835743427276611e-03
-1.528578996658325195e-01 -5.127950906753540039e-01 2.373871952295303345e-01
-4.709686934947967529e-01 6.697786450386047363e-01 1.769387163221836090e-02
3.011266887187957764e-01 3.287846148014068604e-01 3.323890864849090576e-01
8.012560009956359863e-02 -3.849881291389465332e-01 -3.534125685691833496e-01
-6.083596125245094299e-02 4.220549464225769043e-01 4.158291220664978027e-01
-4.401792287826538086e-01 5.638126134872436523e-01 7.002782076597213745e-02
7.617256045341491699e-02 3.354182541370391846e-01 -5.422714948654174805e-01
2.067468315362930298e-01 3.183635883033275604e-03 1.070947200059890747e-01
1.484544426202774048e-01 -1.790130585432052612e-01 2.356615513563156128e-01
3.665545582771301270e-02 1.124790031462907791e-02 2.162338495254516602e-01
4.229279607534408569e-02 -1.021276265382766724e-01 1.785888373851776123e-01
1.790724396705627441e-01 -4.231550917029380798e-02 9.564889967441558838e-02
1.225334554910659790e-01 -5.827443003654479980e-01 1.512262970209121704e-01
2.387937605381011963e-01 2.085875254124403000e-03 -8.962363004684448242e-03
1.704921387135982513e-02 4.236688017845153809e-01 2.836881764233112335e-02
-2.105971425771713257e-02 6.266481876373291016e-01 6.337374448776245117e-02
2.938769161701202393e-01 -2.339474260807037354e-01 -1.488226950168609619e-01
2.684711813926696777e-01 -5.199566483497619629e-01 2.265851013362407684e-03
1.290394086390733719e-02 -6.068362593650817871e-01 1.195290237665176392e-01
3.182033598423004150e-01 -4.406428337097167969e-01 7.218139246106147766e-03
2.167695909738540649e-01 -5.590701103210449219e-01 -1.301279515027999878e-01
5.106027051806449890e-02 -5.927754640579223633e-01 -1.271095275878906250e-01
-4.153223931789398193e-01 5.196440219879150391e-01 2.139247581362724304e-02
-2.608252316713333130e-02 2.533588111400604248e-01 3.561389148235321045e-01
2.938676998019218445e-02 2.864761352539062500e-01 -3.517802059650421143e-01
3.127792775630950928e-01 -4.289616942405700684e-01 1.167022436857223511e-01
-2.142485529184341431e-01 -1.472409814596176147e-01 7.574207335710525513e-02
-1.509280055761337280e-01 3.950530290603637695e-01 -1.832374781370162964e-01
3.172232806682586670e-01 -2.888313531875610352e-01 7.860751450061798096e-02
-3.166481256484985352e-01 2.440808564424514771e-01 2.301046550273895264e-01
1.704921387135982513e-02 4.115236401557922363e-01 -1.309424340724945068e-01
5.581368505954742432e-02 -5.582942366600036621e-01 2.009517401456832886e-01
1.006849482655525208e-01 -1.891694515943527222e-01 -2.911393344402313232e-01
-2.177023887634277344e-01 1.917493492364883423e-01 -3.308504223823547363e-01
2.697563767433166504e-01 3.229864835739135742e-01 4.344995617866516113e-01
3.654903769493103027e-01 2.844757437705993652e-01 -3.880021870136260986e-01
2.152860015630722046e-01 6.797475814819335938e-01 -6.950093805789947510e-02
1.071210727095603943e-01 2.465036809444427490e-01 3.095453679561614990e-01
-3.157932758331298828e-01 -3.274354338645935059e-01 1.367973536252975464e-01
4.701628088951110840e-01 6.807882189750671387e-01 -5.821230262517929077e-02
-1.419945955276489258e-01 -5.721633434295654297e-01 -1.459891945123672485e-01
-1.065560057759284973e-01 -2.879563271999359131e-01 -3.234922289848327637e-01
-1.736817657947540283e-01 -7.804215420037508011e-04 1.491988748311996460e-01
-2.966757416725158691e-01 3.313651084899902344e-01 -3.366107642650604248e-01
1.716184169054031372e-01 4.872339367866516113e-01 -1.552188117057085037e-02
-7.678067684173583984e-02 -1.113291606307029724e-01 6.947793066501617432e-02
5.683378502726554871e-02 4.549230933189392090e-01 -3.358685374259948730e-01
-2.007400244474411011e-01 -1.118822470307350159e-01 -9.734579361975193024e-03
-1.975921541452407837e-01 1.124790031462907791e-02 -1.187871992588043213e-01
-2.525382302701473236e-02 -3.599489033222198486e-01 -3.478237390518188477e-01
5.266236513853073120e-02 8.186960816383361816e-01 7.532673887908458710e-03
1.451485455036163330e-01 -3.549459278583526611e-01 2.896502912044525146e-01
-3.778160512447357178e-01 4.546819031238555908e-01 9.169745445251464844e-02
-1.208286136388778687e-01 -1.528331637382507324e-01 1.949266791343688965e-01
3.484893441200256348e-01 -3.665438890457153320e-01 -4.732444882392883301e-02
-1.010613217949867249e-01 2.881981432437896729e-01 -3.850585818290710449e-01
1.990624815225601196e-01 -1.897376775741577148e-01 -2.100813835859298706e-01
1.096889525651931763e-01 -6.069614291191101074e-01 5.967523157596588135e-02
-3.319815099239349365e-01 -4.157515764236450195e-01 -1.022199019789695740e-01
-2.820913195610046387e-01 2.888828814029693604e-01 -1.516360193490982056e-01
5.683378502726554871e-02 3.543735742568969727e-01 -3.002072274684906006e-01
9.429758787155151367e-02 -4.808314442634582520e-01 -3.155725300312042236e-01
-2.217639386653900146e-01 7.976806163787841797e-01 5.432535707950592041e-02
3.266097307205200195e-01 -2.493144124746322632e-01 -6.471625715494155884e-02
2.597815394401550293e-01 -2.336826473474502563e-01 1.531915068626403809e-01
-2.146226167678833008e-01 -1.759736090898513794e-01 -1.698441058397293091e-01
-2.466409653425216675e-01 2.916752099990844727e-01 -4.322405159473419189e-01
-2.159111797809600830e-01 -5.285101532936096191e-01 1.650449931621551514e-01
2.591452933847904205e-02 7.097907066345214844e-01 8.522351831197738647e-02
-5.892235785722732544e-02 3.550031781196594238e-01 4.898466169834136963e-01
1.071941927075386047e-01 -4.155700206756591797e-01 3.119131922721862793e-01
-2.217404246330261230e-01 2.979690730571746826e-01 -5.328572392463684082e-01
1.222510263323783875e-01 -5.189824700355529785e-01 -2.737600505352020264e-01
-1.708894520998001099e-01 4.695445299148559570e-01 -2.210011146962642670e-02
1.972704231739044189e-01 -5.569209903478622437e-02 4.570632055401802063e-02
-6.083596125245094299e-02 3.657967150211334229e-01 5.721090435981750488e-01
9.409753233194351196e-02 -6.091259121894836426e-01 -2.631103247404098511e-02
1.418401300907135010e-01 3.761052489280700684e-01 1.181226875633001328e-02
-2.513455450534820557e-01 -3.629656434059143066e-01 -2.593428790569305420e-01
-3.093084394931793213e-01 -2.959356904029846191e-01 -1.648730635643005371e-01
-1.418037861585617065e-01 -3.500992655754089355e-01 -3.169964253902435303e-01
1.273170411586761475e-01 3.569910824298858643e-01 3.726826906204223633e-01
-6.083596125245094299e-02 3.340691626071929932e-01 4.141505360603332520e-01
8.784465491771697998e-02 -4.842440187931060791e-01 2.898486554622650146e-01
2.925673127174377441e-01 3.139614462852478027e-01 2.728727646172046661e-02
1.736038029193878174e-01 -7.266131695359945297e-03 -1.365085840225219727e-01
3.079452514648437500e-01 -4.826780557632446289e-01 -8.646977692842483521e-02
4.103700518608093262e-01 5.179998874664306641e-01 1.216917783021926880e-01
-1.912266463041305542e-01 -5.645572543144226074e-01 -1.549419313669204712e-01
-4.797734320163726807e-02 -5.849010944366455078e-01 1.829958558082580566e-01
1.704921387135982513e-02 5.936421751976013184e-01 -2.659624442458152771e-03
-1.268226057291030884e-01 -9.800976514816284180e-02 -1.598263829946517944e-01
2.867960929870605469e-01 1.616129875183105469e-01 -2.727076709270477295e-01
-1.997733302414417267e-02 -5.141029879450798035e-02 1.764496266841888428e-01
1.343785375356674194e-01 3.482442498207092285e-01 2.442629486322402954e-01
4.938437789678573608e-02 -3.398293852806091309e-01 3.184005916118621826e-01
-3.396803047508001328e-03 3.301572501659393311e-01 -5.483630672097206116e-02
-1.072074472904205322e-01 -3.415214419364929199e-01 3.206171393394470215e-01
7.225701212882995605e-02 -6.098690032958984375e-01 2.794374898076057434e-02
1.906670331954956055e-01 2.573746442794799805e-01 -3.837044537067413330e-01
-3.123562633991241455e-01 -3.925430476665496826e-01 -1.240927726030349731e-01
1.114389896392822266e-01 5.776732694357633591e-03 -2.235807031393051147e-01
1.797550357878208160e-02 -1.633543670177459717e-01 2.603982090950012207e-01
7.645944505929946899e-02 -1.113291606307029724e-01 1.403772830963134766e-01
-1.341539025306701660e-01 4.137553274631500244e-01 -3.872246742248535156e-01
3.375293612480163574e-01 2.633258402347564697e-01 -2.445356994867324829e-01
2.148195058107376099e-01 -2.218972593545913696e-01 2.024882882833480835e-01
-2.196549922227859497e-01 6.969125866889953613e-01 1.251363605260848999e-01
1.850899606943130493e-01 5.375074744224548340e-01 -6.428092718124389648e-02
-1.974585056304931641e-01 -3.278817832469940186e-01 -2.836844623088836670e-01
-2.364013344049453735e-01 -1.538325697183609009e-01 2.726794406771659851e-02
-3.273575752973556519e-02 7.212356328964233398e-01 -1.875324733555316925e-02
-1.191542297601699829e-01 2.764725983142852783e-01 -1.788976937532424927e-01
-3.388891816139221191e-01 2.314685285091400146e-01 3.971814513206481934e-01
-1.942433863878250122e-01 2.557605206966400146e-01 3.784312605857849121e-01
-1.055926829576492310e-02 -4.486717879772186279e-01 -3.285246193408966064e-01
-1.674036830663681030e-01 -5.210602879524230957e-01 -2.447197735309600830e-01
1.328495740890502930e-01 4.054657816886901855e-01 4.020003676414489746e-01
2.155625522136688232e-01 6.929325461387634277e-01 2.400155365467071533e-02
4.098077863454818726e-02 3.259015083312988281e-01 -3.989856839179992676e-01
2.342034876346588135e-01 -3.152053952217102051e-01 -2.543037533760070801e-01
9.779764711856842041e-02 -5.693122148513793945e-01 -2.213490009307861328e-01
-4.648024141788482666e-01 6.485571861267089844e-01 4.701758548617362976e-02
-2.336846105754375458e-02 6.981258280575275421e-03 -2.344448566436767578e-01
-2.061994224786758423e-01 3.003774583339691162e-01 5.550702214241027832e-01
4.582807421684265137e-01 6.398852467536926270e-01 3.257847577333450317e-02
-1.060155332088470459e-01 -1.113291606307029724e-01 1.288835406303405762e-01
2.334882505238056183e-02 -3.645601123571395874e-02 -2.066073864698410034e-01
-2.795662879943847656e-01 -2.146054208278656006e-01 1.319246739149093628e-01
1.601129770278930664e-02 -5.790147781372070312e-01 1.654972136020660400e-01
2.314750701189041138e-01 -3.540524244308471680e-01 2.501434385776519775e-01
-9.793372824788093567e-03 -5.705722570419311523e-01 -2.410692423582077026e-01
3.354918658733367920e-01 -4.129793941974639893e-01 -8.594552427530288696e-02
1.999089121818542480e-01 -1.269609332084655762e-01 -1.317829936742782593e-01
-1.734985411167144775e-01 -4.501604735851287842e-01 2.485085725784301758e-01
-1.009293571114540100e-01 -2.459479868412017822e-01 3.005833923816680908e-01
2.854419350624084473e-01 3.016197085380554199e-01 1.986057758331298828e-01
-3.294934332370758057e-02 3.737206161022186279e-01 2.206652462482452393e-01
-2.523197531700134277e-01 -5.461214184761047363e-01 -8.165399730205535889e-02
-1.559427380561828613e-01 -3.177163004875183105e-02 1.324054598808288574e-01
3.069517016410827637e-01 1.830846816301345825e-01 -4.336593747138977051e-01
4.184192419052124023e-02 -3.839710652828216553e-01 3.175037205219268799e-01
1.347777992486953735e-01 -1.113291606307029724e-01 -5.041037499904632568e-02
4.945364221930503845e-02 -5.748229026794433594e-01 -2.280112504959106445e-01
-2.927024662494659424e-01 -4.162020683288574219e-01 1.651450097560882568e-01
-3.724944591522216797e-02 -8.897043764591217041e-02 -2.013539224863052368e-01
2.525351345539093018e-01 2.446216642856597900e-01 2.831545174121856689e-01
-2.087605893611907959e-01 6.108751893043518066e-01 6.463726609945297241e-02
2.184775769710540771e-01 -1.677126437425613403e-01 -1.499170958995819092e-01
6.243220716714859009e-02 -2.971065938472747803e-01 -3.374874591827392578e-01
2.014454454183578491e-01 -1.296859979629516602e-01 -8.340411633253097534e-02
-9.708213806152343750e-02 -6.087485551834106445e-01 -4.172215983271598816e-02
-1.988344937562942505e-01 -4.060498997569084167e-02 5.135114490985870361e-02
2.823520600795745850e-01 -4.962673187255859375e-01 1.015588268637657166e-01
2.362981587648391724e-01 -1.702343076467514038e-01 9.473774582147598267e-02
-1.077100932598114014e-01 -1.982129663228988647e-01 -2.953253090381622314e-01
-1.866548806428909302e-01 -5.870236158370971680e-01 4.969625920057296753e-02
-3.131800293922424316e-01 -4.105107188224792480e-01 8.572196215391159058e-02
-8.275171369314193726e-02 -3.599455580115318298e-02 -1.897837072610855103e-01
1.810317635536193848e-01 -4.294147193431854248e-01 -2.814863920211791992e-01
1.653899103403091431e-01 -2.530245780944824219e-01 -3.040216565132141113e-01
-2.382723614573478699e-02 6.849632263183593750e-01 -9.296221286058425903e-02
-1.204982697963714600e-01 -5.760123133659362793e-01 -1.942066997289657593e-01
4.884280562400817871e-01 7.436430454254150391e-01 5.837573111057281494e-02
-8.581259101629257202e-02 -3.750805258750915527e-01 -3.544355332851409912e-01
-6.556609272956848145e-02 -5.898873805999755859e-01 -1.931543350219726562e-01
-2.534511387348175049e-01 -4.585626125335693359e-01 -1.909419894218444824e-01
1.974318027496337891e-01 -2.157065421342849731e-01 -2.585602998733520508e-01
3.976575136184692383e-01 4.959807693958282471e-01 -7.048404961824417114e-02
-1.068695411086082458e-01 -3.027811944484710693e-01 3.166077136993408203e-01
1.438658684492111206e-01 3.111598789691925049e-01 -5.930577963590621948e-02
-2.179806232452392578e-01 3.443524837493896484e-01 4.876653552055358887e-01
2.423215657472610474e-01 -5.239626765251159668e-01 -1.638501137495040894e-01
1.047717183828353882e-01 -3.100284337997436523e-01 3.035370707511901855e-01
-1.083413511514663696e-01 -4.826041162014007568e-01 -3.085698783397674561e-01
-2.057110667228698730e-01 -2.202261984348297119e-01 2.076047360897064209e-01
2.565613985061645508e-01 -4.322272837162017822e-01 -2.075462788343429565e-01
1.561320573091506958e-01 4.294358491897583008e-01 3.086131811141967773e-01
1.824817992746829987e-02 3.810796439647674561e-01 -3.064289987087249756e-01
-1.891740113496780396e-01 -1.822970956563949585e-01 -2.332554608583450317e-01
3.074569106101989746e-01 -4.905616343021392822e-01 1.920400932431221008e-02
9.056469053030014038e-02 -4.304452836513519287e-01 -3.247463405132293701e-01
-4.294579103589057922e-02 -1.113291606307029724e-01 -9.208593517541885376e-02
1.349089294672012329e-01 -2.112263441085815430e-02 -1.648646593093872070e-01
1.779191941022872925e-01 -5.923661589622497559e-01 -6.879109144210815430e-02
-3.235574960708618164e-01 -4.236804544925689697e-01 -4.017344117164611816e-02
1.258032023906707764e-01 -7.984288036823272705e-02 1.298737078905105591e-01
5.009413361549377441e-01 7.867231369018554688e-01 -1.140987500548362732e-02
-2.398534305393695831e-02 -5.314099788665771484e-01 -2.666834294795989990e-01
7.709725946187973022e-02 -5.939723849296569824e-01 -8.488003909587860107e-02
-2.669848799705505371e-01 -1.762232333421707153e-01 -4.057179205119609833e-03
-3.490934967994689941e-01 -3.721234798431396484e-01 1.082049962133169174e-02
3.025169670581817627e-01 -3.483114242553710938e-01 1.331644803285598755e-01
-2.907742261886596680e-01 1.700559258460998535e-01 2.895721495151519775e-01
-2.294482886791229248e-01 -1.750910282135009766e-01 1.225348487496376038e-01
3.198558986186981201e-01 2.054349929094314575e-01 -3.312866985797882080e-01
2.084943205118179321e-01 -5.474048852920532227e-01 1.011788994073867798e-01
-1.975038945674896240e-01 -5.872319936752319336e-01 -1.521830726414918900e-02
2.277892231941223145e-01 1.124790031462907791e-02 -4.569511860609054565e-02
3.085588514804840088e-01 -4.643817245960235596e-01 -2.407616935670375824e-02
-3.409653604030609131e-01 -4.155758619308471680e-01 8.031627163290977478e-03
3.453364372253417969e-01 2.495684325695037842e-01 -4.297911226749420166e-01
1.270077228546142578e-01 -9.372796863317489624e-02 -1.777427792549133301e-01
-3.477066159248352051e-01 4.025322496891021729e-01 -3.029424697160720825e-02
1.704921387135982513e-02 4.394972622394561768e-01 -2.674811184406280518e-01
-2.812608480453491211e-01 2.874436676502227783e-01 -2.661194205284118652e-01
-2.182117700576782227e-01 6.461464166641235352e-01 -5.812035128474235535e-02
-2.416632175445556641e-01 -2.272860109806060791e-01 1.970826834440231323e-01
-5.644835904240608215e-02 8.177849650382995605e-01 4.282757639884948730e-03
3.685105592012405396e-02 7.543189525604248047e-01 3.848916292190551758e-02
2.166687101125717163e-01 7.457075119018554688e-01 -7.046581059694290161e-02
-4.543996602296829224e-02 7.729623913764953613e-01 -5.136709287762641907e-02
-2.212419658899307251e-01 7.727540135383605957e-01 -6.290840450674295425e-03
4.475477337837219238e-01 6.029479503631591797e-01 -1.423191837966442108e-02
2.322920858860015869e-01 -4.822283685207366943e-01 1.722485274076461792e-01
-2.935135960578918457e-01 -2.709107697010040283e-01 1.601411998271942139e-01
-3.172886371612548828e-01 -2.381215840578079224e-01 6.391514837741851807e-02
-8.349888026714324951e-02 9.279310703277587891e-01 -2.839418593794107437e-03
1.704921387135982513e-02 5.822551846504211426e-01 -4.718937352299690247e-02
4.910758882761001587e-02 8.042226433753967285e-01 -4.125548526644706726e-02
-2.020580172538757324e-01 2.849229574203491211e-01 4.665674865245819092e-01
2.630428969860076904e-01 -2.103202939033508301e-01 -1.820884346961975098e-01
-4.744098708033561707e-02 7.811099290847778320e-01 5.146646872162818909e-02
-8.558462560176849365e-02 -6.071136593818664551e-01 -1.091443747282028198e-01
5.566692724823951721e-02 -5.203542113304138184e-01 2.684330344200134277e-01
2.789554744958877563e-02 -1.113291606307029724e-01 -1.131958439946174622e-01
-3.455320596694946289e-01 -3.467563986778259277e-01 -6.361462920904159546e-02
-1.424753963947296143e-01 -1.376805007457733154e-01 1.554685682058334351e-01
-2.273973375558853149e-01 -4.954385757446289062e-01 1.910710483789443970e-01
-1.574775874614715576e-01 -2.231288142502307892e-02 -1.384376585483551025e-01
-1.381381303071975708e-01 7.304033264517784119e-03 -2.054886072874069214e-01
7.128524780273437500e-02 8.945198655128479004e-01 1.888525555841624737e-03
2.059474587440490723e-01 -2.632087469100952148e-01 2.333315312862396240e-01
1.834256649017333984e-01 2.303506582975387573e-01 -3.580364584922790527e-01
-3.034127950668334961e-01 -2.074002176523208618e-01 -7.313389331102371216e-02
-3.410401642322540283e-01 -3.457040190696716309e-01 7.141288369894027710e-02
1.704921387135982513e-02 3.323309123516082764e-01 -2.773685455322265625e-01
2.289004325866699219e-01 -5.666654109954833984e-01 -7.421518117189407349e-02
2.942618727684020996e-01 -2.280509471893310547e-01 1.144999936223030090e-01
-3.644806742668151855e-01 2.816652059555053711e-01 3.222545385360717773e-01
2.718342542648315430e-01 -1.646101474761962891e-01 -5.786204710602760315e-02
-4.086071252822875977e-02 -3.021221458911895752e-01 -3.562435805797576904e-01
3.447110652923583984e-01 2.484854459762573242e-01 -3.206948637962341309e-01
3.295264542102813721e-01 -3.482030034065246582e-01 5.422768741846084595e-02
2.282540649175643921e-01 4.274193346500396729e-01 -2.686898410320281982e-01
-1.507657766342163086e-01 3.944436013698577881e-01 -2.640810906887054443e-01
-3.675856441259384155e-02 -1.399861425161361694e-01 2.074828445911407471e-01
8.960141241550445557e-02 -2.588832974433898926e-01 3.120501935482025146e-01
2.045707032084465027e-02 2.676725089550018311e-01 -3.154220879077911377e-01
2.859017550945281982e-01 2.613939046859741211e-01 -6.643947958946228027e-02
-2.158791758120059967e-02 -6.088317036628723145e-01 8.440733700990676880e-02
1.705458611249923706e-01 -5.675403475761413574e-01 -1.238263249397277832e-01
-1.662310957908630371e-01 2.520462870597839355e-01 2.279528230428695679e-01
3.228381872177124023e-01 -4.561569690704345703e-01 -6.573500484228134155e-02
-1.231930851936340332e-01 -1.914120465517044067e-01 2.374225258827209473e-01
-1.094113811850547791e-01 3.659269809722900391e-01 -4.341292083263397217e-01
-2.103256881237030029e-01 3.495446145534515381e-01 2.986349761486053467e-01
2.489291429519653320e-01 3.234050571918487549e-01 5.087910294532775879e-01
-5.243588984012603760e-02 -5.886752009391784668e-01 -1.484755426645278931e-01
2.694125771522521973e-01 -3.816065788269042969e-01 1.844743937253952026e-01
-1.881762742996215820e-01 -1.484126895666122437e-01 -1.512712240219116211e-01
3.365652561187744141e-01 -3.218113183975219727e-01 -1.147189214825630188e-01
1.704921387135982513e-02 4.992984235286712646e-01 1.561358477920293808e-02
-1.990126967430114746e-01 -5.157253146171569824e-01 -1.997610777616500854e-01
-3.023452758789062500e-01 3.239640295505523682e-01 1.103996764868497849e-02
-9.712080657482147217e-02 -5.682582259178161621e-01 1.640875935554504395e-01
-3.355302661657333374e-02 -1.113291606307029724e-01 1.593183130025863647e-01
3.417682647705078125e-01 -3.843518495559692383e-01 5.909818783402442932e-02
-1.827723681926727295e-01 5.138921141624450684e-01 5.882122367620468140e-02
-2.496560364961624146e-01 2.327032983303070068e-01 -1.445047706365585327e-01
1.822186410427093506e-01 5.267896056175231934e-01 7.296320050954818726e-02
2.511524260044097900e-01 2.796571254730224609e-01 4.118911623954772949e-01
-2.983459234237670898e-01 -2.180508673191070557e-01 -3.441573306918144226e-02
1.705349385738372803e-01 2.138975262641906738e-01 -2.667052745819091797e-01
1.293158829212188721e-01 3.293545246124267578e-01 1.650315523147583008e-01
-3.838545456528663635e-02 3.939712047576904297e-01 2.427987009286880493e-01
-3.176004886627197266e-01 -4.760351777076721191e-01 4.255020525306463242e-03
-3.383722603321075439e-01 -2.667752206325531006e-01 1.272063935175538063e-03
2.919226512312889099e-02 -5.888240337371826172e-01 -1.553193330764770508e-01
2.200662195682525635e-01 2.737344801425933838e-01 5.094474554061889648e-01
-2.041207402944564819e-01 -3.686830997467041016e-01 2.524280548095703125e-01
-1.842189431190490723e-01 -3.473977446556091309e-01 -2.939114868640899658e-01
3.304871916770935059e-01 -2.786925733089447021e-01 -1.056182608008384705e-01
1.704921387135982513e-02 3.073412477970123291e-01 -2.241018265485763550e-01
2.415659129619598389e-01 -2.163874208927154541e-01 -2.162266969680786133e-01
-2.943591773509979248e-01 -4.812894761562347412e-01 -5.402079969644546509e-02
-2.476672828197479248e-01 -1.896695941686630249e-01 -1.393521726131439209e-01
-2.988325953483581543e-01 -3.655133545398712158e-01 1.403604596853256226e-01
-3.873100876808166504e-01 4.711264669895172119e-01 -4.241982474923133850e-03
3.197365403175354004e-01 -2.722749412059783936e-01 4.474035650491714478e-02
4.020553827285766602e-02 -5.246376395225524902e-01 -2.725580632686614990e-01
-2.876809239387512207e-02 -1.538679003715515137e-01 -2.739567458629608154e-01
-1.644987314939498901e-01 -3.897162377834320068e-01 -3.041990101337432861e-01
2.111563533544540405e-01 6.347821950912475586e-01 -5.054317787289619446e-02
-2.390272319316864014e-01 -5.650211572647094727e-01 -1.485972758382558823e-02
-2.105971425771713257e-02 6.023965477943420410e-01 -6.312197446823120117e-02
2.068014591932296753e-01 3.175859153270721436e-01 -4.555532336235046387e-01
-1.234594825655221939e-02 -1.113291606307029724e-01 1.169821545481681824e-01
3.947988152503967285e-01 4.910290837287902832e-01 5.649583414196968079e-02
-2.230071127414703369e-01 3.631178736686706543e-01 4.141514003276824951e-01
6.637950427830219269e-03 -5.652406215667724609e-01 2.252504676580429077e-01
2.513735555112361908e-02 -9.940589964389801025e-02 -2.217978537082672119e-01
-2.105971425771713257e-02 5.396803021430969238e-01 -6.727288942784070969e-03
1.186282411217689514e-01 -7.405662909150123596e-03 1.638413220643997192e-01
2.170049399137496948e-01 3.556672036647796631e-01 -3.783938288688659668e-01
2.192777842283248901e-01 8.701295852661132812e-01 2.968503907322883606e-02
-2.231786102056503296e-01 -1.248553469777107239e-01 -6.122459471225738525e-02
-2.197045981884002686e-01 6.993157267570495605e-01 8.199662715196609497e-02
1.838862895965576172e-01 -5.773622393608093262e-01 -3.044462203979492188e-02
-1.566908210515975952e-01 -1.113291606307029724e-01 -2.769466862082481384e-02
3.137753307819366455e-01 3.506936430931091309e-01 2.770504057407379150e-01
-4.691009819507598877e-01 6.633508801460266113e-01 -6.522445380687713623e-02
-2.470990084111690521e-02 -5.955165028572082520e-01 -5.435979738831520081e-02
-8.298538625240325928e-02 -4.302292466163635254e-01 3.168354928493499756e-01
2.075982987880706787e-01 -3.428318724036216736e-02 -5.900713056325912476e-02
-2.259683236479759216e-02 4.132156968116760254e-01 3.419461846351623535e-01
-1.084766760468482971e-01 -6.015121936798095703e-01 9.644826501607894897e-02
-1.590014994144439697e-01 -4.762907028198242188e-01 -2.906913161277770996e-01
-2.189379930496215820e-01 6.627146005630493164e-01 -1.127124577760696411e-02
3.318102359771728516e-01 3.072849214076995850e-01 -1.348863244056701660e-01
-1.708356589078903198e-01 -1.057899072766304016e-01 -1.138279438018798828e-01
2.163980603218078613e-01 -4.092423021793365479e-01 -2.605684101581573486e-01
1.704921387135982513e-02 5.955485701560974121e-01 8.272790908813476562e-02
5.683378502726554871e-02 3.878099620342254639e-01 -4.259943366050720215e-01
-4.069664478302001953e-01 5.051705837249755859e-01 -2.188333310186862946e-02
1.704921387135982513e-02 6.428120136260986328e-01 7.716840133070945740e-03
2.942055761814117432e-01 -2.061267495155334473e-01 8.248750865459442139e-02
-2.612371183931827545e-02 3.370800316333770752e-01 1.928748786449432373e-01
-3.225790858268737793e-01 -2.798290252685546875e-01 9.725266695022583008e-02
9.350494295358657837e-02 -2.291251569986343384e-01 2.783566415309906006e-01
-4.737341105937957764e-01 6.792945861816406250e-01 9.192356467247009277e-02
-2.388776242733001709e-01 4.223558604717254639e-01 3.357832431793212891e-01
1.574265062808990479e-01 -4.482750892639160156e-01 -3.054446876049041748e-01
-2.225893735885620117e-01 -2.849479615688323975e-01 -2.728261947631835938e-01
-2.468065619468688965e-01 -3.217138051986694336e-01 2.151016294956207275e-01
1.752672642469406128e-01 -6.472215801477432251e-02 -1.197656095027923584e-01
-5.393686890602111816e-02 9.423075243830680847e-03 2.186680883169174194e-01
7.241216022521257401e-03 -4.056682586669921875e-01 -3.436436653137207031e-01
-2.466375976800918579e-01 2.452809214591979980e-01 -3.378018140792846680e-01
3.441932797431945801e-01 -4.136644601821899414e-01 -7.590235210955142975e-03
-4.483275413513183594e-01 5.918551087379455566e-01 1.051807776093482971e-01
-1.830312460660934448e-01 -4.758586287498474121e-01 -2.525856494903564453e-01
-3.302314877510070801e-01 -2.688782513141632080e-01 -9.298633038997650146e-02
-2.999177575111389160e-01 -4.912517368793487549e-01 6.674882769584655762e-02
4.405418038368225098e-02 3.936955034732818604e-01 -2.480340600013732910e-01
2.115211635828018188e-01 -5.375199913978576660e-01 1.546128839254379272e-01
1.704921387135982513e-02 3.018701076507568359e-01 -1.366531699895858765e-01
-1.469017416238784790e-01 -8.829555474221706390e-03 1.660065948963165283e-01
3.150042295455932617e-01 -2.615083158016204834e-01 1.047646924853324890e-01
2.566639184951782227e-01 2.710278332233428955e-01 3.748899996280670166e-01
-2.822425961494445801e-01 -2.067538201808929443e-01 6.339190155267715454e-02
-1.894102096557617188e-01 -1.518127322196960449e-01 -1.928676962852478027e-01
2.435833029448986053e-02 7.034545540809631348e-01 3.990709036588668823e-02
1.194948554039001465e-01 2.926944494247436523e-01 1.947039216756820679e-01
-9.858841449022293091e-02 -6.080441474914550781e-01 4.277321323752403259e-02
-2.443723231554031372e-01 -3.945965170860290527e-01 2.115334719419479370e-01
1.570701785385608673e-02 -1.393447965383529663e-01 2.095522880554199219e-01
1.020676568150520325e-01 -5.960655584931373596e-02 -1.919027417898178101e-01
-3.278283476829528809e-01 -3.716779649257659912e-01 -8.817492425441741943e-02
-1.631446033716201782e-01 -4.267905354499816895e-01 2.858123481273651123e-01
-2.202366590499877930e-01 -4.002298712730407715e-01 -2.594849169254302979e-01
4.647060111165046692e-02 3.125501573085784912e-01 -2.578718960285186768e-01
-2.938725054264068604e-01 -5.021839737892150879e-01 -7.632479816675186157e-02
-3.566299080848693848e-01 4.179874956607818604e-01 6.167650595307350159e-02
1.627127528190612793e-01 -2.135690450668334961e-01 2.348293960094451904e-01
-1.461620479822158813e-01 3.772626817226409912e-01 -3.013436496257781982e-01
1.008278429508209229e-01 3.550149202346801758e-01 4.747754931449890137e-01
2.526368200778961182e-01 -3.225602209568023682e-01 2.321816682815551758e-01
-2.607798576354980469e-02 -2.773233354091644287e-01 3.263740837574005127e-01
-1.574859917163848877e-01 -4.756973087787628174e-01 2.653230130672454834e-01
1.895533055067062378e-01 -1.737595796585083008e-01 1.729562878608703613e-01
-1.361308735795319080e-03 -2.031722515821456909e-01 2.950836420059204102e-01
1.675694733858108521e-01 2.456389218568801880e-01 -2.215885668992996216e-01
-2.986535243690013885e-02 3.198570907115936279e-01 3.715403676033020020e-01
-1.956706494092941284e-01 2.610819041728973389e-01 4.981579780578613281e-01
-1.973921060562133789e-01 5.684508085250854492e-01 -5.803167074918746948e-02
1.003538351505994797e-02 -5.955165028572082520e-01 3.562876209616661072e-02
1.854665428400039673e-01 3.410020470619201660e-01 -1.914774179458618164e-01
-1.582828313112258911e-01 -2.338355928659439087e-01 2.522347569465637207e-01
6.139781698584556580e-02 -6.031504869461059570e-01 1.211908012628555298e-01
-1.426846832036972046e-01 -1.752666831016540527e-01 -2.620410323143005371e-01
2.514230608940124512e-01 -2.889591157436370850e-01 -2.245633006095886230e-01
4.103775918483734131e-01 5.180116891860961914e-01 2.516017109155654907e-02
1.714292764663696289e-01 -1.927511394023895264e-02 1.273016184568405151e-01
-5.555274710059165955e-02 -5.355682969093322754e-01 2.537326216697692871e-01
3.471116721630096436e-01 -2.969250380992889404e-01 -8.330671116709709167e-03
-3.854802250862121582e-01 3.121677041053771973e-01 3.980144560337066650e-01
-4.026325643062591553e-01 4.976652562618255615e-01 9.504874050617218018e-02
-3.392632305622100830e-01 2.321176081895828247e-01 5.937188863754272461e-01
-2.462114393711090088e-01 -1.458464860916137695e-01 -7.832481712102890015e-02
1.651218347251415253e-02 -5.951097011566162109e-01 -9.716144949197769165e-02
1.793573796749114990e-01 -4.618946313858032227e-01 -2.641583979129791260e-01
1.704921387135982513e-02 4.127113521099090576e-01 -2.230889648199081421e-01
1.061763428151607513e-02 -4.984620511531829834e-01 2.726711332798004150e-01
1.235841512680053711e-01 -1.330498903989791870e-01 1.641355156898498535e-01
-2.105971425771713257e-02 6.144761443138122559e-01 -2.380727417767047882e-02
-4.398455023765563965e-01 5.626652240753173828e-01 -1.013776659965515137e-01
