-9.854075312614440918e-02 -7.631649374961853027e-01 -3.013326227664947510e-01
-3.602019846439361572e-01 3.377747535705566406e-01 2.639579586684703827e-02
2.052973955869674683e-01 -1.526790410280227661e-01 -4.021184444427490234e-01
1.457946002483367920e-01 6.257247328758239746e-01 -4.021184444427490234e-01
2.198976278305053711e-01 -2.693427912890911102e-02 4.011507630348205566e-01
3.197208642959594727e-01 -6.323543787002563477e-01 4.011507630348205566e-01
-3.602019846439361572e-01 -2.343340516090393066e-01 5.603509768843650818e-02
3.234319686889648438e-01 -7.275649309158325195e-01 7.589643448591232300e-02
3.576143085956573486e-01 2.587995529174804688e-01 -2.132790088653564453e-01
1.304282993078231812e-01 7.046923041343688965e-01 4.011507630348205566e-01
3.576143085956573486e-01 8.635114878416061401e-02 1.931213736534118652e-01
-3.602019846439361572e-01 2.968634851276874542e-02 -2.410980761051177979e-01
1.108757928013801575e-01 -3.197011053562164307e-01 -4.021184444427490234e-01
3.576143085956573486e-01 7.211480736732482910e-01 3.542313873767852783e-01
-1.637705117464065552e-01 -4.949861764907836914e-02 -4.021184444427490234e-01
8.312629163265228271e-02 5.365254282951354980e-01 4.011507630348205566e-01
-3.602019846439361572e-01 -1.062386035919189453e-01 1.078105792403221130e-01
2.954021096229553223e-01 -6.926652193069458008e-01 -2.532588839530944824e-01
-3.602019846439361572e-01 2.648423016071319580e-01 2.200197875499725342e-01
2.461511194705963135e-01 -7.631649374961853027e-01 -8.965694159269332886e-02
3.576143085956573486e-01 3.941331207752227783e-01 3.329664468765258789e-01
3.576143085956573486e-01 -2.042723819613456726e-03 -1.708101332187652588e-01
3.576143085956573486e-01 -5.941928625106811523e-01 1.215226203203201294e-01
-2.975099086761474609e-01 8.003302812576293945e-01 -4.021184444427490234e-01
2.172375842928886414e-02 -7.631649374961853027e-01 -2.490746080875396729e-01
-2.043723911046981812e-01 7.126106023788452148e-01 4.011507630348205566e-01
2.420440912246704102e-01 5.407081916928291321e-02 -4.021184444427490234e-01
-1.529195457696914673e-01 -6.926652193069458008e-01 1.794589310884475708e-01
-3.602019846439361572e-01 -4.182936549186706543e-01 -2.931852079927921295e-02
2.541047334671020508e-01 -5.392073392868041992e-01 4.011507630348205566e-01
-1.954494863748550415e-01 -5.483906865119934082e-01 4.011507630348205566e-01
3.576143085956573486e-01 7.781541943550109863e-01 3.256663084030151367e-01
-2.835450768470764160e-01 -6.926652193069458008e-01 1.607096940279006958e-01
-6.252596527338027954e-02 -7.631649374961853027e-01 2.264250367879867554e-01
3.421239554882049561e-01 4.644000530242919922e-01 -4.021184444427490234e-01
2.964782118797302246e-01 8.425816297531127930e-01 2.833052575588226318e-01
-3.602019846439361572e-01 2.249425649642944336e-01 -3.803267702460289001e-02
2.775496542453765869e-01 8.425816297531127930e-01 -4.008809849619865417e-02
-3.602019846439361572e-01 -1.893150806427001953e-01 2.029276788234710693e-01
2.417414635419845581e-02 -6.926652193069458008e-01 -3.379219174385070801e-01
-3.602019846439361572e-01 4.386531114578247070e-01 2.665766179561614990e-01
-1.738134175539016724e-01 5.591641068458557129e-01 4.011507630348205566e-01
3.003620207309722900e-01 6.650043725967407227e-01 4.011507630348205566e-01
-1.840890944004058838e-01 -6.926652193069458008e-01 2.601322531700134277e-01
3.157502412796020508e-01 8.044402003288269043e-01 -4.021184444427490234e-01
2.786486446857452393e-01 4.269693195819854736e-01 4.011507630348205566e-01
-2.538065314292907715e-01 -6.926652193069458008e-01 -1.024359613656997681e-01
-5.982477962970733643e-02 -3.792468309402465820e-01 4.011507630348205566e-01
1.280518621206283569e-01 -6.926652193069458008e-01 3.021975755691528320e-01
-3.602019846439361572e-01 5.952506661415100098e-01 -1.632066518068313599e-01
5.128626525402069092e-02 -7.631649374961853027e-01 1.193570047616958618e-01
3.576143085956573486e-01 3.223512172698974609e-01 7.520486600697040558e-03
-2.102138102054595947e-01 8.425816297531127930e-01 3.066881299018859863e-01
3.576143085956573486e-01 1.041661202907562256e-01 7.916268706321716309e-02
1.799566298723220825e-02 -7.631649374961853027e-01 5.837329104542732239e-02
-3.602019846439361572e-01 -4.856175184249877930e-01 -2.600495815277099609e-01
3.576143085956573486e-01 -2.488741576671600342e-01 -3.697125017642974854e-01
2.805862426757812500e-01 -4.898374434560537338e-03 4.011507630348205566e-01
3.412329256534576416e-01 -3.432070314884185791e-01 -4.021184444427490234e-01
2.217407971620559692e-01 -6.926652193069458008e-01 2.114412933588027954e-01
2.145103216171264648e-01 -6.926652193069458008e-01 3.872727155685424805e-01
2.812063694000244141e-01 5.378906130790710449e-01 -4.021184444427490234e-01
-3.602019846439361572e-01 2.638224363327026367e-01 -3.154682517051696777e-01
1.098168343305587769e-01 -6.926652193069458008e-01 -3.361808359622955322e-01
2.075927555561065674e-01 -4.499354362487792969e-01 -4.021184444427490234e-01
-3.116360008716583252e-01 -2.939665913581848145e-01 -4.021184444427490234e-01
-4.080116748809814453e-02 -7.631649374961853027e-01 -1.788572520017623901e-01
8.575870096683502197e-02 -6.926652193069458008e-01 6.988156586885452271e-02
-1.988410055637359619e-01 -7.631649374961853027e-01 3.361003696918487549e-01
-2.259531319141387939e-01 -1.733687371015548706e-01 -4.021184444427490234e-01
-2.800724208354949951e-01 -7.631649374961853027e-01 -1.431466042995452881e-01
-3.260196745395660400e-01 -7.022396922111511230e-01 -1.978650242090225220e-01
-1.406671404838562012e-01 -3.730390667915344238e-01 -4.021184444427490234e-01
-3.602019846439361572e-01 1.988130658864974976e-01 8.001662045717239380e-02
2.248413413763046265e-01 8.425816297531127930e-01 7.578871399164199829e-02
-3.602019846439361572e-01 2.893270552158355713e-01 3.040645718574523926e-01
-3.602019846439361572e-01 -2.365282773971557617e-01 1.321350634098052979e-01
-3.602019846439361572e-01 -5.812526345252990723e-01 -8.894257247447967529e-03
5.214669182896614075e-02 -2.465005815029144287e-01 4.011507630348205566e-01
3.565400540828704834e-01 2.865976095199584961e-01 4.011507630348205566e-01
3.073766268789768219e-02 -4.525647163391113281e-01 4.011507630348205566e-01
3.576143085956573486e-01 5.183809995651245117e-01 2.900005280971527100e-01
2.208907604217529297e-01 4.508292376995086670e-01 -4.021184444427490234e-01
-3.602019846439361572e-01 -1.641501039266586304e-01 -5.479908734560012817e-02
-1.698466241359710693e-01 8.425816297531127930e-01 -8.007272332906723022e-02
1.979343295097351074e-01 -6.926652193069458008e-01 2.748059332370758057e-01
-1.392962336540222168e-01 8.425816297531127930e-01 1.147157326340675354e-01
-3.260196745395660400e-01 -7.123274803161621094e-01 3.604782819747924805e-01
3.476763367652893066e-01 1.906686574220657349e-01 -4.021184444427490234e-01
-3.602019846439361572e-01 7.697388529777526855e-01 3.357731401920318604e-01
3.576143085956573486e-01 3.035867214202880859e-01 -1.786960065364837646e-01
1.905633881688117981e-02 2.345246672630310059e-01 4.011507630348205566e-01
2.042470425367355347e-01 8.425816297531127930e-01 3.227928280830383301e-01
3.576143085956573486e-01 1.478369534015655518e-01 -3.001916110515594482e-01
3.576143085956573486e-01 7.082870602607727051e-01 1.877951025962829590e-01
-1.358846724033355713e-01 8.024014830589294434e-01 -4.021184444427490234e-01
3.576143085956573486e-01 -3.274295628070831299e-01 -1.221392005681991577e-01
1.058261916041374207e-01 -3.296629190444946289e-01 4.011507630348205566e-01
-1.390682309865951538e-01 -6.720089316368103027e-01 -4.021184444427490234e-01
-3.602019846439361572e-01 4.892639443278312683e-02 -1.315114498138427734e-01
-6.691042333841323853e-02 4.710209071636199951e-01 -4.021184444427490234e-01
-3.526709973812103271e-01 1.347532421350479126e-01 4.011507630348205566e-01
-3.602019846439361572e-01 -5.998778343200683594e-01 1.735554933547973633e-01
-3.602019846439361572e-01 -4.651064425706863403e-02 3.002761900424957275e-01
-1.448848396539688110e-01 -3.913580477237701416e-01 4.011507630348205566e-01
3.576143085956573486e-01 -6.106868386268615723e-01 -8.683621138334274292e-02
-3.218153417110443115e-01 8.425816297531127930e-01 2.399987280368804932e-01
-3.602019846439361572e-01 -2.673228979110717773e-01 3.619255423545837402e-01
3.399011194705963135e-01 -5.229404568672180176e-01 -4.021184444427490234e-01
3.576143085956573486e-01 -6.605149507522583008e-01 2.995854914188385010e-01
-2.786146998405456543e-01 -5.576283335685729980e-01 4.011507630348205566e-01
-1.965535432100296021e-02 -7.631649374961853027e-01 -5.853157117962837219e-02
-3.520098626613616943e-01 4.158779382705688477e-01 4.011507630348205566e-01
-1.712518781423568726e-01 -7.631649374961853027e-01 -6.034858524799346924e-02
9.635856002569198608e-02 6.412073969841003418e-01 -4.021184444427490234e-01
-2.365665286779403687e-01 -5.296376347541809082e-01 -4.021184444427490234e-01
-3.602019846439361572e-01 2.744739949703216553e-01 -1.117003858089447021e-01
2.989147603511810303e-01 2.228437215089797974e-01 4.011507630348205566e-01
8.169043809175491333e-03 -6.926652193069458008e-01 8.956926316022872925e-02
-2.980384528636932373e-01 4.674252271652221680e-01 -4.021184444427490234e-01
3.576143085956573486e-01 6.665909290313720703e-01 -1.717393398284912109e-01
1.777264028787612915e-01 -3.138157725334167480e-01 -4.021184444427490234e-01
-3.602019846439361572e-01 -4.064468666911125183e-03 2.510538399219512939e-01
3.576143085956573486e-01 4.601546823978424072e-01 -2.664548158645629883e-01
-2.543751299381256104e-01 6.922453045845031738e-01 -4.021184444427490234e-01
1.033934578299522400e-01 -7.631649374961853027e-01 -2.508271038532257080e-01
-3.602019846439361572e-01 8.260352611541748047e-01 -3.223447501659393311e-01
-2.662697732448577881e-01 -6.926652193069458008e-01 3.298812732100486755e-02
3.576143085956573486e-01 6.698746085166931152e-01 2.312761843204498291e-01
-2.109531760215759277e-01 -6.926652193069458008e-01 1.036348566412925720e-01
2.706692814826965332e-01 8.425816297531127930e-01 3.964178860187530518e-01
3.576143085956573486e-01 -1.200756207108497620e-01 1.562277376651763916e-01
7.110151648521423340e-02 -5.014197826385498047e-01 -4.021184444427490234e-01
1.462477594614028931e-01 -2.138122618198394775e-01 -4.021184444427490234e-01
-2.915721535682678223e-01 8.425816297531127930e-01 7.812086259946227074e-04
-1.631084233522415161e-01 4.982112348079681396e-01 -4.021184444427490234e-01
3.576143085956573486e-01 4.922839403152465820e-01 -7.664161175489425659e-02
7.242263853549957275e-02 -7.631649374961853027e-01 -1.732733994722366333e-01
1.109482944011688232e-01 3.221975862979888916e-01 -4.021184444427490234e-01
-3.602019846439361572e-01 -3.858982324600219727e-01 -3.775020241737365723e-01
4.798194393515586853e-02 -7.123627662658691406e-01 3.669684231281280518e-01
-3.602019846439361572e-01 6.555462479591369629e-01 3.298152983188629150e-01
-1.476886868476867676e-01 -6.174326539039611816e-01 -4.021184444427490234e-01
2.362332195043563843e-01 -6.926652193069458008e-01 -9.409511089324951172e-02
-3.602019846439361572e-01 5.164749026298522949e-01 1.528848707675933838e-01
1.092310696840286255e-01 8.425816297531127930e-01 2.418390065431594849e-01
-3.576206788420677185e-02 -6.105370521545410156e-01 -4.021184444427490234e-01
3.576143085956573486e-01 -2.478905618190765381e-01 -2.662000954151153564e-01
-3.602019846439361572e-01 -1.041979640722274780e-01 -2.654740810394287109e-01
-3.602019846439361572e-01 -1.480924058705568314e-02 3.499908149242401123e-01
3.576143085956573486e-01 2.777377068996429443e-01 2.209079712629318237e-01
-3.602019846439361572e-01 7.283966541290283203e-01 -3.768523633480072021e-01
-1.110755503177642822e-01 8.425816297531127930e-01 -2.783189415931701660e-01
-7.137664407491683960e-02 7.483403086662292480e-01 4.011507630348205566e-01
-6.998597085475921631e-02 8.425816297531127930e-01 -6.638558954000473022e-02
2.605615258216857910e-01 -7.631649374961853027e-01 -2.646458894014358521e-02
-3.602019846439361572e-01 5.858526006340980530e-02 1.809538751840591431e-01
-1.032728236168622971e-02 8.425816297531127930e-01 2.835780680179595947e-01
-2.610379457473754883e-01 1.251771696843206882e-03 -4.021184444427490234e-01
-3.602019846439361572e-01 -4.622755944728851318e-01 7.638593204319477081e-03
3.576143085956573486e-01 -6.492270827293395996e-01 8.758921176195144653e-03
1.776290982961654663e-01 -7.631649374961853027e-01 -3.212381005287170410e-01
3.576143085956573486e-01 1.174867302179336548e-01 -2.071752399206161499e-01
3.576143085956573486e-01 5.048931837081909180e-01 5.210684984922409058e-02
-3.602019846439361572e-01 3.947169780731201172e-01 -3.617168962955474854e-01
-3.602019846439361572e-01 6.654183864593505859e-01 -3.698278218507766724e-02
-3.260196745395660400e-01 -7.163791060447692871e-01 -6.677673012018203735e-02
-3.602019846439361572e-01 1.620024442672729492e-01 -6.359108537435531616e-02
-3.602019846439361572e-01 2.831660509109497070e-01 7.739308476448059082e-02
1.195363253355026245e-01 -7.631649374961853027e-01 -4.886569455265998840e-02
3.576143085956573486e-01 -6.407687664031982422e-01 8.680472522974014282e-02
-3.602019846439361572e-01 3.659982979297637939e-01 1.534534692764282227e-01
-3.024176135659217834e-02 7.454086542129516602e-01 -4.021184444427490234e-01
2.030211389064788818e-01 7.165774106979370117e-01 4.011507630348205566e-01
3.576143085956573486e-01 5.184105634689331055e-01 3.432402014732360840e-01
-3.557851538062095642e-02 -7.631649374961853027e-01 2.682995498180389404e-01
-1.596100479364395142e-01 8.425816297531127930e-01 -1.607890613377094269e-02
-2.578629851341247559e-01 6.000179052352905273e-01 -4.021184444427490234e-01
3.144079744815826416e-01 4.810351729393005371e-01 4.011507630348205566e-01
1.263832747936248779e-01 -7.631649374961853027e-01 2.423437088727951050e-01
3.576143085956573486e-01 -6.835401058197021484e-01 1.892433017492294312e-01
3.234319686889648438e-01 -7.108325362205505371e-01 -2.071436494588851929e-02
3.576143085956573486e-01 -1.492837071418762207e-01 3.365449309349060059e-01
-2.168034389615058899e-02 -6.926652193069458008e-01 -3.448108136653900146e-01
3.576143085956573486e-01 -2.115369290113449097e-01 -2.323963865637779236e-02
1.664327830076217651e-01 6.187680363655090332e-01 4.011507630348205566e-01
-3.602019846439361572e-01 -4.887695312500000000e-01 2.778063118457794189e-01
-4.834369570016860962e-02 -6.594868004322052002e-02 -4.021184444427490234e-01
6.561221927404403687e-02 -7.631649374961853027e-01 1.280901487916707993e-02
3.576143085956573486e-01 6.186202168464660645e-01 3.267252743244171143e-01
-5.738011747598648071e-02 8.425816297531127930e-01 -1.743962615728378296e-01
1.731929332017898560e-01 8.425816297531127930e-01 -1.288650035858154297e-01
-3.594321012496948242e-01 -4.102341830730438232e-01 4.011507630348205566e-01
-1.115105748176574707e-01 -2.720834016799926758e-01 -4.021184444427490234e-01
3.576143085956573486e-01 7.867327332496643066e-01 -2.609377503395080566e-01
-1.316602975130081177e-01 -6.649473309516906738e-01 4.011507630348205566e-01
1.308547556400299072e-01 5.178934931755065918e-01 -4.021184444427490234e-01
-3.713699057698249817e-02 -3.223656713962554932e-01 4.011507630348205566e-01
-3.602019846439361572e-01 5.445159971714019775e-02 6.907494366168975830e-02
2.963313162326812744e-01 -1.441902220249176025e-01 4.011507630348205566e-01
-1.007712408900260925e-01 -7.631649374961853027e-01 -2.270960062742233276e-01
-1.919635236263275146e-01 -5.132686495780944824e-01 -4.021184444427490234e-01
-1.059458106756210327e-01 -6.926652193069458008e-01 3.160822689533233643e-01
-2.086425423622131348e-01 8.425816297531127930e-01 2.496247291564941406e-01
-3.602019846439361572e-01 1.495498865842819214e-01 -1.179701685905456543e-01
2.783230878412723541e-02 8.148694634437561035e-01 4.011507630348205566e-01
2.888022363185882568e-01 -4.081791937351226807e-01 4.011507630348205566e-01
3.576143085956573486e-01 -4.434557855129241943e-01 3.150395452976226807e-01
3.576143085956573486e-01 5.357020497322082520e-01 -9.950617700815200806e-02
-7.583071012049913406e-03 2.595618367195129395e-01 -4.021184444427490234e-01
4.854299500584602356e-02 -7.631649374961853027e-01 2.603802978992462158e-01
-3.602019846439361572e-01 7.851719260215759277e-01 -1.173090338706970215e-01
2.870926558971405029e-01 7.777058482170104980e-01 4.011507630348205566e-01
-3.602019846439361572e-01 -1.820226013660430908e-01 -3.410329520702362061e-01
-3.602019846439361572e-01 7.699019908905029297e-01 1.442682296037673950e-01
-3.602019846439361572e-01 -5.880407243967056274e-02 -5.757269263267517090e-02
1.977623626589775085e-02 -5.225569009780883789e-01 -4.021184444427490234e-01
-2.417401522397994995e-01 8.425816297531127930e-01 -2.187512367963790894e-01
-3.151648938655853271e-01 8.425816297531127930e-01 3.418959975242614746e-01
3.576143085956573486e-01 -1.542951464653015137e-01 -3.258288204669952393e-01
3.475379943847656250e-01 -3.797231987118721008e-02 4.011507630348205566e-01
-3.602019846439361572e-01 3.542391359806060791e-01 -1.854199022054672241e-01
3.576143085956573486e-01 -5.407788604497909546e-02 5.213699862360954285e-02
-1.249354630708694458e-01 3.716450929641723633e-01 4.011507630348205566e-01
3.576143085956573486e-01 5.527922511100769043e-01 2.340981662273406982e-01
-3.260196745395660400e-01 -7.007820010185241699e-01 1.112774610519409180e-01
7.844399660825729370e-02 -6.926652193069458008e-01 4.000421762466430664e-01
3.234319686889648438e-01 -7.039645910263061523e-01 -3.519115746021270752e-01
-3.602019846439361572e-01 4.783363044261932373e-01 -2.912658452987670898e-01
-2.895248234272003174e-01 -7.631649374961853027e-01 2.671681046485900879e-01
3.514198958873748779e-01 -2.118154913187026978e-01 4.011507630348205566e-01
-3.602019846439361572e-01 -6.220894306898117065e-02 2.561913244426250458e-02
-2.419586181640625000e-01 -6.049655675888061523e-01 -4.021184444427490234e-01
-3.602019846439361572e-01 5.115082859992980957e-01 2.615298628807067871e-01
3.576143085956573486e-01 6.825713068246841431e-02 -1.003399938344955444e-01
-3.602019846439361572e-01 -5.365999937057495117e-01 -9.981337189674377441e-02
-3.545008003711700439e-01 1.216760091483592987e-02 4.011507630348205566e-01
-3.602019846439361572e-01 -2.521921992301940918e-01 -4.018588364124298096e-02
3.576143085956573486e-01 -6.045639514923095703e-01 -3.710319101810455322e-01
-2.483247667551040649e-01 -3.819991648197174072e-01 4.011507630348205566e-01
-3.260196745395660400e-01 -7.464697360992431641e-01 -3.184962570667266846e-01
3.576143085956573486e-01 -5.128908753395080566e-01 3.007264733314514160e-01
1.167439296841621399e-01 8.118738532066345215e-01 4.011507630348205566e-01
-3.602019846439361572e-01 -3.238005042076110840e-01 -2.990486919879913330e-01
5.352963134646415710e-02 -6.514986157417297363e-01 -4.021184444427490234e-01
-3.602019846439361572e-01 -1.209819316864013672e-01 3.766383230686187744e-01
-3.602019846439361572e-01 7.496960163116455078e-01 3.827907741069793701e-01
-1.023959293961524963e-01 6.680008769035339355e-01 4.011507630348205566e-01
-3.602019846439361572e-01 4.086532294750213623e-01 1.815367788076400757e-01
-3.602019846439361572e-01 -1.124721243977546692e-01 -3.676527738571166992e-01
3.576143085956573486e-01 7.162597179412841797e-01 -3.321768343448638916e-01
-6.196978315711021423e-02 -6.926652193069458008e-01 2.094750702381134033e-01
-3.800695762038230896e-02 -7.631649374961853027e-01 -2.843893170356750488e-01
-3.602019846439361572e-01 -3.562274277210235596e-01 9.851657599210739136e-02
2.539826035499572754e-01 -7.631649374961853027e-01 2.208755463361740112e-01
3.576143085956573486e-01 3.138166069984436035e-01 -3.963409364223480225e-01
-4.577883332967758179e-02 -5.005468726158142090e-01 4.011507630348205566e-01
-3.602019846439361572e-01 5.632625818252563477e-01 -3.805310130119323730e-01
-1.427697986364364624e-01 8.425816297531127930e-01 3.784576356410980225e-01
-1.009114831686019897e-01 -4.206605851650238037e-01 4.011507630348205566e-01
-3.602019846439361572e-01 8.097730875015258789e-01 1.770882010459899902e-01
3.576143085956573486e-01 5.907334089279174805e-01 3.867823481559753418e-01
-2.190689742565155029e-01 8.390641808509826660e-01 4.011507630348205566e-01
1.174756586551666260e-01 8.048589825630187988e-01 -4.021184444427490234e-01
-1.893857866525650024e-01 1.699748635292053223e-02 -4.021184444427490234e-01
2.585695385932922363e-01 2.323199510574340820e-01 -4.021184444427490234e-01
1.031244322657585144e-01 8.425816297531127930e-01 6.042814254760742188e-02
1.659605503082275391e-01 8.425816297531127930e-01 -7.377451285719871521e-03
-8.492783457040786743e-02 1.728638857603073120e-01 4.011507630348205566e-01
3.234319686889648438e-01 -7.036306858062744141e-01 -2.157479971647262573e-01
-1.755783408880233765e-01 -3.964050486683845520e-02 4.011507630348205566e-01
6.034186109900474548e-02 4.693075120449066162e-01 4.011507630348205566e-01
1.524304691702127457e-02 -5.887902975082397461e-01 4.011507630348205566e-01
-2.721331417560577393e-01 -6.926652193069458008e-01 -2.161820828914642334e-01
-3.060407042503356934e-01 2.347774803638458252e-01 4.011507630348205566e-01
-1.703570187091827393e-01 -6.926652193069458008e-01 4.610906168818473816e-02
-1.961983889341354370e-01 4.983715415000915527e-01 4.011507630348205566e-01
3.576143085956573486e-01 -5.302465707063674927e-02 -3.690933585166931152e-01
2.293729037046432495e-01 8.350113034248352051e-02 4.011507630348205566e-01
-2.382141053676605225e-01 -2.323535084724426270e-01 -4.021184444427490234e-01
-2.091806083917617798e-01 -7.631649374961853027e-01 -1.668242663145065308e-01
3.576143085956573486e-01 -3.254070580005645752e-01 7.886475324630737305e-02
3.576143085956573486e-01 5.436633229255676270e-01 4.396740347146987915e-03
3.576143085956573486e-01 5.372752547264099121e-01 -3.434256017208099365e-01
-3.602019846439361572e-01 6.930027604103088379e-01 2.305377870798110962e-01
-1.942598372697830200e-01 -4.105337262153625488e-01 4.011507630348205566e-01
3.576143085956573486e-01 -1.113778725266456604e-01 2.272397726774215698e-01
1.968696564435958862e-01 8.425816297531127930e-01 3.976190090179443359e-01
-3.602019846439361572e-01 2.955949306488037109e-01 1.308385580778121948e-01
3.576143085956573486e-01 1.369317322969436646e-01 -2.582644857466220856e-02
-3.602019846439361572e-01 2.720116972923278809e-01 -1.727705262601375580e-02
-3.602019846439361572e-01 3.535655736923217773e-01 3.902139663696289062e-01
-3.602019846439361572e-01 6.380353569984436035e-01 -2.942318916320800781e-01
3.576143085956573486e-01 -5.148274898529052734e-01 -1.757318973541259766e-01
-1.124130710959434509e-01 -1.054467633366584778e-01 4.011507630348205566e-01
3.576143085956573486e-01 4.140974953770637512e-02 2.366846054792404175e-02
-1.008590087294578552e-01 -7.631649374961853027e-01 -1.011528074741363525e-01
3.576143085956573486e-01 -2.643838524818420410e-02 3.238784968852996826e-01
2.593289315700531006e-01 -6.871328949928283691e-01 4.011507630348205566e-01
-6.534937769174575806e-02 -6.926652193069458008e-01 2.591591477394104004e-01
-7.981890439987182617e-02 2.472493052482604980e-01 4.011507630348205566e-01
8.933577686548233032e-02 -9.752941131591796875e-02 -4.021184444427490234e-01
2.949489355087280273e-01 -6.364890933036804199e-01 -4.021184444427490234e-01
3.576143085956573486e-01 1.274298429489135742e-01 2.329199612140655518e-01
-2.061602026224136353e-01 -7.631649374961853027e-01 -2.441900372505187988e-01
1.718735247850418091e-01 3.223922550678253174e-01 4.011507630348205566e-01
1.473629921674728394e-01 8.425816297531127930e-01 -2.594227492809295654e-01
-3.602019846439361572e-01 2.338816672563552856e-01 3.797942101955413818e-01
3.576143085956573486e-01 -2.767211385071277618e-02 -5.414377525448799133e-02
3.576143085956573486e-01 3.464114367961883545e-01 -3.059939444065093994e-01
2.300874590873718262e-01 -6.926652193069458008e-01 2.829991094768047333e-02
3.272611275315284729e-02 -6.926652193069458008e-01 1.295401453971862793e-01
1.087426170706748962e-01 -6.926652193069458008e-01 -1.155870407819747925e-01
3.576143085956573486e-01 6.423313021659851074e-01 1.082627773284912109e-01
-1.878021210432052612e-01 -7.631649374961853027e-01 1.979544013738632202e-01
3.234319686889648438e-01 -7.436429858207702637e-01 2.410691380500793457e-01
-9.805420786142349243e-02 2.344464361667633057e-01 -4.021184444427490234e-01
-3.602019846439361572e-01 -3.353936672210693359e-01 3.540033996105194092e-01
3.234319686889648438e-01 -7.090046405792236328e-01 3.181076645851135254e-01
5.147134140133857727e-02 1.660427004098892212e-01 -4.021184444427490234e-01
3.576143085956573486e-01 6.185791492462158203e-01 2.222063839435577393e-01
-1.774749010801315308e-01 1.147910654544830322e-01 -4.021184444427490234e-01
3.368940651416778564e-01 1.849998980760574341e-01 4.011507630348205566e-01
-3.272942304611206055e-01 1.982654780149459839e-01 -4.021184444427490234e-01
-3.602019846439361572e-01 1.167446896433830261e-01 -3.803812265396118164e-01
-2.711514532566070557e-01 8.425816297531127930e-01 2.095361351966857910e-01
-7.611904293298721313e-02 3.423978984355926514e-01 4.011507630348205566e-01
1.382626742124557495e-01 -1.354180574417114258e-01 4.011507630348205566e-01
3.234319686889648438e-01 -7.075592875480651855e-01 -2.892643213272094727e-01
3.576143085956573486e-01 -4.339156448841094971e-01 -2.567305564880371094e-01
-3.602019846439361572e-01 3.664285838603973389e-01 -3.095867335796356201e-01
1.938244402408599854e-01 -4.296406805515289307e-01 4.011507630348205566e-01
3.576143085956573486e-01 -2.741145193576812744e-01 -1.532934755086898804e-01
2.124086320400238037e-01 6.019316315650939941e-01 4.011507630348205566e-01
3.234319686889648438e-01 -7.241953611373901367e-01 2.746123820543289185e-02
3.576143085956573486e-01 1.304801106452941895e-01 1.586566567420959473e-01
-7.692699879407882690e-02 -5.665999054908752441e-01 4.011507630348205566e-01
8.346096426248550415e-02 1.073872521519660950e-01 -4.021184444427490234e-01
-5.024663172662258148e-03 -7.631649374961853027e-01 1.053969189524650574e-01
-3.544979095458984375e-01 5.802916884422302246e-01 4.011507630348205566e-01
-1.852262765169143677e-01 8.425816297531127930e-01 -1.715304106473922729e-01
3.576143085956573486e-01 3.360098004341125488e-01 1.179879978299140930e-01
-3.602019846439361572e-01 4.558025002479553223e-01 -3.719277381896972656e-01
-3.602019846439361572e-01 1.870977729558944702e-01 3.503189682960510254e-01
2.389156445860862732e-02 8.425816297531127930e-01 3.249555826187133789e-01
2.931782901287078857e-01 -6.926652193069458008e-01 -1.329147964715957642e-01
-7.152260839939117432e-02 -2.349875569343566895e-01 4.011507630348205566e-01
-3.602019846439361572e-01 -1.015467569231987000e-01 2.725611329078674316e-01
-3.366743400692939758e-02 -6.926652193069458008e-01 1.520796865224838257e-01
-3.359803697094321251e-03 -5.073406547307968140e-02 4.011507630348205566e-01
-2.059741616249084473e-01 4.166049361228942871e-01 -4.021184444427490234e-01
-3.602019846439361572e-01 -6.331548094749450684e-01 -1.040576864033937454e-02
-3.602019846439361572e-01 2.075079530477523804e-01 -3.155340552330017090e-01
3.767811506986618042e-02 -6.926652193069458008e-01 -1.613253355026245117e-01
1.761026680469512939e-01 4.119283556938171387e-01 -4.021184444427490234e-01
3.576143085956573486e-01 -4.313350617885589600e-01 -1.254982948303222656e-01
2.644023597240447998e-01 3.760383427143096924e-01 4.011507630348205566e-01
2.125336080789566040e-01 -5.797538757324218750e-01 4.011507630348205566e-01
-3.602019846439361572e-01 5.413326621055603027e-01 -2.962563037872314453e-01
3.576143085956573486e-01 8.372954130172729492e-01 3.135188817977905273e-01
3.576143085956573486e-01 7.565486431121826172e-01 8.803501725196838379e-02
3.576143085956573486e-01 1.670902073383331299e-01 2.697353661060333252e-01
3.499046713113784790e-02 8.425816297531127930e-01 1.739027500152587891e-01
-8.536019176244735718e-02 -7.116672992706298828e-01 -3.679380416870117188e-01
-1.617575436830520630e-01 -7.631649374961853027e-01 -2.167745232582092285e-01
-2.149695754051208496e-01 1.521236449480056763e-01 -4.021184444427490234e-01
-3.602019846439361572e-01 5.598319172859191895e-01 -6.934159994125366211e-02
-1.254945099353790283e-01 -2.264138162136077881e-01 4.011507630348205566e-01
1.729105412960052490e-01 8.425816297531127930e-01 -3.075022101402282715e-01
3.675243258476257324e-02 4.114284515380859375e-01 4.011507630348205566e-01
-3.602019846439361572e-01 6.955280303955078125e-01 -1.773250997066497803e-01
-3.508965075016021729e-01 3.679721653461456299e-01 -4.021184444427490234e-01
-3.270747959613800049e-01 8.425816297531127930e-01 -1.059352830052375793e-01
3.576143085956573486e-01 -6.100218296051025391e-01 2.972958683967590332e-01
3.576143085956573486e-01 4.092017710208892822e-01 -1.693581342697143555e-01
-3.112361067906022072e-03 -6.926652193069458008e-01 -2.688455879688262939e-01
-3.491735756397247314e-01 -6.085450649261474609e-01 -4.021184444427490234e-01
3.576143085956573486e-01 -3.663123250007629395e-01 -1.150612812489271164e-02
3.576143085956573486e-01 4.127593040466308594e-01 -3.785800933837890625e-01
-3.602019846439361572e-01 2.795942127704620361e-01 -2.390354871749877930e-01
1.535984426736831665e-01 -2.768382132053375244e-01 4.011507630348205566e-01
3.576143085956573486e-01 -2.797374427318572998e-01 4.005822539329528809e-02
-3.602019846439361572e-01 -4.391779899597167969e-01 -2.345678359270095825e-01
-3.507973253726959229e-01 -6.926652193069458008e-01 -1.342189311981201172e-01
-3.431881070137023926e-01 -3.334789872169494629e-01 -4.021184444427490234e-01
1.856161057949066162e-01 -6.926652193069458008e-01 3.501596748828887939e-01
-1.010574400424957275e-01 -1.450240463018417358e-01 -4.021184444427490234e-01
3.058409094810485840e-01 5.548481941223144531e-01 4.011507630348205566e-01
-3.168515861034393311e-01 -6.926652193069458008e-01 2.536306381225585938e-01
8.721891790628433228e-02 -4.489986002445220947e-01 4.011507630348205566e-01
3.204220533370971680e-01 -4.723194837570190430e-01 -4.021184444427490234e-01
-3.602019846439361572e-01 7.639260888099670410e-01 -2.990897297859191895e-01
-1.344329118728637695e-02 3.840568065643310547e-01 4.011507630348205566e-01
3.576143085956573486e-01 -2.264834791421890259e-01 1.306477636098861694e-01
-3.602019846439361572e-01 2.023400664329528809e-01 -2.060571312904357910e-01
1.993882507085800171e-01 -8.186353743076324463e-02 -4.021184444427490234e-01
-1.645594835281372070e-01 -1.225007176399230957e-01 -4.021184444427490234e-01
3.515982925891876221e-01 -6.926652193069458008e-01 6.131537258625030518e-02
4.785171896219253540e-02 -1.326085031032562256e-01 -4.021184444427490234e-01
3.576143085956573486e-01 -6.618448495864868164e-01 2.500435709953308105e-01
1.013642698526382446e-01 3.951176404953002930e-01 4.011507630348205566e-01
2.065051794052124023e-01 -2.653957903385162354e-01 -4.021184444427490234e-01
2.275201976299285889e-01 -7.677865028381347656e-02 4.011507630348205566e-01
-2.154217809438705444e-01 -6.926652193069458008e-01 -2.630995512008666992e-01
-1.663320362567901611e-01 4.463682472705841064e-01 4.011507630348205566e-01
2.242698818445205688e-01 7.400966882705688477e-01 -4.021184444427490234e-01
-3.602019846439361572e-01 -4.503943324089050293e-01 -3.454624414443969727e-01
1.173602193593978882e-01 3.006817400455474854e-01 4.011507630348205566e-01
1.493950486183166504e-01 -6.926652193069458008e-01 -1.549553722143173218e-01
3.576143085956573486e-01 4.574166834354400635e-01 2.330458909273147583e-01
-1.571191251277923584e-01 4.015277028083801270e-01 -4.021184444427490234e-01
-3.602019846439361572e-01 -5.556373596191406250e-01 1.977187544107437134e-01
3.234319686889648438e-01 -7.531917095184326172e-01 -2.122916132211685181e-01
2.114049941301345825e-01 -6.926652193069458008e-01 -3.963380753993988037e-01
1.751658320426940918e-01 -6.015400588512420654e-02 4.011507630348205566e-01
3.518139123916625977e-01 8.425816297531127930e-01 -2.353882789611816406e-01
3.576143085956573486e-01 -2.019643485546112061e-01 -3.741171956062316895e-01
3.576143085956573486e-01 -8.682345598936080933e-02 1.144944056868553162e-01
3.576143085956573486e-01 6.190981268882751465e-01 -1.045138016343116760e-01
3.576143085956573486e-01 4.168281555175781250e-01 9.043827652931213379e-02
-3.602019846439361572e-01 5.953747034072875977e-01 1.478009372949600220e-01
4.309491068124771118e-02 8.425816297531127930e-01 -2.059054374694824219e-01
8.295036852359771729e-02 8.425816297531127930e-01 -3.420394361019134521e-01
-3.602019846439361572e-01 -3.322492539882659912e-01 -1.206833794713020325e-01
3.012540340423583984e-01 2.094331532716751099e-01 -4.021184444427490234e-01
1.705903857946395874e-01 -2.612078329548239708e-03 4.011507630348205566e-01
-2.253597378730773926e-01 -6.926652193069458008e-01 3.585626184940338135e-01
-1.401767879724502563e-01 -6.926652193069458008e-01 -1.266087591648101807e-01
-6.324853748083114624e-02 6.390981078147888184e-01 4.011507630348205566e-01
-3.306316211819648743e-02 -1.848493516445159912e-01 -4.021184444427490234e-01
-2.180796563625335693e-01 2.696743607521057129e-01 4.011507630348205566e-01
2.955680787563323975e-01 -6.926652193069458008e-01 -3.983100354671478271e-01
2.448231279850006104e-01 -2.708441317081451416e-01 4.011507630348205566e-01
1.538856029510498047e-01 -6.926652193069458008e-01 -3.539073765277862549e-01
-3.022551834583282471e-01 -6.294599175453186035e-01 -4.021184444427490234e-01
-6.725301593542098999e-02 1.635842025279998779e-01 -4.021184444427490234e-01
1.441384255886077881e-01 1.138637661933898926e-01 4.011507630348205566e-01
3.576143085956573486e-01 -6.550198197364807129e-01 1.434973776340484619e-01
-1.623442620038986206e-01 -3.032901585102081299e-01 -4.021184444427490234e-01
2.214002162218093872e-01 -1.861820966005325317e-01 4.011507630348205566e-01
-5.090312659740447998e-02 -6.926652193069458008e-01 3.400547504425048828e-01
-3.602019846439361572e-01 2.280411869287490845e-01 2.592927217483520508e-01
-3.602019846439361572e-01 1.417814642190933228e-01 8.924584835767745972e-02
1.208013445138931274e-01 -7.631649374961853027e-01 1.688474416732788086e-01
-2.342730909585952759e-01 7.758598327636718750e-01 4.011507630348205566e-01
3.576143085956573486e-01 3.739700317382812500e-01 -1.635614410042762756e-02
3.576143085956573486e-01 -2.977645099163055420e-01 1.532559841871261597e-01
1.854577213525772095e-01 -6.926652193069458008e-01 -7.582765817642211914e-02
-1.847187429666519165e-01 2.535333931446075439e-01 -4.021184444427490234e-01
3.337668180465698242e-01 8.425816297531127930e-01 -9.050478041172027588e-02
1.641774922609329224e-01 5.547947287559509277e-01 -4.021184444427490234e-01
-2.703796625137329102e-01 -6.926652193069458008e-01 3.522031605243682861e-01
-1.077364981174468994e-01 -6.926652193069458008e-01 -2.377914637327194214e-01
-1.310468614101409912e-01 -7.631649374961853027e-01 -1.087762322276830673e-02
3.576143085956573486e-01 -5.693325027823448181e-02 2.314126193523406982e-01
2.053679972887039185e-01 9.802389144897460938e-02 -4.021184444427490234e-01
1.940782070159912109e-01 1.824927628040313721e-01 4.011507630348205566e-01
2.497840076684951782e-01 -7.615813016891479492e-01 3.669684231281280518e-01
5.547467246651649475e-02 6.666672229766845703e-01 -4.021184444427490234e-01
-1.832199841737747192e-01 7.512716948986053467e-02 4.011507630348205566e-01
3.576143085956573486e-01 -3.510776460170745850e-01 -2.112698554992675781e-01
-2.051317691802978516e-01 -2.689618766307830811e-01 4.011507630348205566e-01
-3.602019846439361572e-01 4.616954326629638672e-01 1.151335835456848145e-01
3.050328791141510010e-01 -1.855181008577346802e-01 4.011507630348205566e-01
3.234319686889648438e-01 -7.313123345375061035e-01 1.874755024909973145e-01
3.576143085956573486e-01 -3.191067576408386230e-01 -3.382090628147125244e-01
1.478257030248641968e-01 -5.918755531311035156e-01 4.011507630348205566e-01
-1.662576198577880859e-01 1.967304646968841553e-01 4.011507630348205566e-01
2.322015464305877686e-01 7.873070240020751953e-01 -4.021184444427490234e-01
-3.264688130002468824e-04 3.631553351879119873e-01 -4.021184444427490234e-01
-3.602019846439361572e-01 8.107184767723083496e-01 -2.761437892913818359e-01
3.140050917863845825e-02 -6.926652193069458008e-01 -9.460436552762985229e-02
-3.602019846439361572e-01 5.235155224800109863e-01 1.057718545198440552e-01
3.576143085956573486e-01 2.252440154552459717e-01 -1.196778565645217896e-01
3.472432196140289307e-01 7.858235239982604980e-01 4.011507630348205566e-01
1.191986128687858582e-01 -7.631649374961853027e-01 -3.065071702003479004e-01
-2.188829332590103149e-01 -7.631649374961853027e-01 6.462151557207107544e-02
3.576143085956573486e-01 3.524131178855895996e-01 3.879452943801879883e-01
3.576143085956573486e-01 7.882588356733322144e-02 2.790856361389160156e-01
-3.602019846439361572e-01 -5.182450637221336365e-02 -1.070362180471420288e-01
1.508928537368774414e-01 -6.926652193069458008e-01 -3.154415190219879150e-01
3.576143085956573486e-01 -5.756344795227050781e-01 -1.556470394134521484e-01
-3.602019846439361572e-01 6.160109639167785645e-01 6.528712809085845947e-02
1.121551245450973511e-01 8.425816297531127930e-01 -1.810629218816757202e-01
2.268867492675781250e-01 -6.926652193069458008e-01 -1.523299217224121094e-01
3.070658743381500244e-01 -7.631649374961853027e-01 -3.064279854297637939e-01
-4.556589573621749878e-02 -6.926652193069458008e-01 -1.654103025794029236e-02
-3.602019846439361572e-01 7.608922719955444336e-01 1.940658390522003174e-01
1.313565671443939209e-01 -4.975818097591400146e-01 4.011507630348205566e-01
3.576143085956573486e-01 -2.594942450523376465e-01 3.007026314735412598e-01
1.468650102615356445e-01 -6.684380769729614258e-01 4.011507630348205566e-01
-3.474220037460327148e-01 -6.926652193069458008e-01 -2.891116738319396973e-01
3.576143085956573486e-01 -3.758782148361206055e-01 6.270471215248107910e-02
-2.796526849269866943e-01 8.425816297531127930e-01 -3.199912011623382568e-01
-2.382503747940063477e-01 -6.926652193069458008e-01 -3.304920494556427002e-01
2.252286672592163086e-01 -7.631649374961853027e-01 8.837397396564483643e-02
-3.602019846439361572e-01 -4.781513810157775879e-01 1.486395150423049927e-01
-5.979444086551666260e-02 8.425816297531127930e-01 8.773020468652248383e-03
3.441156819462776184e-02 7.537304759025573730e-01 4.011507630348205566e-01
-3.602019846439361572e-01 2.481954172253608704e-02 1.857621967792510986e-02
3.576143085956573486e-01 -2.946696877479553223e-01 2.612789571285247803e-01
3.576143085956573486e-01 -4.778003096580505371e-01 -3.011370301246643066e-01
-3.602019846439361572e-01 -6.418401598930358887e-01 3.144709765911102295e-01
6.057530641555786133e-02 -6.122058257460594177e-02 4.011507630348205566e-01
3.576143085956573486e-01 -3.829302787780761719e-01 -3.975544571876525879e-01
3.576143085956573486e-01 -1.696261465549468994e-01 -1.198495775461196899e-01
3.576143085956573486e-01 1.895028501749038696e-01 -1.922514638863503933e-03
-3.602019846439361572e-01 2.211493998765945435e-01 2.036393731832504272e-01
-3.602019846439361572e-01 -2.715873122215270996e-01 -2.046242058277130127e-01
3.576143085956573486e-01 -5.110133290290832520e-01 -3.882651031017303467e-02
2.316177040338516235e-01 5.468745231628417969e-01 4.011507630348205566e-01
2.872605323791503906e-01 -5.831826329231262207e-01 -4.021184444427490234e-01
-2.655122876167297363e-01 -7.631649374961853027e-01 2.142088860273361206e-01
3.576143085956573486e-01 1.824479252099990845e-01 1.428791731595993042e-01
-4.839378222823143005e-02 8.425816297531127930e-01 -3.556961119174957275e-01
7.322811335325241089e-02 -7.349023222923278809e-01 -3.679380416870117188e-01
3.576143085956573486e-01 -3.302725255489349365e-01 2.257162034511566162e-01
1.140889078378677368e-01 -6.926652193069458008e-01 1.860015541315078735e-01
3.576143085956573486e-01 -4.851071238517761230e-01 2.124802172183990479e-01
3.038556277751922607e-01 5.716102123260498047e-01 -4.021184444427490234e-01
3.576143085956573486e-01 -5.658281445503234863e-01 3.465821444988250732e-01
2.169506847858428955e-01 2.227044403553009033e-01 4.011507630348205566e-01
-2.205314785242080688e-01 -7.631649374961853027e-01 -3.228866457939147949e-01
3.576143085956573486e-01 -5.600048303604125977e-01 1.665568500757217407e-01
2.881515920162200928e-01 3.405509293079376221e-01 -4.021184444427490234e-01
-3.179487287998199463e-01 7.248563170433044434e-01 4.011507630348205566e-01
3.044776320457458496e-01 8.425816297531127930e-01 1.819613128900527954e-01
3.576143085956573486e-01 -5.647627264261245728e-02 3.601119518280029297e-01
-1.263931840658187866e-01 8.425816297531127930e-01 -9.498606622219085693e-02
2.931191325187683105e-01 1.690335273742675781e-01 4.011507630348205566e-01
-3.602019846439361572e-01 3.291685879230499268e-01 -1.011909693479537964e-01
-1.009191125631332397e-01 8.425816297531127930e-01 2.598946988582611084e-01
-3.602019846439361572e-01 8.171075582504272461e-01 2.394520789384841919e-01
1.214882433414459229e-01 -6.926652193069458008e-01 -2.037673816084861755e-02
-3.602019846439361572e-01 4.042494595050811768e-01 -2.031989097595214844e-01
-1.131343096494674683e-01 -7.631649374961853027e-01 3.589728772640228271e-01
-3.602019846439361572e-01 7.837333083152770996e-01 -1.988896131515502930e-01
2.285619825124740601e-01 -6.926652193069458008e-01 -2.228506505489349365e-01
-2.930079102516174316e-01 -4.870361089706420898e-01 4.011507630348205566e-01
-3.602019846439361572e-01 -5.696556568145751953e-01 -3.788929581642150879e-01
-2.460666298866271973e-01 1.180967241525650024e-01 -4.021184444427490234e-01
-3.602019846439361572e-01 6.883004307746887207e-01 -7.803524285554885864e-02
-2.100707143545150757e-01 1.123398169875144958e-01 4.011507630348205566e-01
-1.535835415124893188e-01 -7.631649374961853027e-01 2.751541435718536377e-01
-3.602019846439361572e-01 -1.814371161162853241e-02 1.550495326519012451e-01
1.644885092973709106e-01 2.990742325782775879e-01 -4.021184444427490234e-01
-1.275955047458410263e-02 -5.708624720573425293e-01 -4.021184444427490234e-01
3.576143085956573486e-01 -1.676150709390640259e-01 -1.011708378791809082e-02
3.576143085956573486e-01 -1.122546046972274780e-01 -4.013580977916717529e-01
-3.260196745395660400e-01 -7.211912274360656738e-01 4.303265362977981567e-02
-1.210087388753890991e-01 -7.631649374961853027e-01 1.103139072656631470e-01
-1.298610270023345947e-01 -7.631649374961853027e-01 -1.373318731784820557e-01
-1.187276914715766907e-01 8.425816297531127930e-01 -1.894467920064926147e-01
3.469617664813995361e-01 -4.853827953338623047e-01 4.011507630348205566e-01
8.346534520387649536e-02 2.732697688043117523e-02 4.011507630348205566e-01
-3.602019846439361572e-01 -4.906594753265380859e-01 4.342036694288253784e-02
3.576143085956573486e-01 -6.366483569145202637e-01 -3.385477364063262939e-01
-3.602019846439361572e-01 6.876180320978164673e-02 -3.445704281330108643e-01
3.576143085956573486e-01 -2.420043200254440308e-01 -2.151364833116531372e-01
-2.176055163145065308e-01 5.340697765350341797e-01 4.011507630348205566e-01
-3.602019846439361572e-01 -6.261933445930480957e-01 -3.122045397758483887e-01
-2.817171514034271240e-01 8.425816297531127930e-01 3.109401464462280273e-01
3.576143085956573486e-01 7.362663745880126953e-01 -1.294393241405487061e-01
-1.100891008973121643e-01 -5.713740363717079163e-02 -4.021184444427490234e-01
3.576143085956573486e-01 7.520406693220138550e-02 -3.708840310573577881e-01
-3.602019846439361572e-01 4.637198448181152344e-01 -1.780406087636947632e-01
3.576143085956573486e-01 -2.010010555386543274e-02 -2.137560248374938965e-01
-6.506945937871932983e-02 -3.864925801753997803e-01 -4.021184444427490234e-01
-2.766045928001403809e-01 -7.631649374961853027e-01 -2.905064523220062256e-01
-1.365248113870620728e-01 1.344137042760848999e-01 -4.021184444427490234e-01
-3.602019846439361572e-01 7.375990748405456543e-01 5.409568548202514648e-02
3.576143085956573486e-01 -3.674838542938232422e-01 -1.004773676395416260e-01
-3.602019846439361572e-01 -4.672097563743591309e-01 -1.868661791086196899e-01
8.883018977940082550e-03 3.127468749880790710e-02 4.011507630348205566e-01
-3.602019846439361572e-01 4.672296643257141113e-01 3.016556799411773682e-01
-3.602019846439361572e-01 4.855400323867797852e-01 2.410597167909145355e-02
-2.317268252372741699e-01 8.425816297531127930e-01 -1.746319085359573364e-01
2.223351448774337769e-01 -7.631649374961853027e-01 1.698710918426513672e-01
-7.375413924455642700e-02 -6.926652193069458008e-01 3.101312741637229919e-02
-3.602019846439361572e-01 7.171011567115783691e-01 -2.197071611881256104e-01
3.576143085956573486e-01 -4.413579106330871582e-01 1.071456298232078552e-01
-3.602019846439361572e-01 -2.660855352878570557e-01 2.691247761249542236e-01
-3.090067505836486816e-01 -4.280923604965209961e-01 -4.021184444427490234e-01
-3.085564374923706055e-01 -7.631649374961853027e-01 1.127809956669807434e-01
-1.780797541141510010e-01 -3.982603251934051514e-01 -4.021184444427490234e-01
-6.677463650703430176e-03 8.425816297531127930e-01 -2.498082220554351807e-01
-2.519605159759521484e-01 -1.638295501470565796e-01 4.011507630348205566e-01
3.576143085956573486e-01 4.504778608679771423e-02 -7.309621572494506836e-02
2.354013174772262573e-01 -4.853647053241729736e-01 -4.021184444427490234e-01
3.247397020459175110e-02 8.425816297531127930e-01 -9.630355238914489746e-02
-3.431251347064971924e-01 9.080743789672851562e-02 4.011507630348205566e-01
-2.654941678047180176e-01 3.925895094871520996e-01 4.011507630348205566e-01
3.263178765773773193e-01 5.096196383237838745e-02 4.011507630348205566e-01
-2.190040946006774902e-01 -7.160261869430541992e-01 -3.679380416870117188e-01
3.576143085956573486e-01 -3.969380557537078857e-01 -1.953168511390686035e-01
3.576143085956573486e-01 2.730935513973236084e-01 4.509675502777099609e-02
-3.602019846439361572e-01 -4.724549353122711182e-01 2.119335681200027466e-01
6.065373122692108154e-02 -2.035918980836868286e-01 -4.021184444427490234e-01
-7.097200956195592880e-03 -1.224501654505729675e-01 4.011507630348205566e-01
2.123237103223800659e-01 8.425816297531127930e-01 1.676138937473297119e-01
3.576143085956573486e-01 4.380359053611755371e-01 3.414103984832763672e-01
3.576143085956573486e-01 5.656809806823730469e-01 -2.781452834606170654e-01
4.435916990041732788e-02 -3.831831216812133789e-01 4.011507630348205566e-01
-3.602019846439361572e-01 1.761876642704010010e-01 -3.485734760761260986e-01
3.219656646251678467e-01 -7.265365123748779297e-01 3.669684231281280518e-01
-3.118773698806762695e-01 8.425816297531127930e-01 -4.014496803283691406e-01
-2.446344820782542229e-03 8.425816297531127930e-01 -3.024945855140686035e-01
3.234319686889648438e-01 -7.394748926162719727e-01 2.854880094528198242e-01
2.087592892348766327e-02 8.425816297531127930e-01 2.576395636424422264e-03
-3.367093801498413086e-01 8.425816297531127930e-01 3.902521133422851562e-01
-7.628704607486724854e-02 4.010360687971115112e-02 -4.021184444427490234e-01
3.576143085956573486e-01 -4.489645734429359436e-02 -3.067409098148345947e-01
-2.949369251728057861e-01 -1.602319628000259399e-01 -4.021184444427490234e-01
-4.263287410140037537e-02 5.082503557205200195e-01 -4.021184444427490234e-01
-3.602019846439361572e-01 -2.674898505210876465e-01 8.562546223402023315e-02
-2.360361069440841675e-01 8.425816297531127930e-01 1.798500716686248779e-01
3.102351129055023193e-01 6.951377987861633301e-01 -4.021184444427490234e-01
-3.602019846439361572e-01 -1.502195894718170166e-01 1.819670349359512329e-01
-2.301450669765472412e-01 6.541114449501037598e-01 4.011507630348205566e-01
-3.602019846439361572e-01 5.529401898384094238e-01 -1.874376535415649414e-01
-1.591883748769760132e-01 6.449834108352661133e-01 -4.021184444427490234e-01
-3.361035883426666260e-01 4.646004140377044678e-01 4.011507630348205566e-01
3.576143085956573486e-01 -1.028375476598739624e-01 -1.159495636820793152e-01
-3.602019846439361572e-01 2.798906341195106506e-02 -3.891829848289489746e-01
-3.602019846439361572e-01 5.832959413528442383e-01 -1.147475093603134155e-01
-1.800898760557174683e-01 -6.926652193069458008e-01 1.361543387174606323e-01
-3.260196745395660400e-01 -7.217245101928710938e-01 1.765405982732772827e-01
