3.422040343284606934e-01 -1.104438751935958862e-01 2.511061131954193115e-01
-6.769088562577962875e-03 -3.977819979190826416e-01 5.588391423225402832e-01
-2.385645806789398193e-01 5.986540317535400391e-01 1.591916382312774658e-01
-4.292197823524475098e-01 -1.230704411864280701e-01 8.682563900947570801e-02
2.695953547954559326e-01 2.699372470378875732e-01 -6.744801402091979980e-01
-4.292197823524475098e-01 1.529955565929412842e-01 -2.435651421546936035e-01
-3.800343871116638184e-01 -5.429677963256835938e-01 1.740258783102035522e-01
3.290161490440368652e-01 -5.062521100044250488e-01 -3.171207904815673828e-01
-3.828605711460113525e-01 -3.581858873367309570e-01 4.492928385734558105e-01
3.415865004062652588e-01 -5.062521100044250488e-01 -2.260053306818008423e-01
2.796995639801025391e-01 -5.062521100044250488e-01 -4.974873065948486328e-01
3.422040343284606934e-01 2.011352926492691040e-01 1.814054995775222778e-01
1.207666695117950439e-01 -6.153752207756042480e-01 2.011305689811706543e-01
1.657458394765853882e-01 -2.078676670789718628e-01 6.812862157821655273e-01
-1.615169048309326172e-01 -4.915677607059478760e-01 -6.744801402091979980e-01
4.341980442404747009e-02 2.303500175476074219e-01 -4.095876812934875488e-01
3.088866770267486572e-01 3.148858547210693359e-01 5.034479498863220215e-01
-3.659577369689941406e-01 -5.062521100044250488e-01 -4.803408086299896240e-01
4.034714698791503906e-01 8.438646048307418823e-02 -6.254950165748596191e-01
1.368596255779266357e-01 -1.104142814874649048e-01 -5.249668359756469727e-01
-2.963340878486633301e-01 -1.379510462284088135e-01 -2.584230601787567139e-01
3.422040343284606934e-01 -3.222149908542633057e-01 -1.102148368954658508e-01
3.115836083889007568e-01 -3.367089033126831055e-01 5.948376655578613281e-01
-1.225220225751399994e-02 -1.104142814874649048e-01 -4.290010035037994385e-01
3.422040343284606934e-01 5.370679497718811035e-01 -5.585614442825317383e-01
-1.673310399055480957e-01 -5.062521100044250488e-01 -5.682394504547119141e-01
2.854318320751190186e-01 5.986540317535400391e-01 3.530646264553070068e-01
-4.292197823524475098e-01 3.821886843070387840e-03 5.274049043655395508e-01
-3.828605711460113525e-01 -2.524621188640594482e-01 -4.717379808425903320e-01
3.031386137008666992e-01 -4.449047446250915527e-01 -5.873213410377502441e-01
1.044547334313392639e-01 5.986540317535400391e-01 -1.580695062875747681e-01
1.823142766952514648e-01 2.848642170429229736e-01 5.948376655578613281e-01
3.145262002944946289e-01 -4.893502295017242432e-01 6.812862157821655273e-01
-4.101171791553497314e-01 5.986540317535400391e-01 5.017838478088378906e-01
3.422040343284606934e-01 -2.639305591583251953e-01 2.421343475580215454e-01
-3.828605711460113525e-01 -2.390888184309005737e-01 -4.045617282390594482e-01
4.034714698791503906e-01 5.244650840759277344e-01 -6.045438051223754883e-01
3.422040343284606934e-01 -2.640213370323181152e-01 4.572505354881286621e-01
-1.933760009706020355e-02 2.578907310962677002e-01 4.211957752704620361e-01
-1.649004369974136353e-01 -6.021173000335693359e-01 6.097823977470397949e-01
3.176364600658416748e-01 -2.613789401948451996e-02 5.948376655578613281e-01
-1.306824535131454468e-01 5.324425101280212402e-01 6.812862157821655273e-01
-2.779279053211212158e-01 4.645214676856994629e-01 6.812862157821655273e-01
4.505158960819244385e-02 2.303500175476074219e-01 -5.841212868690490723e-01
4.034714698791503906e-01 6.109826564788818359e-01 -1.461837589740753174e-01
-5.861802026629447937e-02 2.578907310962677002e-01 -5.413123369216918945e-01
-2.737493216991424561e-01 -5.720000267028808594e-01 -6.029753088951110840e-01
3.422040343284606934e-01 -4.048085212707519531e-01 4.453312456607818604e-01
2.751155495643615723e-01 1.962168663740158081e-01 -6.744801402091979980e-01
1.551119238138198853e-01 -1.379510462284088135e-01 1.171362996101379395e-01
4.034714698791503906e-01 5.126296281814575195e-01 2.512313723564147949e-01
-3.828605711460113525e-01 5.661741495132446289e-01 3.094428181648254395e-01
3.422040343284606934e-01 4.095594286918640137e-01 6.920605897903442383e-02
-3.577149510383605957e-01 -5.793678164482116699e-01 -1.677978783845901489e-01
-4.292197823524475098e-01 -4.499474763870239258e-01 -9.439680725336074829e-02
-4.292197823524475098e-01 4.223290383815765381e-01 -2.326934784650802612e-01
-3.762533366680145264e-01 -4.787133336067199707e-01 5.575991272926330566e-01
3.088866770267486572e-01 -3.570751547813415527e-01 -4.456059336662292480e-01
3.422040343284606934e-01 3.100621104240417480e-01 2.880437374114990234e-01
2.922028601169586182e-01 -6.153752207756042480e-01 5.865189433097839355e-01
-3.055504858493804932e-01 6.235895156860351562e-01 -1.062098518013954163e-01
-3.394133448600769043e-01 -4.787133336067199707e-01 1.718132793903350830e-01
-1.677778959274291992e-01 -6.153752207756042480e-01 1.360840499401092529e-01
2.748107314109802246e-01 2.578907310962677002e-01 5.394794419407844543e-02
-6.073345430195331573e-03 -6.153752207756042480e-01 3.072903752326965332e-01
-4.085852205753326416e-01 -2.570264339447021484e-01 6.812862157821655273e-01
-3.437369763851165771e-01 8.453442156314849854e-02 5.948376655578613281e-01
3.422040343284606934e-01 4.868655800819396973e-01 -2.978761494159698486e-01
2.474071383476257324e-01 -4.715675115585327148e-01 -5.873213410377502441e-01
-4.276733845472335815e-02 6.235895156860351562e-01 6.151732802391052246e-01
3.422040343284606934e-01 -1.393942087888717651e-01 4.560441076755523682e-01
6.636837869882583618e-02 -1.379510462284088135e-01 5.340279340744018555e-01
-1.777361184358596802e-01 2.578907310962677002e-01 5.248253345489501953e-01
-4.292197823524475098e-01 -2.480161935091018677e-01 1.721447110176086426e-01
-2.797656655311584473e-01 -5.062521100044250488e-01 3.934212923049926758e-01
3.422040343284606934e-01 4.581874608993530273e-01 5.858402252197265625e-01
3.365418016910552979e-01 -5.429677963256835938e-01 4.531439542770385742e-01
-2.028679102659225464e-01 -5.062521100044250488e-01 4.364749193191528320e-01
3.275138139724731445e-01 3.321704566478729248e-01 -5.873213410377502441e-01
3.422040343284606934e-01 2.191005349159240723e-01 -4.859251081943511963e-01
-3.317042589187622070e-01 3.132878243923187256e-01 -5.513188838958740234e-01
-3.046370446681976318e-01 2.578907310962677002e-01 -7.239748537540435791e-02
-2.369250953197479248e-01 2.578907310962677002e-01 -1.693831086158752441e-01
-1.706465035676956177e-01 2.578907310962677002e-01 -1.454893052577972412e-01
-2.740699052810668945e-01 6.182360649108886719e-01 -6.744801402091979980e-01
-4.292197823524475098e-01 -4.515041112899780273e-01 -6.633135080337524414e-01
-3.828605711460113525e-01 -3.822681307792663574e-01 -1.133201792836189270e-01
-4.292197823524475098e-01 -2.493774890899658203e-01 -1.971990168094635010e-01
-4.292197823524475098e-01 1.283606290817260742e-01 8.077889680862426758e-02
-1.667482405900955200e-02 5.986540317535400391e-01 -1.541325896978378296e-01
-6.773468852043151855e-02 3.802125453948974609e-01 6.812862157821655273e-01
2.841218411922454834e-01 2.578907310962677002e-01 -4.471724033355712891e-01
2.378405630588531494e-01 -5.062521100044250488e-01 3.115182816982269287e-01
1.614834070205688477e-01 3.102475702762603760e-01 -6.744801402091979980e-01
-4.292197823524475098e-01 6.234878897666931152e-01 2.243012934923171997e-01
-2.059002518653869629e-01 -5.062521100044250488e-01 -3.612082004547119141e-01
-4.292197823524475098e-01 2.333172559738159180e-01 6.768797039985656738e-01
3.422040343284606934e-01 -4.006160795688629150e-01 -3.433988094329833984e-01
-4.292197823524475098e-01 2.653680145740509033e-01 -1.476693451404571533e-01
1.445144861936569214e-01 -6.153752207756042480e-01 -5.253643989562988281e-01
4.034714698791503906e-01 4.305530488491058350e-01 9.581752866506576538e-02
-5.576361902058124542e-03 -5.062521100044250488e-01 3.161664605140686035e-01
-4.292197823524475098e-01 3.368205428123474121e-01 2.117654979228973389e-01
-4.292197823524475098e-01 -2.734281420707702637e-01 8.518142998218536377e-02
1.571337319910526276e-02 -1.104142814874649048e-01 2.847953736782073975e-01
3.088866770267486572e-01 -5.267803743481636047e-02 -2.726127393543720245e-02
2.799718379974365234e-01 -1.104142814874649048e-01 -2.001307457685470581e-01
-1.321059018373489380e-01 -5.062521100044250488e-01 -2.807138860225677490e-01
-2.370898425579071045e-01 1.338667124509811401e-01 -5.513188838958740234e-01
-3.577149510383605957e-01 -5.771166682243347168e-01 6.932650506496429443e-02
-2.180691063404083252e-01 -6.898928433656692505e-02 -6.744801402091979980e-01
-1.602246612310409546e-01 -1.379510462284088135e-01 -5.186584591865539551e-01
3.422040343284606934e-01 -1.677783429622650146e-01 -9.486694633960723877e-02
3.088866770267486572e-01 -1.825681924819946289e-01 1.911486685276031494e-01
-4.292197823524475098e-01 -1.654128283262252808e-01 -1.641292721033096313e-01
2.950231134891510010e-01 2.303500175476074219e-01 3.822221159934997559e-01
-3.828605711460113525e-01 4.893208444118499756e-01 -1.223008260130882263e-01
-5.947672203183174133e-02 -1.104142814874649048e-01 -6.014982610940933228e-02
-4.237213134765625000e-01 -1.612332314252853394e-01 2.596043646335601807e-01
-1.536460220813751221e-01 5.986540317535400391e-01 5.231572389602661133e-01
3.422040343284606934e-01 3.790031373500823975e-01 -1.418709903955459595e-01
4.034714698791503906e-01 -1.675623059272766113e-01 -6.152448058128356934e-01
3.422040343284606934e-01 -2.710981369018554688e-01 -2.556629776954650879e-01
-1.594305634498596191e-01 5.986540317535400391e-01 4.040049016475677490e-01
1.650139093399047852e-01 -1.379510462284088135e-01 -2.774309515953063965e-01
3.422040343284606934e-01 -1.519322581589221954e-02 3.938888609409332275e-01
-7.648391276597976685e-02 -4.787133336067199707e-01 -2.600990235805511475e-01
-2.387411594390869141e-01 -1.104142814874649048e-01 -4.194600582122802734e-01
-4.292197823524475098e-01 2.930280864238739014e-01 -2.495371252298355103e-01
-3.827056884765625000e-01 2.303500175476074219e-01 -1.200359389185905457e-01
1.021641939878463745e-01 -6.724031269550323486e-02 5.948376655578613281e-01
-4.292197823524475098e-01 3.221076726913452148e-01 3.617059290409088135e-01
-1.572297960519790649e-01 2.303500175476074219e-01 4.094294011592864990e-01
2.521509826183319092e-01 -6.153752207756042480e-01 3.289291560649871826e-01
3.282112181186676025e-01 2.303500175476074219e-01 -5.861849784851074219e-01
-3.008464118465781212e-03 -1.104142814874649048e-01 1.722315251827239990e-01
3.422040343284606934e-01 -8.223632723093032837e-02 3.023945987224578857e-01
-1.656846553087234497e-01 6.235895156860351562e-01 6.260893940925598145e-01
-3.577149510383605957e-01 -6.001533269882202148e-01 -4.270705282688140869e-01
2.105208337306976318e-01 -3.463198840618133545e-01 -6.744801402091979980e-01
-3.828605711460113525e-01 -3.682309091091156006e-01 3.124080598354339600e-01
-4.292197823524475098e-01 5.011187791824340820e-01 -5.726646184921264648e-01
4.034714698791503906e-01 -4.818936586380004883e-01 -6.285130977630615234e-02
4.034714698791503906e-01 -1.142713055014610291e-01 -3.821140527725219727e-01
-4.292197823524475098e-01 2.046007066965103149e-01 6.113380193710327148e-01
-3.427761495113372803e-01 2.578907310962677002e-01 -2.924180924892425537e-01
4.034714698791503906e-01 -3.513626158237457275e-01 -1.952734738588333130e-01
3.248529508709907532e-02 -3.670659065246582031e-01 6.812862157821655273e-01
4.034714698791503906e-01 -4.006071984767913818e-01 3.550158143043518066e-01
2.051525563001632690e-01 -3.911503404378890991e-02 5.948376655578613281e-01
1.815221458673477173e-01 -5.027117133140563965e-01 6.812862157821655273e-01
3.088866770267486572e-01 -6.345037370920181274e-02 1.330467611551284790e-01
-1.656560450792312622e-01 6.235895156860351562e-01 2.498034015297889709e-02
-3.828605711460113525e-01 3.469080030918121338e-01 -2.752528786659240723e-01
-2.566057741641998291e-01 -1.379510462284088135e-01 -1.638717949390411377e-01
3.702921867370605469e-01 -1.904854201711714268e-03 -6.744801402091979980e-01
1.491083800792694092e-01 5.167382359504699707e-01 6.812862157821655273e-01
-4.189400076866149902e-01 -1.612332314252853394e-01 1.803440898656845093e-01
-7.477211765944957733e-03 2.753558158874511719e-01 -6.744801402091979980e-01
-4.292197823524475098e-01 3.696920573711395264e-01 1.244044601917266846e-01
-3.828605711460113525e-01 5.489585995674133301e-01 -4.982744753360748291e-01
4.034714698791503906e-01 1.129119396209716797e-01 2.827731370925903320e-01
3.911733925342559814e-01 -5.429677963256835938e-01 6.418055295944213867e-01
4.034714698791503906e-01 2.829129993915557861e-01 6.344999074935913086e-01
-1.357745081186294556e-01 1.763840205967426300e-02 -5.873213410377502441e-01
-4.188788235187530518e-01 -1.612332314252853394e-01 -5.231967568397521973e-02
2.489341497421264648e-01 4.176956713199615479e-01 -5.513188838958740234e-01
-3.828605711460113525e-01 -2.692011892795562744e-01 -5.745591595768928528e-03
-4.292197823524475098e-01 -4.080992937088012695e-01 7.099863886833190918e-02
-1.227286979556083679e-01 -5.062521100044250488e-01 -4.654000401496887207e-01
-3.577149510383605957e-01 -6.121298074722290039e-01 5.675248503684997559e-01
1.748567074537277222e-01 -5.062521100044250488e-01 -3.962528407573699951e-01
-3.048589825630187988e-01 1.458958070725202560e-02 -6.744801402091979980e-01
-4.292197823524475098e-01 4.396145939826965332e-01 1.974599808454513550e-01
2.615129947662353516e-02 3.347184360027313232e-01 -6.744801402091979980e-01
-2.956692278385162354e-01 -6.153752207756042480e-01 5.246605873107910156e-01
4.034714698791503906e-01 -1.146856099367141724e-01 6.076526045799255371e-01
-6.919936835765838623e-02 4.357852041721343994e-01 -6.744801402091979980e-01
-3.729743659496307373e-01 -1.104142814874649048e-01 -1.861872822046279907e-01
-1.314005851745605469e-01 -5.062521100044250488e-01 4.274646937847137451e-01
4.034714698791503906e-01 3.980165719985961914e-02 4.350267946720123291e-01
-3.912542760372161865e-01 -5.062521100044250488e-01 -2.008893340826034546e-01
3.088866770267486572e-01 4.527205824851989746e-01 -1.778261214494705200e-01
1.924816071987152100e-01 2.303500175476074219e-01 2.251362241804599762e-02
-1.122979745268821716e-01 -3.726354241371154785e-01 -5.873213410377502441e-01
-3.106060624122619629e-01 -1.379510462284088135e-01 1.680321991443634033e-01
-3.234437108039855957e-01 4.730828702449798584e-01 5.948376655578613281e-01
3.422040343284606934e-01 2.076981663703918457e-01 -3.775063157081604004e-01
9.645127691328525543e-03 5.887251719832420349e-02 -5.873213410377502441e-01
-2.890889719128608704e-02 -5.062521100044250488e-01 -8.943998813629150391e-02
-1.171010062098503113e-01 -6.153752207756042480e-01 1.987299509346485138e-02
4.034714698791503906e-01 3.009976148605346680e-01 3.773894906044006348e-01
-3.828605711460113525e-01 2.071654796600341797e-01 -2.682066857814788818e-01
-8.586613833904266357e-02 4.846687316894531250e-01 5.948376655578613281e-01
-2.601293623447418213e-01 -3.431997597217559814e-01 5.948376655578613281e-01
1.382515132427215576e-01 2.303500175476074219e-01 -4.846368134021759033e-01
-3.828605711460113525e-01 3.680683374404907227e-01 -6.806154549121856689e-02
1.339298635721206665e-01 -7.233756594359874725e-03 5.948376655578613281e-01
3.422040343284606934e-01 2.792039811611175537e-01 -4.712605476379394531e-01
7.976930588483810425e-02 -3.777679204940795898e-01 5.948376655578613281e-01
3.422040343284606934e-01 -4.137921035289764404e-01 -7.115189731121063232e-02
1.918473243713378906e-01 -1.405503451824188232e-01 5.948376655578613281e-01
8.232658356428146362e-02 -5.062521100044250488e-01 -1.420288383960723877e-01
-1.145164966583251953e-01 4.554175138473510742e-01 -5.873213410377502441e-01
3.422040343284606934e-01 3.623676598072052002e-01 3.582671582698822021e-01
9.882111102342605591e-02 6.235895156860351562e-01 -4.271549731492996216e-02
-4.008853808045387268e-02 -3.162558674812316895e-01 -5.873213410377502441e-01
-4.292197823524475098e-01 -4.304562211036682129e-01 -3.355230093002319336e-01
-4.292197823524475098e-01 -4.084169566631317139e-01 -4.486333429813385010e-01
-3.675508499145507812e-01 6.235895156860351562e-01 1.216759383678436279e-01
-2.555315494537353516e-01 -5.914261937141418457e-01 6.097823977470397949e-01
-1.009597182273864746e-01 3.656357526779174805e-01 -5.513188838958740234e-01
-3.828605711460113525e-01 4.963512420654296875e-01 2.517167329788208008e-01
-5.044853314757347107e-02 -1.104142814874649048e-01 -3.247489929199218750e-01
3.088866770267486572e-01 4.822262823581695557e-01 -6.125711277127265930e-02
-7.705803215503692627e-02 -5.062521100044250488e-01 5.483640432357788086e-01
3.110035657882690430e-01 -6.808274239301681519e-02 -6.744801402091979980e-01
-4.292197823524475098e-01 4.984005540609359741e-02 4.446456730365753174e-01
-4.292197823524475098e-01 3.963015377521514893e-01 3.402693867683410645e-01
2.295060455799102783e-01 -1.104142814874649048e-01 1.262145936489105225e-01
-2.637151479721069336e-01 -4.787133336067199707e-01 -4.740107655525207520e-01
-1.795709282159805298e-01 -6.153752207756042480e-01 -6.663206964731216431e-03
9.287972748279571533e-02 -5.062521100044250488e-01 4.219573140144348145e-01
-3.243769109249114990e-01 -1.104142814874649048e-01 -1.230860352516174316e-01
1.613393723964691162e-01 -1.104142814874649048e-01 3.583588898181915283e-01
2.865047007799148560e-02 5.986540317535400391e-01 2.093733549118041992e-01
2.444428801536560059e-01 5.986540317535400391e-01 2.208783030509948730e-01
4.034714698791503906e-01 -1.035673245787620544e-01 5.137080550193786621e-01
4.034714698791503906e-01 -1.061833947896957397e-01 -2.687866985797882080e-01
-1.898191571235656738e-01 -5.062521100044250488e-01 1.244133412837982178e-01
8.639638312160968781e-03 -1.165943965315818787e-01 -6.744801402091979980e-01
-3.859452009201049805e-01 -5.062521100044250488e-01 -5.531063675880432129e-01
-7.237524539232254028e-02 -1.379510462284088135e-01 -2.425007671117782593e-01
-4.292197823524475098e-01 4.822627902030944824e-01 -1.862543672323226929e-01
-4.283507168292999268e-01 3.715011775493621826e-01 5.948376655578613281e-01
-1.657359600067138672e-01 1.628038138151168823e-01 5.948376655578613281e-01
1.900776326656341553e-01 5.480313301086425781e-01 5.588391423225402832e-01
-4.206913337111473083e-02 1.988102495670318604e-01 -6.744801402091979980e-01
-4.292197823524475098e-01 -4.257468879222869873e-01 2.122409492731094360e-01
1.336073130369186401e-01 -5.062521100044250488e-01 -1.774364709854125977e-01
3.367963135242462158e-01 1.710229218006134033e-01 -6.744801402091979980e-01
3.088866770267486572e-01 -2.561593353748321533e-01 -1.468851268291473389e-01
3.422040343284606934e-01 3.579749763011932373e-01 2.270307987928390503e-01
3.422040343284606934e-01 -4.764020740985870361e-01 4.752394258975982666e-01
-3.305175304412841797e-01 2.686321735382080078e-01 -6.744801402091979980e-01
3.319686353206634521e-01 -6.042451262474060059e-01 -5.228015780448913574e-01
-1.290370523929595947e-01 2.501411736011505127e-01 -6.744801402091979980e-01
-1.691115796566009521e-01 4.608905687928199768e-02 -6.744801402091979980e-01
-4.292197823524475098e-01 1.369679123163223267e-01 5.146698355674743652e-01
-2.947173118591308594e-01 -5.062521100044250488e-01 6.566223502159118652e-02
1.481041759252548218e-01 -1.104142814874649048e-01 -3.302583396434783936e-01
2.962137460708618164e-01 2.578907310962677002e-01 5.334084033966064453e-01
-1.244855672121047974e-01 2.578907310962677002e-01 -3.562049269676208496e-01
1.007811948657035828e-01 2.578907310962677002e-01 -2.886133491992950439e-01
3.390868604183197021e-01 -5.062521100044250488e-01 8.722495287656784058e-02
4.592804610729217529e-02 -1.930008828639984131e-01 5.948376655578613281e-01
2.299933582544326782e-01 2.578907310962677002e-01 -4.992550313472747803e-01
-4.292197823524475098e-01 -1.092877611517906189e-01 4.180963337421417236e-01
-2.883931696414947510e-01 3.144113719463348389e-01 5.948376655578613281e-01
4.034714698791503906e-01 -3.889641165733337402e-01 1.200384348630905151e-01
1.606360375881195068e-01 5.874736309051513672e-01 -5.873213410377502441e-01
4.034714698791503906e-01 -1.982517689466476440e-01 9.614188224077224731e-03
-4.292197823524475098e-01 5.490089654922485352e-01 6.350167393684387207e-01
-3.289116024971008301e-01 5.986540317535400391e-01 7.591273635625839233e-02
-3.235502541065216064e-01 -6.153752207756042480e-01 3.683615028858184814e-01
-4.292197823524475098e-01 3.589860796928405762e-01 -6.353910565376281738e-01
1.205358430743217468e-01 -1.104142814874649048e-01 -1.279847472906112671e-01
-4.292197823524475098e-01 -2.783041596412658691e-01 -3.107798993587493896e-01
2.637891471385955811e-01 -5.062521100044250488e-01 6.634151190519332886e-02
-3.828605711460113525e-01 -3.272984921932220459e-02 1.081822887063026428e-01
-2.336583845317363739e-02 -1.104142814874649048e-01 4.824592769145965576e-01
1.847932189702987671e-01 5.986540317535400391e-01 -1.154519021511077881e-01
-2.404842227697372437e-01 4.968535155057907104e-03 5.588391423225402832e-01
-7.668978068977594376e-03 -4.787133336067199707e-01 -4.490496218204498291e-01
4.034714698791503906e-01 2.831379473209381104e-01 1.232236847281455994e-01
-2.095136195421218872e-01 -1.309721544384956360e-02 -5.873213410377502441e-01
3.422040343284606934e-01 5.853172540664672852e-01 -3.633123040199279785e-01
2.818490564823150635e-01 -2.120985537767410278e-01 -5.873213410377502441e-01
3.422040343284606934e-01 -4.466665387153625488e-01 -4.299687147140502930e-01
-1.805672347545623779e-01 2.303500175476074219e-01 2.006846964359283447e-01
-4.292197823524475098e-01 4.449591636657714844e-01 -4.584899544715881348e-01
-4.292197823524475098e-01 -3.938322663307189941e-01 6.673210263252258301e-01
-3.828605711460113525e-01 3.959799706935882568e-01 -1.474030166864395142e-01
-5.070846527814865112e-02 -4.797570407390594482e-01 -6.744801402091979980e-01
6.770630925893783569e-02 -5.062521100044250488e-01 -4.913012683391571045e-01
-3.689535856246948242e-01 -1.610438376665115356e-01 -6.744801402091979980e-01
-8.235526829957962036e-02 6.235895156860351562e-01 -3.782093152403831482e-02
3.422040343284606934e-01 -1.932359114289283752e-02 -5.047446489334106445e-01
3.003968857228755951e-02 -1.104142814874649048e-01 4.050114750862121582e-02
1.044280976057052612e-01 -1.379510462284088135e-01 2.128298580646514893e-01
1.347141116857528687e-01 -4.787133336067199707e-01 1.105842962861061096e-01
-4.234530031681060791e-01 6.235895156860351562e-01 -1.848989725112915039e-01
3.060979545116424561e-01 2.578907310962677002e-01 1.755045652389526367e-01
3.422040343284606934e-01 -1.277629882097244263e-01 -4.366811364889144897e-02
1.287796199321746826e-01 -5.521624684333801270e-01 -6.029753088951110840e-01
-2.809651792049407959e-01 6.235895156860351562e-01 -4.443965554237365723e-01
-4.292197823524475098e-01 4.529099762439727783e-01 4.434047341346740723e-01
1.654883921146392822e-01 3.518146276473999023e-01 -5.873213410377502441e-01
3.422040343284606934e-01 8.967689424753189087e-02 1.394117251038551331e-02
-1.144652068614959717e-01 2.303500175476074219e-01 -1.149645894765853882e-01
2.905248701572418213e-01 7.410577684640884399e-02 6.812862157821655273e-01
1.209304332733154297e-01 2.303500175476074219e-01 6.410463899374008179e-02
-4.292197823524475098e-01 -1.208193525671958923e-01 2.103834748268127441e-01
-3.572394847869873047e-01 2.187375277280807495e-01 6.812862157821655273e-01
-2.918072640895843506e-01 -1.104142814874649048e-01 -3.791428506374359131e-01
-2.010568976402282715e-02 5.986540317535400391e-01 1.418192535638809204e-01
-4.292197823524475098e-01 -4.713675379753112793e-02 6.710379719734191895e-01
-4.292197823524475098e-01 1.323070228099822998e-01 -3.874467909336090088e-01
3.422040343284606934e-01 -1.770776063203811646e-01 1.476146578788757324e-01
5.263689532876014709e-02 -1.104142814874649048e-01 -3.493852168321609497e-02
-1.198265701532363892e-01 2.303500175476074219e-01 5.254546999931335449e-01
2.805784940719604492e-01 5.399366021156311035e-01 6.812862157821655273e-01
3.422040343284606934e-01 -1.808310449123382568e-01 -3.987988829612731934e-01
3.192059397697448730e-01 6.235895156860351562e-01 4.653472900390625000e-01
-3.828605711460113525e-01 -3.125359416007995605e-01 -4.693389534950256348e-01
-2.851595878601074219e-01 1.969132870435714722e-01 5.588391423225402832e-01
-1.158531382679939270e-01 5.986540317535400391e-01 8.400350064039230347e-02
-3.577149510383605957e-01 -5.696670413017272949e-01 -3.017528653144836426e-01
-3.828605711460113525e-01 -1.464039385318756104e-01 -2.882680892944335938e-01
4.034714698791503906e-01 -5.053278207778930664e-01 9.247700870037078857e-02
3.422040343284606934e-01 -2.590545713901519775e-01 -3.457091152667999268e-01
-3.731687068939208984e-01 -2.203324586153030396e-01 5.948376655578613281e-01
-1.328565776348114014e-01 -1.379510462284088135e-01 -2.654613852500915527e-01
3.736362755298614502e-01 3.128675818443298340e-01 6.812862157821655273e-01
3.422040343284606934e-01 3.439378142356872559e-01 5.571299791336059570e-02
4.834711924195289612e-02 -2.599364519119262695e-01 5.948376655578613281e-01
1.578157693147659302e-01 5.955832004547119141e-01 6.812862157821655273e-01
-4.956260323524475098e-02 -3.281376361846923828e-01 6.812862157821655273e-01
-4.292197823524475098e-01 -4.002740234136581421e-02 4.036369621753692627e-01
-4.292197823524475098e-01 1.849069632589817047e-02 1.279369443655014038e-01
-1.410569399595260620e-01 -1.379510462284088135e-01 2.159855216741561890e-01
-3.617081344127655029e-01 2.303500175476074219e-01 -3.612535893917083740e-01
-4.292197823524475098e-01 1.866611242294311523e-01 -3.017153739929199219e-01
3.422040343284606934e-01 8.213015645742416382e-02 -4.210058152675628662e-01
-1.979721486568450928e-01 -6.100298836827278137e-02 5.948376655578613281e-01
4.034714698791503906e-01 2.208357155323028564e-01 1.584527790546417236e-01
2.976934015750885010e-01 6.235895156860351562e-01 -2.316478341817855835e-01
-4.292197823524475098e-01 4.556306004524230957e-01 2.888121604919433594e-01
2.460971623659133911e-01 2.303500175476074219e-01 -8.747301250696182251e-02
-3.828605711460113525e-01 -3.423356413841247559e-01 -2.943485975265502930e-01
-3.629648387432098389e-01 2.578907310962677002e-01 2.628843486309051514e-01
-4.022378101944923401e-02 -5.062521100044250488e-01 4.014549255371093750e-01
1.342228353023529053e-01 -4.787133336067199707e-01 2.170025557279586792e-01
-4.242539703845977783e-01 6.235895156860351562e-01 4.327224493026733398e-01
-1.565629392862319946e-01 6.235895156860351562e-01 1.781679838895797729e-01
9.279292076826095581e-02 7.475741952657699585e-02 -5.513188838958740234e-01
3.028722703456878662e-01 -1.379510462284088135e-01 3.312463164329528809e-01
1.598498374223709106e-01 5.986540317535400391e-01 4.313502907752990723e-01
-3.828605711460113525e-01 -3.918780982494354248e-01 1.967842578887939453e-01
1.856218427419662476e-01 -5.062521100044250488e-01 3.972348868846893311e-01
3.422040343284606934e-01 2.616076767444610596e-01 3.220447301864624023e-01
4.034714698791503906e-01 -7.050375919789075851e-03 5.572193861007690430e-01
1.842851936817169189e-01 6.235895156860351562e-01 -4.364565908908843994e-01
4.034714698791503906e-01 5.640789270401000977e-01 1.445990800857543945e-01
4.034714698791503906e-01 4.887633025646209717e-02 -4.956653118133544922e-01
4.034714698791503906e-01 3.805991262197494507e-02 -4.591800644993782043e-02
-1.249797716736793518e-01 -1.379510462284088135e-01 -3.546611368656158447e-01
3.319686353206634521e-01 -6.102180480957031250e-01 3.013884425163269043e-01
4.034714698791503906e-01 -5.145227164030075073e-02 6.802307367324829102e-01
3.088866770267486572e-01 4.559383690357208252e-01 2.840890586376190186e-01
1.453085839748382568e-01 -5.379704236984252930e-01 -6.744801402091979980e-01
-3.371780812740325928e-01 -1.104142814874649048e-01 5.234314799308776855e-01
1.426254361867904663e-01 -1.379510462284088135e-01 2.989292442798614502e-01
2.591034770011901855e-01 -6.153752207756042480e-01 -5.625693202018737793e-01
-1.260500699281692505e-01 7.967695593833923340e-02 5.948376655578613281e-01
1.465445905923843384e-01 1.888017207384109497e-01 5.948376655578613281e-01
-3.324973583221435547e-01 5.323270559310913086e-01 -6.744801402091979980e-01
-2.006612122058868408e-01 -1.379510462284088135e-01 2.569666206836700439e-01
3.388427942991256714e-02 2.260185182094573975e-01 -6.744801402091979980e-01
-1.596367359161376953e-01 -5.628427863121032715e-01 -6.029753088951110840e-01
3.050030171871185303e-01 -6.153752207756042480e-01 3.544940054416656494e-01
3.422040343284606934e-01 1.036499515175819397e-01 1.527146100997924805e-01
-1.314272135496139526e-01 5.589572787284851074e-01 -6.744801402091979980e-01
3.422040343284606934e-01 7.324904203414916992e-02 -1.889434158802032471e-01
-3.846450448036193848e-01 6.235895156860351562e-01 5.505612120032310486e-02
-5.265808477997779846e-02 2.578907310962677002e-01 3.240195512771606445e-01
9.707213938236236572e-02 2.303500175476074219e-01 3.966351449489593506e-01
-3.828605711460113525e-01 -2.641278505325317383e-01 -1.645169407129287720e-01
-4.120427370071411133e-01 2.303500175476074219e-01 9.272825717926025391e-02
-4.292197823524475098e-01 7.968354970216751099e-02 -2.898099422454833984e-01
-4.292197823524475098e-01 3.126416802406311035e-01 -5.691120773553848267e-02
3.181326687335968018e-01 3.259883522987365723e-01 5.948376655578613281e-01
1.022555492818355560e-02 -4.787133336067199707e-01 8.749396540224552155e-03
-3.875718414783477783e-01 3.395254313945770264e-01 -5.873213410377502441e-01
-1.175597012042999268e-01 -6.153752207756042480e-01 -2.263900637626647949e-01
-1.052183192223310471e-02 5.248290896415710449e-01 -5.873213410377502441e-01
-1.671554446220397949e-01 -1.104142814874649048e-01 1.534731835126876831e-01
-2.230911254882812500e-01 -5.429677963256835938e-01 -6.045072674751281738e-01
9.133198112249374390e-02 9.383438527584075928e-02 -6.744801402091979980e-01
-1.628920137882232666e-01 -4.386496543884277344e-01 -5.873213410377502441e-01
-3.828605711460113525e-01 1.063373386859893799e-01 -5.049290657043457031e-01
6.696676462888717651e-02 4.391272962093353271e-01 5.948376655578613281e-01
-3.828605711460113525e-01 -3.087036013603210449e-01 -4.003801643848419189e-01
-3.828605711460113525e-01 -1.533011943101882935e-01 -4.105484783649444580e-01
-1.880701780319213867e-01 5.645849704742431641e-01 5.588391423225402832e-01
1.438137050718069077e-02 -5.062521100044250488e-01 4.927439987659454346e-01
4.034714698791503906e-01 5.736070275306701660e-01 3.145678341388702393e-02
1.418214738368988037e-01 6.235895156860351562e-01 2.183431386947631836e-01
8.113229274749755859e-02 2.747866511344909668e-01 5.588391423225402832e-01
3.088866770267486572e-01 -2.842327058315277100e-01 -3.052833974361419678e-01
3.422040343284606934e-01 -3.613257706165313721e-01 -1.806365251541137695e-01
-3.740959465503692627e-01 -4.527867212891578674e-02 -5.873213410377502441e-01
4.034714698791503906e-01 -2.090662121772766113e-01 5.521489977836608887e-01
1.715935319662094116e-01 -2.702241539955139160e-01 6.812862157821655273e-01
4.034714698791503906e-01 5.008099675178527832e-01 4.720245897769927979e-01
1.920732259750366211e-01 -4.963878169655799866e-02 -5.873213410377502441e-01
3.319686353206634521e-01 -5.552619099617004395e-01 -5.589086413383483887e-01
-4.292197823524475098e-01 -1.169288009405136108e-01 -5.103851556777954102e-01
2.775777280330657959e-01 -4.787133336067199707e-01 4.258153438568115234e-01
4.034714698791503906e-01 5.866016149520874023e-01 -5.843126773834228516e-01
3.422040343284606934e-01 8.829408138990402222e-02 3.303377926349639893e-01
-4.292197823524475098e-01 2.907651662826538086e-01 5.273743271827697754e-01
-2.838653326034545898e-01 5.986540317535400391e-01 4.668674468994140625e-01
-3.382079005241394043e-01 -3.954007327556610107e-01 5.948376655578613281e-01
-3.723734407685697079e-04 -1.379510462284088135e-01 -5.468236207962036133e-01
-1.841056197881698608e-01 3.946788311004638672e-01 5.948376655578613281e-01
3.422040343284606934e-01 8.531323820352554321e-02 -5.858900547027587891e-01
3.088866770267486572e-01 -2.730927467346191406e-01 1.037600338459014893e-01
4.302295297384262085e-02 -5.062521100044250488e-01 2.739325463771820068e-01
-2.665748596191406250e-01 -1.882826834917068481e-01 -6.744801402091979980e-01
3.269771635532379150e-01 -5.062521100044250488e-01 2.937128841876983643e-01
-4.292197823524475098e-01 -5.089954137802124023e-01 -1.040327474474906921e-01
-2.530608698725700378e-02 -5.062521100044250488e-01 2.332059890031814575e-01
3.422040343284606934e-01 4.942323565483093262e-01 3.490310311317443848e-01
2.493849843740463257e-01 -1.379510462284088135e-01 2.834670059382915497e-02
-3.016559779644012451e-01 2.303500175476074219e-01 7.344592362642288208e-02
-2.604766190052032471e-01 -5.062521100044250488e-01 -5.740762948989868164e-01
1.339861005544662476e-01 5.986540317535400391e-01 5.405434370040893555e-01
-3.045887053012847900e-01 -6.153752207756042480e-01 -8.469960838556289673e-02
3.183960318565368652e-01 6.235895156860351562e-01 2.220640182495117188e-01
3.088866770267486572e-01 -2.015613019466400146e-01 3.258681595325469971e-01
-3.468876779079437256e-01 -5.062521100044250488e-01 4.876923859119415283e-01
-3.828605711460113525e-01 -4.380094408988952637e-01 -2.251047044992446899e-01
-4.292197823524475098e-01 -2.584639191627502441e-02 3.010017275810241699e-01
7.635934650897979736e-02 -5.913620591163635254e-01 6.097823977470397949e-01
-1.588751971721649170e-01 -1.104142814874649048e-01 3.042215108871459961e-01
-2.396043092012405396e-01 -1.019515246152877808e-01 5.948376655578613281e-01
-4.292197823524475098e-01 3.788581192493438721e-01 2.834153175354003906e-01
3.186170160770416260e-01 -5.062521100044250488e-01 5.922728776931762695e-01
-3.828605711460113525e-01 4.431796371936798096e-01 9.269175678491592407e-02
4.034714698791503906e-01 4.147856235504150391e-01 -6.691759824752807617e-01
-1.142669245600700378e-01 -5.062521100044250488e-01 1.154021173715591431e-01
2.092991769313812256e-02 5.986540317535400391e-01 4.927025437355041504e-01
3.422040343284606934e-01 5.012841522693634033e-02 -1.312104314565658569e-01
-1.408655643463134766e-01 5.986540317535400391e-01 -4.905348122119903564e-01
2.214023619890213013e-01 -2.828013896942138672e-01 5.948376655578613281e-01
2.493721693754196167e-01 -6.153752207756042480e-01 -4.133598506450653076e-01
-3.014872968196868896e-01 4.332849755883216858e-02 -5.873213410377502441e-01
-4.292197823524475098e-01 -3.693189918994903564e-01 -5.718814134597778320e-01
2.708885967731475830e-01 2.303500175476074219e-01 -1.388948857784271240e-01
-1.136711165308952332e-01 1.951653212308883667e-01 -6.744801402091979980e-01
4.034714698791503906e-01 1.915164291858673096e-01 5.434505343437194824e-01
-3.828605711460113525e-01 3.545569479465484619e-01 1.576981544494628906e-01
-3.828605711460113525e-01 5.947250127792358398e-01 2.060065865516662598e-01
1.039847917854785919e-02 -9.578128159046173096e-02 5.588391423225402832e-01
-3.547783195972442627e-01 -3.562603592872619629e-01 -6.744801402091979980e-01
-2.660253942012786865e-01 5.986540317535400391e-01 2.981745600700378418e-01
1.849697977304458618e-01 2.303500175476074219e-01 3.198577463626861572e-01
-3.677698671817779541e-01 6.033337712287902832e-01 6.812862157821655273e-01
-3.507190644741058350e-01 -1.286093592643737793e-01 5.948376655578613281e-01
-1.984634101390838623e-01 -1.379510462284088135e-01 -1.098833903670310974e-01
-2.543379366397857666e-01 -1.104142814874649048e-01 4.344191253185272217e-01
-2.826721221208572388e-02 -5.062521100044250488e-01 1.735711246728897095e-01
-2.746262550354003906e-01 2.303500175476074219e-01 2.646254003047943115e-01
4.034714698791503906e-01 -2.225835323333740234e-01 4.603519439697265625e-01
-1.948342621326446533e-01 -1.769187748432159424e-01 6.812862157821655273e-01
4.034714698791503906e-01 4.852606058120727539e-01 4.056996405124664307e-01
-2.948189079761505127e-01 5.986540317535400391e-01 -5.634508281946182251e-02
4.034714698791503906e-01 3.832922577857971191e-01 5.016397833824157715e-01
2.769908010959625244e-01 6.235895156860351562e-01 -1.088486015796661377e-01
-1.342405676841735840e-01 2.578907310962677002e-01 -2.330693155527114868e-01
-3.620089888572692871e-01 -5.429677963256835938e-01 -3.843098878860473633e-01
3.712585568428039551e-02 4.292509555816650391e-01 -5.513188838958740234e-01
-3.739542886614799500e-02 4.517235234379768372e-02 6.812862157821655273e-01
1.787304878234863281e-01 -3.788392245769500732e-01 5.588391423225402832e-01
-4.292197823524475098e-01 -2.519008219242095947e-01 -3.607643246650695801e-01
-2.856843769550323486e-01 -1.845095157623291016e-01 6.812862157821655273e-01
3.422040343284606934e-01 5.608372390270233154e-02 2.438842952251434326e-01
-3.643834788817912340e-04 3.395145535469055176e-01 5.948376655578613281e-01
-2.656170129776000977e-01 -6.153752207756042480e-01 -1.908482462167739868e-01
-3.828605711460113525e-01 3.145974501967430115e-02 -8.190786093473434448e-02
-4.292197823524475098e-01 -2.641781866550445557e-01 -4.371106326580047607e-01
3.517923355102539062e-01 -4.738630056381225586e-01 -6.744801402091979980e-01
1.511158049106597900e-01 -1.104142814874649048e-01 1.973317563533782959e-01
3.422040343284606934e-01 -3.989616408944129944e-03 2.448056489229202271e-01
2.824399173259735107e-01 2.717513442039489746e-01 5.948376655578613281e-01
-4.292197823524475098e-01 -4.449087083339691162e-01 1.360222790390253067e-02
-4.292197823524475098e-01 1.443660855293273926e-01 -6.293431520462036133e-01
-3.577149510383605957e-01 -5.951638221740722656e-01 -4.489269480109214783e-02
-3.828605711460113525e-01 2.954478561878204346e-01 -5.038992166519165039e-01
-4.292197823524475098e-01 -4.502575099468231201e-02 6.884295493364334106e-03
-1.842003166675567627e-01 3.710207939147949219e-01 -5.873213410377502441e-01
-3.536793887615203857e-01 -1.379510462284088135e-01 8.391975611448287964e-02
-8.230841159820556641e-02 -4.787133336067199707e-01 7.856135815382003784e-02
2.547946572303771973e-01 -1.104142814874649048e-01 4.694696664810180664e-01
3.422040343284606934e-01 1.612462252378463745e-01 7.723715156316757202e-02
-3.462247848510742188e-01 2.303500175476074219e-01 -2.120233923196792603e-01
3.422040343284606934e-01 -3.089689314365386963e-01 3.955983817577362061e-01
2.428448349237442017e-01 4.617594182491302490e-01 5.588391423225402832e-01
3.183033168315887451e-01 -5.062521100044250488e-01 -4.384827613830566406e-01
5.149793997406959534e-02 -3.214771151542663574e-01 -5.513188838958740234e-01
1.347150951623916626e-01 -1.776684820652008057e-01 -5.873213410377502441e-01
-3.828605711460113525e-01 5.372494459152221680e-01 -8.929575793445110321e-03
-3.267986476421356201e-01 -6.153752207756042480e-01 -3.112149238586425781e-01
-4.292197823524475098e-01 5.624256730079650879e-01 5.710701346397399902e-01
3.088866770267486572e-01 -4.251757562160491943e-01 2.350141406059265137e-01
1.052168663591146469e-02 1.134202480316162109e-01 6.812862157821655273e-01
-3.577149510383605957e-01 -6.118357777595520020e-01 -1.204916760325431824e-01
-3.151624798774719238e-01 -2.505059838294982910e-01 -5.513188838958740234e-01
-3.828605711460113525e-01 -2.470780760049819946e-01 2.559268772602081299e-01
-3.828605711460113525e-01 4.676958620548248291e-01 -3.553990125656127930e-01
-3.276578485965728760e-01 -6.153752207756042480e-01 -5.677925944328308105e-01
4.034714698791503906e-01 -3.144437372684478760e-01 -6.335957050323486328e-01
4.034714698791503906e-01 -2.734902501106262207e-01 -7.444950193166732788e-02
3.422040343284606934e-01 4.411485493183135986e-01 -3.828933238983154297e-01
2.157805711030960083e-01 -3.450424373149871826e-01 -5.873213410377502441e-01
2.407802045345306396e-01 -5.062521100044250488e-01 -2.458961158990859985e-01
3.422040343284606934e-01 -9.431567043066024780e-03 -4.249792695045471191e-01
-3.699025511741638184e-01 5.171968936920166016e-01 5.948376655578613281e-01
3.422040343284606934e-01 1.737218499183654785e-01 -1.827830374240875244e-01
-2.286438494920730591e-01 -1.379510462284088135e-01 1.139066591858863831e-01
-9.859835356473922729e-02 -1.104142814874649048e-01 3.150468170642852783e-01
1.199735701084136963e-01 3.159739077091217041e-01 -5.873213410377502441e-01
3.088866770267486572e-01 -8.631629496812820435e-02 -2.575155198574066162e-01
1.531903147697448730e-01 5.739984917454421520e-04 -6.744801402091979980e-01
4.034714698791503906e-01 7.403830438852310181e-02 2.157231122255325317e-01
2.564104795455932617e-01 -1.104142814874649048e-01 -2.913704812526702881e-01
2.025818824768066406e-01 -5.062521100044250488e-01 5.479714274406433105e-01
2.864133715629577637e-01 -1.858589798212051392e-01 5.588391423225402832e-01
2.495171576738357544e-01 -4.014447033405303955e-01 -6.744801402091979980e-01
-3.828605711460113525e-01 1.676660329103469849e-01 -9.916658699512481689e-02
3.319686353206634521e-01 -5.890024304389953613e-01 -2.985281646251678467e-01
1.778742671012878418e-01 -4.782201349735260010e-01 5.948376655578613281e-01
-1.917762756347656250e-01 -1.985023170709609985e-01 -5.513188838958740234e-01
-2.100860700011253357e-02 -6.153752207756042480e-01 1.116220429539680481e-01
2.111462354660034180e-01 4.229544401168823242e-01 -6.744801402091979980e-01
2.249022871255874634e-01 2.578907310962677002e-01 -4.154813289642333984e-02
3.088866770267486572e-01 -6.922110915184020996e-02 6.948473304510116577e-02
-4.292197823524475098e-01 5.578386187553405762e-01 -3.356907069683074951e-01
2.899596691131591797e-01 -6.153752207756042480e-01 3.413173556327819824e-02
-1.028644517064094543e-01 -1.968914419412612915e-01 -5.513188838958740234e-01
3.088866770267486572e-01 2.866941094398498535e-01 1.263191699981689453e-01
-4.292197823524475098e-01 -1.704853959381580353e-02 -1.748342216014862061e-01
-1.366050839424133301e-01 2.303500175476074219e-01 -2.277154661715030670e-02
-4.002648591995239258e-02 5.771582722663879395e-01 -5.873213410377502441e-01
3.088866770267486572e-01 4.373812675476074219e-01 5.337389111518859863e-01
3.575301170349121094e-02 -1.104142814874649048e-01 -2.422847300767898560e-01
-3.828605711460113525e-01 5.030768513679504395e-01 3.783414065837860107e-01
-7.077996432781219482e-02 -5.062521100044250488e-01 -2.096134871244430542e-01
3.422040343284606934e-01 4.585721790790557861e-01 1.506174057722091675e-01
-4.920511320233345032e-02 -2.310038805007934570e-01 -5.873213410377502441e-01
3.422040343284606934e-01 4.412185549736022949e-01 -4.776695072650909424e-01
1.853870600461959839e-01 6.235895156860351562e-01 -6.205025315284729004e-01
-2.371464669704437256e-02 -6.859076023101806641e-02 6.812862157821655273e-01
-1.727278977632522583e-01 5.529783964157104492e-01 -5.873213410377502441e-01
3.088866770267486572e-01 -3.189942538738250732e-01 -2.127602845430374146e-01
-8.964040130376815796e-02 2.578907310962677002e-01 4.399028122425079346e-01
3.422040343284606934e-01 5.703014731407165527e-01 -1.423934381455183029e-02
-2.497026026248931885e-01 -5.062521100044250488e-01 -8.671265840530395508e-02
-3.828605711460113525e-01 5.273524522781372070e-01 -2.097446918487548828e-01
1.481821089982986450e-01 2.303500175476074219e-01 -2.903021872043609619e-01
-2.456403970718383789e-01 4.148211479187011719e-01 5.588391423225402832e-01
6.715615838766098022e-02 -5.471484065055847168e-01 -6.029753088951110840e-01
3.088866770267486572e-01 -1.426100432872772217e-01 -4.238221347332000732e-01
3.422040343284606934e-01 -3.752860426902770996e-01 3.861264884471893311e-01
1.487285941839218140e-01 9.761189669370651245e-02 6.812862157821655273e-01
-4.198001623153686523e-01 2.070717662572860718e-01 6.060027517378330231e-03
1.531834155321121216e-01 -5.429677963256835938e-01 6.110647320747375488e-01
-2.201544642448425293e-01 4.690631031990051270e-01 5.948376655578613281e-01
3.422040343284606934e-01 5.144535899162292480e-01 5.883399248123168945e-01
2.797380685806274414e-01 -6.153752207756042480e-01 -7.906283438205718994e-02
1.365528553724288940e-01 5.986540317535400391e-01 -2.834562063217163086e-01
-4.284079372882843018e-01 3.044117391109466553e-01 6.812862157821655273e-01
5.287571623921394348e-02 -6.153752207756042480e-01 1.348908245563507080e-02
-2.598068118095397949e-01 -1.492084115743637085e-01 -5.513188838958740234e-01
3.115263879299163818e-01 -5.062521100044250488e-01 -1.670698672533035278e-01
1.943114846944808960e-01 6.235895156860351562e-01 5.011367201805114746e-01
-3.308904469013214111e-01 -4.094319939613342285e-01 -6.744801402091979980e-01
2.315884530544281006e-01 2.578907310962677002e-01 2.986480593681335449e-01
1.060261428356170654e-01 2.578907310962677002e-01 2.861990928649902344e-01
3.088866770267486572e-01 2.841115593910217285e-01 2.317805737257003784e-01
-4.292197823524475098e-01 -3.939358592033386230e-01 2.794280946254730225e-01
-3.828605711460113525e-01 9.683477133512496948e-02 -3.871538341045379639e-01
-2.753059267997741699e-01 -3.680523931980133057e-01 -5.873213410377502441e-01
3.422040343284606934e-01 -3.999393880367279053e-01 5.170530676841735840e-01
-4.292197823524475098e-01 -2.024865895509719849e-01 5.656485557556152344e-01
1.965467780828475952e-01 5.986540317535400391e-01 -5.124102830886840820e-01
1.028576716780662537e-01 3.205873817205429077e-02 6.812862157821655273e-01
2.727303206920623779e-01 -1.379510462284088135e-01 -5.100063085556030273e-01
-4.292197823524475098e-01 5.593952536582946777e-01 4.043462276458740234e-01
2.005872726440429688e-01 -1.104142814874649048e-01 4.583820104598999023e-01
-3.828605711460113525e-01 3.022139370441436768e-01 3.127020299434661865e-01
6.791820749640464783e-03 -1.808180939406156540e-03 -5.873213410377502441e-01
1.819009482860565186e-01 -4.787133336067199707e-01 -5.403426289558410645e-01
4.034714698791503906e-01 -3.421343863010406494e-01 4.694089293479919434e-02
3.088866770267486572e-01 4.060506224632263184e-01 -4.074411392211914062e-01
-4.292197823524475098e-01 3.664278686046600342e-01 -3.667747676372528076e-01
-4.292197823524475098e-01 -4.447399973869323730e-01 -4.083713889122009277e-01
3.422040343284606934e-01 -3.273820281028747559e-01 -4.763456881046295166e-01
-3.828605711460113525e-01 -7.014935463666915894e-02 -2.809318602085113525e-01
4.034714698791503906e-01 1.586202979087829590e-01 -7.515402883291244507e-02
-2.591715455055236816e-01 -2.193193733692169189e-01 5.588391423225402832e-01
3.422040343284606934e-01 -8.312907069921493530e-02 -2.002264261245727539e-01
-4.292197823524475098e-01 1.103723198175430298e-01 3.968344032764434814e-01
1.851927191019058228e-01 -4.486976265907287598e-01 -5.873213410377502441e-01
-3.828605711460113525e-01 3.591567575931549072e-01 4.824073985219001770e-02
4.034714698791503906e-01 2.100863456726074219e-01 -2.125402837991714478e-01
-3.058848977088928223e-01 -5.062521100044250488e-01 -2.516747415065765381e-01
2.080645710229873657e-01 2.303500175476074219e-01 -3.354016840457916260e-01
-1.222512647509574890e-01 -1.104142814874649048e-01 5.326360464096069336e-01
1.220194697380065918e-01 -5.062521100044250488e-01 -9.883572347462177277e-03
6.509487330913543701e-02 2.578907310962677002e-01 1.288760453462600708e-01
-3.828605711460113525e-01 -6.135218963027000427e-02 3.790388405323028564e-01
-2.232075184583663940e-01 2.578907310962677002e-01 -4.641393423080444336e-01
1.470861583948135376e-01 2.303500175476074219e-01 5.447210669517517090e-01
-3.773966133594512939e-01 6.235895156860351562e-01 3.720498383045196533e-01
4.034714698791503906e-01 -4.481195807456970215e-01 -6.164837479591369629e-01
-3.637293577194213867e-01 -5.062521100044250488e-01 3.039748966693878174e-01
-1.306936377659440041e-03 5.986540317535400391e-01 2.959294021129608154e-01
6.048548966646194458e-02 2.303500175476074219e-01 4.447827935218811035e-01
-3.852467834949493408e-01 -5.062521100044250488e-01 3.719916343688964844e-01
1.234074085950851440e-01 2.578907310962677002e-01 -5.282911658287048340e-01
-1.362046692520380020e-02 6.235895156860351562e-01 4.096336066722869873e-01
-3.828605711460113525e-01 -2.635823786258697510e-01 -5.380708575248718262e-01
3.468705341219902039e-02 -5.062521100044250488e-01 -3.797524869441986084e-01
-1.338144242763519287e-01 -4.060977995395660400e-01 -5.513188838958740234e-01
-2.365157306194305420e-01 3.828927278518676758e-01 -5.873213410377502441e-01
