-9.208372235298156738e-02 6.028469800949096680e-01 7.925251722335815430e-01
-1.008614599704742432e-01 1.636811159551143646e-02 -2.055758386850357056e-01
-1.008614599704742432e-01 -1.798142939805984497e-01 3.562973737716674805e-01
-1.062940806150436401e-01 -4.259430170059204102e-01 6.791963577270507812e-01
5.808571353554725647e-02 -2.759999036788940430e-01 4.366803765296936035e-01
-1.008614599704742432e-01 5.506275687366724014e-03 -4.169051051139831543e-01
3.356391936540603638e-02 -3.348523378372192383e-01 3.163113594055175781e-01
-1.008614599704742432e-01 4.099626541137695312e-01 -2.957453429698944092e-01
2.085965871810913086e-01 -6.551986932754516602e-01 -1.461934149265289307e-01
2.475055754184722900e-01 -3.900864124298095703e-01 -5.244380235671997070e-02
1.784547045826911926e-02 -6.980755329132080078e-01 -1.175999939441680908e-01
-1.098829507827758789e-01 -1.810261607170104980e-02 7.925251722335815430e-01
-1.008614599704742432e-01 9.760654717683792114e-02 6.652605533599853516e-01
6.506165862083435059e-02 4.363973736763000488e-01 -5.106930136680603027e-01
2.177453786134719849e-02 5.402873754501342773e-01 -4.419434666633605957e-01
-7.771511375904083252e-02 6.030831336975097656e-01 -2.800400257110595703e-01
-8.974577486515045166e-02 4.593242704868316650e-01 7.925251722335815430e-01
2.052531540393829346e-01 -1.498214993625879288e-02 -1.126382276415824890e-01
3.894438967108726501e-02 -3.219396471977233887e-01 -2.136146128177642822e-01
-2.273393981158733368e-02 4.053277969360351562e-01 -7.885270714759826660e-01
3.646907955408096313e-02 -3.278801739215850830e-01 5.970892310142517090e-01
-1.008614599704742432e-01 -3.106755614280700684e-01 1.881444752216339111e-01
-4.390348214656114578e-03 2.109272629022598267e-01 7.824023365974426270e-01
4.360949993133544922e-02 -6.124689429998397827e-02 6.773257851600646973e-01
-6.015674769878387451e-02 2.903135716915130615e-01 7.925251722335815430e-01
-2.210302336607128382e-04 5.930764675140380859e-01 -7.363123893737792969e-01
-2.890543453395366669e-02 3.305669426918029785e-01 -7.885270714759826660e-01
1.027991920709609985e-01 3.137999400496482849e-02 3.438334763050079346e-01
4.449558909982442856e-03 8.022112771868705750e-03 -7.673110961914062500e-01
1.027991920709609985e-01 2.785666882991790771e-01 -4.424414038658142090e-02
-4.895417392253875732e-02 -4.259430170059204102e-01 3.847717642784118652e-01
-1.008614599704742432e-01 2.389717996120452881e-01 5.732204318046569824e-01
2.148091234266757965e-02 -3.638519942760467529e-01 6.571112275123596191e-01
-1.051350757479667664e-01 6.030831336975097656e-01 -5.553035140037536621e-01
1.027991920709609985e-01 7.395194470882415771e-02 -6.828469038009643555e-02
-1.008614599704742432e-01 6.936184316873550415e-02 -5.080505609512329102e-01
8.991675823926925659e-02 -1.996055990457534790e-01 5.398188252002000809e-03
-9.102088212966918945e-02 1.056392937898635864e-01 7.925251722335815430e-01
3.046026639640331268e-02 -3.423015773296356201e-01 -5.427252650260925293e-01
-1.333995461463928223e-01 -6.551986932754516602e-01 3.418674468994140625e-01
-1.008614599704742432e-01 2.900868356227874756e-01 1.617645621299743652e-01
-1.008614599704742432e-01 3.120283484458923340e-01 -7.067496776580810547e-01
-1.008614599704742432e-01 7.864918559789657593e-02 5.164209008216857910e-01
1.241294816136360168e-01 -5.641949176788330078e-01 -5.003481358289718628e-02
-1.008614599704742432e-01 -5.687464773654937744e-02 2.949697375297546387e-01
5.893218796700239182e-03 -4.012626707553863525e-01 -6.964983344078063965e-01
8.812837302684783936e-02 -3.214047849178314209e-02 -5.664806962013244629e-01
-1.008614599704742432e-01 4.265560209751129150e-01 9.398106485605239868e-02
-4.411448165774345398e-02 -4.259430170059204102e-01 -1.419043093919754028e-01
-1.008614599704742432e-01 -1.664566397666931152e-01 -2.827996313571929932e-01
-1.008614599704742432e-01 1.294353455305099487e-01 -6.631367802619934082e-01
1.300237029790878296e-01 -6.980755329132080078e-01 1.272155195474624634e-01
-1.008614599704742432e-01 -2.188149392604827881e-01 1.296538580209016800e-02
9.583648294210433960e-02 -1.853976994752883911e-01 -3.016896247863769531e-01
-1.008614599704742432e-01 -2.569228112697601318e-01 -3.795067071914672852e-01
-8.995409309864044189e-02 -4.259430170059204102e-01 3.115414083003997803e-01
9.600654244422912598e-02 -1.849895566701889038e-01 -1.335726678371429443e-01
-1.361519913189113140e-03 5.958142876625061035e-01 -1.294989585876464844e-01
3.621607646346092224e-02 -6.521083712577819824e-01 -5.748444795608520508e-02
1.027991920709609985e-01 1.956196874380111694e-01 1.592581719160079956e-01
-1.008614599704742432e-01 5.535864233970642090e-01 7.201715111732482910e-01
8.811419457197189331e-02 -6.980755329132080078e-01 2.433908432722091675e-01
-1.008614599704742432e-01 4.746564626693725586e-01 -2.502080798149108887e-01
1.027991920709609985e-01 -6.748877465724945068e-02 4.475382268428802490e-01
-1.666758954524993896e-02 -6.980755329132080078e-01 2.770943641662597656e-01
1.027991920709609985e-01 4.874861612915992737e-02 -1.524825245141983032e-01
-1.008614599704742432e-01 3.161946535110473633e-01 6.790480017662048340e-01
-1.008614599704742432e-01 1.399560421705245972e-01 -3.277294337749481201e-01
-4.014535620808601379e-02 6.030831336975097656e-01 2.249372899532318115e-01
9.710148721933364868e-02 3.595004677772521973e-01 2.265981286764144897e-01
-1.008614599704742432e-01 -1.159103512763977051e-01 5.673913955688476562e-01
1.027991920709609985e-01 2.560224235057830811e-01 -1.127591580152511597e-01
2.278087474405765533e-02 -3.607324957847595215e-01 -7.026693820953369141e-01
-1.008614599704742432e-01 -4.075081273913383484e-02 4.761543273925781250e-01
3.621277585625648499e-02 -6.980755329132080078e-01 -3.163075819611549377e-02
2.475055754184722900e-01 -2.742984592914581299e-01 4.850678890943527222e-02
1.096494402736425400e-02 5.662298202514648438e-01 3.730438053607940674e-01
-1.008614599704742432e-01 -3.798435628414154053e-01 1.354574114084243774e-01
2.180193960666656494e-01 -6.633214950561523438e-01 1.365882605314254761e-01
-1.008614599704742432e-01 1.271697729825973511e-01 1.650239229202270508e-01
4.368979856371879578e-02 -3.105499148368835449e-01 1.108035296201705933e-01
-1.008614599704742432e-01 -2.307715415954589844e-01 -4.869574308395385742e-01
1.027991920709609985e-01 1.411103010177612305e-01 -8.744453638792037964e-02
-1.104110628366470337e-01 2.071209102869033813e-01 7.925251722335815430e-01
2.046296298503875732e-01 -2.784373462200164795e-01 5.641943961381912231e-02
5.229542031884193420e-02 4.670361578464508057e-01 -2.053330391645431519e-01
1.027991920709609985e-01 1.068525239825248718e-01 3.857249915599822998e-01
1.027991920709609985e-01 -5.889260023832321167e-02 7.840772718191146851e-02
-1.008614599704742432e-01 4.937354475259780884e-03 -3.297502398490905762e-01
1.027991920709609985e-01 -8.021438121795654297e-02 1.449217796325683594e-01
4.643804579973220825e-02 4.810929298400878906e-01 2.745614945888519287e-01
-1.008614599704742432e-01 4.301072955131530762e-01 5.482358932495117188e-01
2.781830728054046631e-02 -3.486417233943939209e-01 -5.508443713188171387e-02
4.958590865135192871e-02 4.644135832786560059e-01 6.629827618598937988e-01
1.027991920709609985e-01 1.722357273101806641e-01 2.375693768262863159e-01
-1.008614599704742432e-01 -1.779616624116897583e-01 5.177879333496093750e-01
1.027991920709609985e-01 2.933301031589508057e-01 -2.462524324655532837e-01
-9.510809928178787231e-02 6.030831336975097656e-01 2.366794347763061523e-01
2.916521765291690826e-02 -6.551986932754516602e-01 -1.312826126813888550e-01
6.374847888946533203e-02 -2.624089121818542480e-01 -1.410625427961349487e-01
-1.008614599704742432e-01 -1.739880889654159546e-01 -6.384971141815185547e-01
4.606865346431732178e-02 4.819819033145904541e-01 1.546119600534439087e-01
2.322017997503280640e-01 -6.980755329132080078e-01 -4.103798419237136841e-02
1.017146334052085876e-01 3.484291136264801025e-01 -1.701297238469123840e-03
1.326963752508163452e-01 -6.551986932754516602e-01 -5.678122397512197495e-03
1.920220628380775452e-02 -2.955947220325469971e-01 -7.319042682647705078e-01
-1.008614599704742432e-01 5.349476933479309082e-01 -6.993505358695983887e-01
-4.390348214656114578e-03 -4.192835390567779541e-01 -5.026825666427612305e-01
-1.008614599704742432e-01 -3.445576131343841553e-01 -7.790099084377288818e-02
-1.008614599704742432e-01 -1.433502584695816040e-01 -5.489955544471740723e-01
2.475055754184722900e-01 -5.831064283847808838e-02 2.751282975077629089e-02
-1.008614599704742432e-01 5.343298316001892090e-01 5.268621444702148438e-01
-3.414627164602279663e-02 -3.791057169437408447e-01 -7.885270714759826660e-01
-1.008614599704742432e-01 5.300777405500411987e-02 -7.522000670433044434e-01
8.390823006629943848e-02 -2.140270024538040161e-01 5.617806315422058105e-01
-1.008614599704742432e-01 3.040764927864074707e-01 -5.537796616554260254e-01
9.737447835505008698e-03 -3.920363485813140869e-01 6.815194338560104370e-02
-6.856881827116012573e-02 -4.259430170059204102e-01 -5.829672813415527344e-01
-1.008614599704742432e-01 -3.407569527626037598e-01 4.076381921768188477e-01
1.027991920709609985e-01 1.396640203893184662e-02 -4.627995193004608154e-01
4.542811959981918335e-02 1.547543108463287354e-01 -6.689620614051818848e-01
2.723332308232784271e-02 3.094161450862884521e-01 7.166287302970886230e-01
1.365915089845657349e-01 7.369252294301986694e-02 -2.606342360377311707e-02
-1.008614599704742432e-01 4.957883059978485107e-01 -5.226688925176858902e-03
-3.395552933216094971e-02 -8.584124594926834106e-02 -7.885270714759826660e-01
-1.008614599704742432e-01 1.609408259391784668e-01 5.898657441139221191e-01
-4.550768807530403137e-02 5.047529339790344238e-01 -7.885270714759826660e-01
-1.008614599704742432e-01 -1.721307486295700073e-01 2.437252998352050781e-01
1.695571839809417725e-01 -6.980755329132080078e-01 2.796942181885242462e-02
-1.008614599704742432e-01 -9.784203022718429565e-03 6.644783020019531250e-01
9.274907410144805908e-02 1.210202798247337341e-01 5.593904256820678711e-01
-1.132691800594329834e-01 -6.980755329132080078e-01 -3.433185517787933350e-01
-6.677592545747756958e-02 -1.643744409084320068e-01 7.925251722335815430e-01
3.449939563870429993e-02 -6.980755329132080078e-01 9.768868982791900635e-02
7.162663340568542480e-02 4.206419885158538818e-01 -1.410880535840988159e-01
6.619629263877868652e-02 4.336746335029602051e-01 -3.770608007907867432e-01
-1.008614599704742432e-01 -8.636085689067840576e-02 2.509902603924274445e-02
-2.431174553930759430e-02 -6.980755329132080078e-01 1.995956301689147949e-01
-1.008614599704742432e-01 -2.781350016593933105e-01 5.701197981834411621e-01
-1.008614599704742432e-01 -3.680759072303771973e-01 6.122900247573852539e-01
-8.391372114419937134e-02 -4.259430170059204102e-01 3.848775476217269897e-02
-1.008614599704742432e-01 2.469106577336788177e-02 -7.158342599868774414e-01
6.247023865580558777e-02 -2.301348149776458740e-01 -6.280615329742431641e-01
-1.008614599704742432e-01 3.143354058265686035e-01 4.385613501071929932e-01
1.027991920709609985e-01 2.968124151229858398e-01 -3.114686012268066406e-01
2.106683999300003052e-01 1.165687739849090576e-01 -4.487588629126548767e-02
1.027991920709609985e-01 6.493716686964035034e-02 -2.931917309761047363e-01
3.125799819827079773e-02 2.591542303562164307e-01 -7.029707431793212891e-01
1.027991920709609985e-01 -7.896449416875839233e-02 -3.841841220855712891e-01
1.853124983608722687e-02 -3.709309399127960205e-01 -3.551485538482666016e-01
1.689987815916538239e-02 5.519860386848449707e-01 -3.962172269821166992e-01
4.630483686923980713e-02 -3.042740225791931152e-01 2.055096924304962158e-01
-1.008614599704742432e-01 4.665732383728027344e-01 -5.492987632751464844e-01
2.769832313060760498e-02 5.260699391365051270e-01 -6.927108764648437500e-01
-5.013107135891914368e-02 -4.259430170059204102e-01 5.230000615119934082e-01
1.027991920709609985e-01 3.051846623420715332e-01 3.624495267868041992e-01
-1.008614599704742432e-01 4.458012878894805908e-01 6.416931152343750000e-01
-1.008614599704742432e-01 -3.821402192115783691e-01 -2.413086295127868652e-01
-1.054729428142309189e-02 -4.259430170059204102e-01 -3.745090663433074951e-01
7.764461636543273926e-02 2.823116481304168701e-01 -5.916419029235839844e-01
-4.390348214656114578e-03 -4.228196740150451660e-01 2.534947991371154785e-01
1.004477441310882568e-01 3.514702022075653076e-01 4.297035038471221924e-01
-1.008614599704742432e-01 2.033089101314544678e-01 -1.596200317144393921e-01
7.736213505268096924e-02 3.852749988436698914e-02 5.963183045387268066e-01
-1.008614599704742432e-01 3.142730593681335449e-01 -3.999338448047637939e-01
1.027991920709609985e-01 -1.219831258058547974e-01 2.889952063560485840e-01
1.027991920709609985e-01 2.213420569896697998e-01 -3.606715202331542969e-01
2.280354946851730347e-01 -6.980755329132080078e-01 3.723711147904396057e-02
1.027991920709609985e-01 1.770357489585876465e-01 4.034274816513061523e-01
1.748411059379577637e-01 -4.706073403358459473e-01 -1.052966713905334473e-01
-9.166897833347320557e-02 -6.767282485961914062e-01 1.890193074941635132e-01
-1.008614599704742432e-01 4.137387871742248535e-01 -7.332665920257568359e-01
-1.008614599704742432e-01 3.893315196037292480e-01 2.793456241488456726e-02
1.851396858692169189e-01 -4.603087902069091797e-01 3.274705633521080017e-02
-1.008614599704742432e-01 -1.151299998164176941e-01 -6.860098242759704590e-01
-1.008614599704742432e-01 4.223396778106689453e-01 -1.664457470178604126e-01
1.027991920709609985e-01 1.422664821147918701e-01 -1.482510566711425781e-01
-1.008614599704742432e-01 3.719719350337982178e-01 1.532978266477584839e-01
-1.008614599704742432e-01 4.958639144897460938e-01 4.253331422805786133e-01
-2.405628748238086700e-02 -4.259430170059204102e-01 6.607229709625244141e-01
4.597795754671096802e-02 4.821992218494415283e-01 4.368740618228912354e-01
-1.008614599704742432e-01 2.444711327552795410e-01 3.975899517536163330e-01
2.046296298503875732e-01 -1.458963304758071899e-01 -9.640291333198547363e-02
-1.009125709533691406e-01 -4.259430170059204102e-01 -4.202419221401214600e-01
-1.008614599704742432e-01 2.774783372879028320e-01 -3.217095732688903809e-01
-1.008614599704742432e-01 -1.703036278486251831e-01 6.218337416648864746e-01
-1.008614599704742432e-01 -2.418344318866729736e-01 -6.415883302688598633e-01
2.368772402405738831e-02 1.265009585767984390e-02 7.251380085945129395e-01
1.027991920709609985e-01 3.126528263092041016e-01 2.898870408535003662e-01
-1.008614599704742432e-01 2.186439037322998047e-01 2.680655121803283691e-01
-9.043572098016738892e-02 -6.551986932754516602e-01 -2.298281937837600708e-01
-3.615998104214668274e-02 6.030831336975097656e-01 -6.913287043571472168e-01
-4.605667293071746826e-02 -1.663355343043804169e-02 -7.885270714759826660e-01
-1.092670205980539322e-02 -2.974700033664703369e-01 7.925251722335815430e-01
-1.008614599704742432e-01 -3.127719163894653320e-01 7.542160749435424805e-01
-1.008614599704742432e-01 4.930353760719299316e-01 -6.436714529991149902e-01
-4.903129488229751587e-02 6.030831336975097656e-01 4.373095631599426270e-01
-1.097941398620605469e-01 -1.833325028419494629e-01 7.925251722335815430e-01
2.427478507161140442e-02 -6.980755329132080078e-01 4.814155399799346924e-02
2.035421878099441528e-02 4.673460423946380615e-01 7.331380248069763184e-01
2.475055754184722900e-01 -4.070595800876617432e-01 -1.071030125021934509e-01
-1.008614599704742432e-01 -1.071620881557464600e-01 7.137992978096008301e-01
-1.008614599704742432e-01 -2.168130427598953247e-01 -7.546998262405395508e-01
7.739324122667312622e-03 -3.968318104743957520e-01 -8.057978749275207520e-02
9.000840783119201660e-02 3.147718906402587891e-01 5.659695863723754883e-01
7.656477391719818115e-02 -1.466294378042221069e-01 5.982323288917541504e-01
-1.115810200572013855e-01 3.652879297733306885e-01 7.862870693206787109e-01
1.027991920709609985e-01 5.508582293987274170e-02 2.679190635681152344e-01
-1.008614599704742432e-01 1.014981344342231750e-01 3.122007474303245544e-02
-1.008614599704742432e-01 -2.203650586307048798e-02 -2.992173098027706146e-02
7.124874740839004517e-02 4.215479791164398193e-01 3.158040344715118408e-01
1.949186250567436218e-02 -3.241125643253326416e-01 7.352079749107360840e-01
-7.485803961753845215e-02 -4.259430170059204102e-01 2.217421680688858032e-01
-1.008614599704742432e-01 2.379703968763351440e-01 -4.215843975543975830e-01
1.027991920709609985e-01 3.378395140171051025e-01 -5.150577053427696228e-02
-1.008614599704742432e-01 9.511868655681610107e-02 3.202858567237854004e-01
-1.008614599704742432e-01 5.065328478813171387e-01 -9.321442246437072754e-02
1.286944467574357986e-02 5.315343737602233887e-01 -7.471032142639160156e-01
-1.008614599704742432e-01 2.311238795518875122e-01 -5.105031132698059082e-01
1.027991920709609985e-01 1.671672165393829346e-01 -2.261682748794555664e-01
-1.685946434736251831e-02 7.825900614261627197e-02 -7.885270714759826660e-01
-1.008614599704742432e-01 -8.477746695280075073e-02 -4.549988210201263428e-01
-1.008614599704742432e-01 1.385092586278915405e-01 -5.340459942817687988e-01
-1.008614599704742432e-01 5.277676582336425781e-01 1.383794695138931274e-01
-1.008614599704742432e-01 -7.986369542777538300e-03 2.005101442337036133e-01
-1.008614599704742432e-01 4.073638841509819031e-02 -4.674117267131805420e-01
-1.672527636401355267e-03 5.965606570243835449e-01 6.215578913688659668e-01
-1.115810200572013855e-01 5.831444263458251953e-01 3.631835579872131348e-01
5.325148999691009521e-02 -2.876031994819641113e-01 -5.779866576194763184e-01
-1.008614599704742432e-01 -2.523257434368133545e-01 6.971387863159179688e-01
-3.988337889313697815e-02 6.030831336975097656e-01 -7.771374285221099854e-02
-1.008614599704742432e-01 -3.212122321128845215e-01 -3.225806355476379395e-01
2.046296298503875732e-01 -1.379586160182952881e-01 1.039296239614486694e-01
-1.008614599704742432e-01 2.013665139675140381e-01 -6.677121520042419434e-01
2.475055754184722900e-01 -3.209930360317230225e-01 -9.712280333042144775e-02
1.027991920709609985e-01 -2.786364778876304626e-02 -1.705723702907562256e-01
4.459391906857490540e-02 -2.033543139696121216e-01 6.749629974365234375e-01
1.009201183915138245e-01 2.758005261421203613e-01 5.397804975509643555e-01
2.046296298503875732e-01 -3.456138372421264648e-01 -3.436388447880744934e-02
-1.008614599704742432e-01 -8.001600205898284912e-02 2.186935096979141235e-01
6.720998883247375488e-02 -2.541018426418304443e-01 -3.678250610828399658e-01
-1.115810200572013855e-01 5.885823369026184082e-01 5.248394608497619629e-01
-1.008614599704742432e-01 -3.372170031070709229e-01 -1.474036276340484619e-01
1.107510551810264587e-01 1.165687739849090576e-01 7.394015789031982422e-02
-1.008614599704742432e-01 -4.688383545726537704e-03 3.988587558269500732e-01
4.141298681497573853e-02 -3.160142600536346436e-01 -2.259321324527263641e-02
5.906350910663604736e-02 3.628334999084472656e-01 6.402372717857360840e-01
1.913107037544250488e-01 -6.868312954902648926e-01 1.632969379425048828e-01
4.867328330874443054e-03 5.808647871017456055e-01 5.375849604606628418e-01
-1.008614599704742432e-01 -1.180445179343223572e-01 -1.701018959283828735e-01
1.027991920709609985e-01 -1.288069784641265869e-01 -4.388626813888549805e-01
5.684905126690864563e-02 4.561064839363098145e-01 -4.307086765766143799e-01
7.845329120755195618e-03 5.737168788909912109e-01 -5.636011362075805664e-01
-2.560584433376789093e-02 -6.551986932754516602e-01 -1.681774556636810303e-01
-1.008614599704742432e-01 -2.162490338087081909e-01 2.901950180530548096e-01
5.041255801916122437e-02 4.025077521800994873e-01 -6.569988727569580078e-01
-1.008614599704742432e-01 4.487422704696655273e-01 -3.808983266353607178e-01
-1.008614599704742432e-01 -1.980297714471817017e-01 -3.815247118473052979e-01
-1.008614599704742432e-01 2.410114854574203491e-01 -2.879318781197071075e-03
2.030206844210624695e-02 -3.666814863681793213e-01 -2.803017497062683105e-01
-1.054832190275192261e-01 6.030831336975097656e-01 -2.518462948501110077e-02
-6.204227730631828308e-02 -4.259430170059204102e-01 5.893867611885070801e-01
-1.008614599704742432e-01 5.074095129966735840e-01 3.747235536575317383e-01
2.046296298503875732e-01 -2.502577006816864014e-01 -5.894963815808296204e-02
-6.471994519233703613e-02 6.030831336975097656e-01 7.510700821876525879e-02
-5.032799392938613892e-02 6.030831336975097656e-01 -7.563077807426452637e-01
-8.424410223960876465e-02 3.177999705076217651e-02 7.925251722335815430e-01
2.780762873589992523e-02 5.258073210716247559e-01 6.581495404243469238e-01
6.131574977189302444e-03 5.778303146362304688e-01 3.623814508318901062e-02
-1.008614599704742432e-01 7.759684324264526367e-02 -3.530862033367156982e-01
7.788363099098205566e-02 -9.193574637174606323e-02 5.950674414634704590e-01
-4.300810024142265320e-02 6.030831336975097656e-01 -2.257119864225387573e-01
-5.466865375638008118e-02 2.002148777246475220e-01 -7.885270714759826660e-01
-1.115810200572013855e-01 1.185461133718490601e-01 -7.743333578109741211e-01
-1.008614599704742432e-01 -3.162277638912200928e-01 -5.202168822288513184e-01
1.027991920709609985e-01 8.015852421522140503e-02 -3.930514156818389893e-01
-1.008614599704742432e-01 -2.762273699045181274e-02 -2.619247138500213623e-01
1.852133721113204956e-01 1.165687739849090576e-01 1.033712849020957947e-01
-1.008614599704742432e-01 -3.798407316207885742e-01 7.320591807365417480e-01
5.049097165465354919e-02 1.224594004452228546e-02 -6.568098664283752441e-01
7.193462550640106201e-02 -6.551986932754516602e-01 -2.751623392105102539e-01
-3.361060470342636108e-02 -2.307214885950088501e-01 7.925251722335815430e-01
-1.008614599704742432e-01 -1.227398589253425598e-01 3.862370550632476807e-01
-1.008614599704742432e-01 -1.978408247232437134e-01 1.018634811043739319e-01
9.973540902137756348e-02 -1.760419458150863647e-01 -6.913136690855026245e-02
1.632170677185058594e-01 1.165687739849090576e-01 -4.781685397028923035e-02
-2.693691290915012360e-03 4.757258594036102295e-01 -7.844552397727966309e-01
-1.008614599704742432e-01 -1.623432636260986328e-01 5.629699826240539551e-01
-4.269265383481979370e-02 6.030831336975097656e-01 1.779129654169082642e-01
-1.008614599704742432e-01 2.162369154393672943e-02 -7.964336127042770386e-02
1.884027756750583649e-02 5.473294258117675781e-01 -3.164577782154083252e-01
1.027991920709609985e-01 -9.665659815073013306e-02 -5.231767892837524414e-01
4.808188974857330322e-02 4.771496057510375977e-01 -2.809754014015197754e-02
1.027991920709609985e-01 1.711269491352140903e-03 -3.080156147480010986e-01
2.062639780342578888e-02 -7.365790754556655884e-02 7.324852347373962402e-01
-1.008614599704742432e-01 2.527517378330230713e-01 9.685259312391281128e-02
-1.115810200572013855e-01 5.923329591751098633e-01 -4.248815178871154785e-01
-1.008614599704742432e-01 6.212156265974044800e-02 2.296930849552154541e-01
-1.008614599704742432e-01 -2.663853168487548828e-01 -3.042243719100952148e-01
5.541015882045030594e-03 -4.021081924438476562e-01 4.136051535606384277e-01
1.027991920709609985e-01 2.711495459079742432e-01 -1.638807952404022217e-01
-1.008614599704742432e-01 -8.508922904729843140e-02 -5.978016182780265808e-02
-1.055391505360603333e-01 -4.259430170059204102e-01 -3.295046091079711914e-01
1.027991920709609985e-01 -2.160759456455707550e-02 -1.099741086363792419e-02
-1.008614599704742432e-01 2.840263247489929199e-01 3.561745584011077881e-01
2.046296298503875732e-01 6.126090884208679199e-02 7.395811378955841064e-02
-1.008614599704742432e-01 5.284016132354736328e-01 -4.150099754333496094e-01
-1.008614599704742432e-01 2.036924660205841064e-01 -3.033164739608764648e-01
-1.008614599704742432e-01 2.079721391201019287e-01 1.410426944494247437e-01
7.963423430919647217e-02 1.698922216892242432e-01 -5.868662595748901367e-01
-6.053767725825309753e-02 -6.598852574825286865e-02 7.925251722335815430e-01
-1.008614599704742432e-01 4.011350572109222412e-01 -5.254356265068054199e-01
8.959554880857467651e-02 3.775165975093841553e-01 1.246722862124443054e-01
-1.008614599704742432e-01 -3.032385706901550293e-01 3.486449643969535828e-02
2.429632283747196198e-02 -3.570952415466308594e-01 4.141625463962554932e-01
-1.008614599704742432e-01 1.626735776662826538e-01 5.531311035156250000e-03
-7.980779558420181274e-02 -3.172386586666107178e-01 -7.885270714759826660e-01
-1.008614599704742432e-01 -5.593179538846015930e-02 7.121894359588623047e-01
6.069318577647209167e-02 2.353345751762390137e-01 6.363241672515869141e-01
9.926018305122852325e-03 -1.297951638698577881e-01 -7.541679739952087402e-01
1.027991920709609985e-01 -8.650255948305130005e-02 5.097595453262329102e-01
1.027991920709609985e-01 2.311068773269653320e-01 2.036315202713012695e-02
-1.008614599704742432e-01 2.732262760400772095e-02 -1.444409340620040894e-01
2.046296298503875732e-01 -5.913256853818893433e-02 -1.761444844305515289e-02
-1.008614599704742432e-01 -2.198636084794998169e-01 6.491546630859375000e-01
-1.008614599704742432e-01 1.547500640153884888e-01 -6.037675738334655762e-01
-2.875682711601257324e-02 -4.259430170059204102e-01 4.471575319766998291e-01
-7.293936610221862793e-02 -1.093567162752151489e-01 -7.885270714759826660e-01
-1.008614599704742432e-01 -1.581306755542755127e-01 -2.162542045116424561e-01
9.645056724548339844e-02 -5.765784978866577148e-01 -1.126382276415824890e-01
-1.008614599704742432e-01 1.522168368101119995e-01 -9.907463192939758301e-02
-2.929183281958103180e-02 -4.259430170059204102e-01 -2.237780988216400146e-01
2.046296298503875732e-01 -2.140298485755920410e-01 7.121468335390090942e-02
-8.871236816048622131e-03 -6.543191075325012207e-01 5.843371152877807617e-02
-1.008614599704742432e-01 3.209553658962249756e-02 3.167223334312438965e-01
2.676388807594776154e-02 1.984094977378845215e-01 -7.137567996978759766e-01
-1.008614599704742432e-01 3.005346655845642090e-01 -1.286203563213348389e-01
-1.115810200572013855e-01 -4.107298851013183594e-01 -5.294829010963439941e-01
5.881694331765174866e-02 -1.776243895292282104e-01 -6.368287205696105957e-01
-1.008614599704742432e-01 -9.098628908395767212e-02 9.109177440404891968e-02
2.887263335287570953e-02 -2.715414576232433319e-02 -7.086948752403259277e-01
-1.008614599704742432e-01 -3.920401036739349365e-01 -1.650248765945434570e-01
7.460350543260574341e-02 -5.708439946174621582e-01 4.765633493661880493e-02
-9.346123784780502319e-02 -4.259430170059204102e-01 -1.729814894497394562e-02
-1.008614599704742432e-01 -3.300473988056182861e-01 1.017586216330528259e-01
-1.008614599704742432e-01 1.048933267593383789e-01 -7.092041522264480591e-02
1.027991920709609985e-01 7.352879643440246582e-02 1.706876158714294434e-01
1.027991920709609985e-01 -7.923185825347900391e-02 -1.157161816954612732e-01
7.277544587850570679e-02 4.178833663463592529e-01 -4.012011922895908356e-03
7.861958444118499756e-02 4.038577973842620850e-01 5.640611648559570312e-01
4.941774159669876099e-02 4.739431738853454590e-01 5.987170338630676270e-01
2.046296298503875732e-01 -2.581906616687774658e-01 1.927554258145391941e-03
-1.008614599704742432e-01 -4.812826588749885559e-02 -1.765176057815551758e-01
-1.008614599704742432e-01 1.203307136893272400e-01 4.546719491481781006e-01
-1.008614599704742432e-01 4.899356961250305176e-01 7.062744498252868652e-01
-1.008614599704742432e-01 3.754636943340301514e-01 6.872048974037170410e-01
3.707757964730262756e-02 5.035587549209594727e-01 -1.640593409538269043e-01
-1.008614599704742432e-01 2.339278459548950195e-01 4.504536986351013184e-01
4.621886461973190308e-02 -6.980755329132080078e-01 1.988540142774581909e-01
-1.082073599100112915e-01 5.236911177635192871e-01 -7.885270714759826660e-01
-1.008614599704742432e-01 -3.637546896934509277e-01 4.765246808528900146e-01
6.567479670047760010e-02 -6.226496100425720215e-01 -6.927175074815750122e-02
1.027991920709609985e-01 3.072149157524108887e-01 1.159863695502281189e-01
1.911992430686950684e-01 -6.941303610801696777e-01 -1.126382276415824890e-01
9.056768566370010376e-02 9.885692596435546875e-02 -5.606261491775512695e-01
-1.008614599704742432e-01 -2.063047438859939575e-01 -5.689304471015930176e-01
7.081322371959686279e-02 -2.453155815601348877e-02 6.120377779006958008e-01
-5.675205588340759277e-02 6.030831336975097656e-01 5.029518008232116699e-01
2.046296298503875732e-01 -3.270365297794342041e-01 3.600904718041419983e-02
2.049762941896915436e-02 -3.662119507789611816e-01 2.387644648551940918e-01
-6.881810259073972702e-03 -4.259430170059204102e-01 1.142800319939851761e-02
1.027991920709609985e-01 2.027703970670700073e-01 -4.299453198909759521e-01
-1.008614599704742432e-01 -2.897118330001831055e-01 6.163467168807983398e-01
1.027991920709609985e-01 -6.815102696418762207e-02 -2.370648533105850220e-01
4.776823148131370544e-02 -1.219349503517150879e-01 -6.633465290069580078e-01
-1.008614599704742432e-01 -2.565390802919864655e-02 -6.109722256660461426e-01
1.027991920709609985e-01 -2.590142935514450073e-02 3.302235603332519531e-01
7.746511697769165039e-02 -2.294904738664627075e-01 -4.777916073799133301e-01
7.473577558994293213e-02 4.131785631179809570e-01 2.533823847770690918e-01
4.605447873473167419e-02 -3.048748672008514404e-01 -4.938388764858245850e-01
-3.261740505695343018e-02 -4.259430170059204102e-01 -6.870726943016052246e-01
-1.008614599704742432e-01 3.974288403987884521e-01 -4.175730347633361816e-01
9.640710800886154175e-02 2.768510580062866211e-01 -5.466119647026062012e-01
-1.008614599704742432e-01 -4.295299947261810303e-02 -4.419595599174499512e-01
7.833900302648544312e-02 -2.273922264575958252e-01 1.478674858808517456e-01
1.027991920709609985e-01 -1.258556097745895386e-01 3.669785857200622559e-01
4.245314002037048340e-02 -3.135182559490203857e-01 -8.544471114873886108e-02
-1.008614599704742432e-01 -2.024908214807510376e-01 -1.398003846406936646e-01
-1.115810200572013855e-01 -4.094412624835968018e-01 7.621546834707260132e-02
1.027991920709609985e-01 1.593192815780639648e-01 3.135063871741294861e-02
-1.961497664451599121e-01 -6.980755329132080078e-01 2.988875508308410645e-01
-1.008614599704742432e-01 -3.191838562488555908e-01 2.512945234775543213e-01
1.027991920709609985e-01 9.405513852834701538e-02 4.815034270286560059e-01
1.027991920709609985e-01 6.963969022035598755e-02 -4.795771539211273193e-01
-1.008614599704742432e-01 8.739633113145828247e-02 7.478787899017333984e-01
1.221983600407838821e-02 1.053014546632766724e-01 -7.486619949340820312e-01
-1.008614599704742432e-01 -3.676366209983825684e-01 -1.987444795668125153e-02
-4.390348214656114578e-03 3.485774099826812744e-01 7.755425572395324707e-01
-1.008614599704742432e-01 -7.382796704769134521e-02 4.148626029491424561e-01
2.834027260541915894e-02 5.245291590690612793e-01 -5.720111727714538574e-01
-1.008614599704742432e-01 3.546227812767028809e-01 7.482764720916748047e-01
1.282390300184488297e-02 1.713601648807525635e-01 7.512108683586120605e-01
-1.008614599704742432e-01 1.163165345788002014e-01 5.704032182693481445e-01
1.378129795193672180e-02 2.581584751605987549e-01 7.489132881164550781e-01
2.607451193034648895e-02 -6.193732619285583496e-01 -1.237058732658624649e-02
-1.095786541700363159e-01 5.845062434673309326e-03 -7.885270714759826660e-01
1.027991920709609985e-01 -2.870918810367584229e-02 2.050902247428894043e-01
-1.008614599704742432e-01 -9.703165292739868164e-02 -2.941969335079193115e-01
-2.699517831206321716e-02 -6.551986932754516602e-01 -2.839030623435974121e-01
2.407771497964859009e-01 -4.819440469145774841e-02 -1.126382276415824890e-01
-1.332551985979080200e-01 -6.980755329132080078e-01 2.329628169536590576e-01
2.096036262810230255e-02 -2.095055133104324341e-01 7.316831350326538086e-01
1.027991920709609985e-01 2.291748821735382080e-01 2.601977288722991943e-01
-1.008614599704742432e-01 1.606688350439071655e-01 3.665940761566162109e-01
1.938321813941001892e-02 -3.688865005970001221e-01 -5.916796922683715820e-01
1.355806440114974976e-01 -5.098677873611450195e-01 -5.750277638435363770e-02
-1.008614599704742432e-01 2.923957705497741699e-01 6.038441061973571777e-01
8.050244301557540894e-02 -2.222018390893936157e-01 2.860363125801086426e-01
1.247151754796504974e-02 -1.391499638557434082e-01 7.520564198493957520e-01
1.003400459885597229e-01 3.517290353775024414e-01 -1.005002409219741821e-01
7.381749153137207031e-02 -6.551986932754516602e-01 1.989485025405883789e-01
-1.008614599704742432e-01 -2.304153740406036377e-01 -3.872668370604515076e-02
-1.115810200572013855e-01 5.337875485420227051e-01 7.727537155151367188e-01
-1.112594306468963623e-01 4.669804275035858154e-01 -7.670881748199462891e-01
-1.008614599704742432e-01 1.187811568379402161e-01 -4.742903709411621094e-01
1.027991920709609985e-01 1.401915550231933594e-01 -4.887051880359649658e-01
2.046296298503875732e-01 -3.875554800033569336e-01 5.736389383673667908e-02
1.265196651220321655e-01 -5.618047118186950684e-01 3.573006391525268555e-02
-1.008614599704742432e-01 -2.588935494422912598e-01 -7.453224062919616699e-01
-1.008614599704742432e-01 -3.166784346103668213e-01 -6.493927240371704102e-01
-1.008614599704742432e-01 3.840079009532928467e-01 -6.282221674919128418e-01
-1.008614599704742432e-01 1.738072037696838379e-01 -3.852072656154632568e-01
1.175021193921566010e-02 6.590485572814941406e-02 7.537881135940551758e-01
-1.008614599704742432e-01 7.999722845852375031e-03 5.024917125701904297e-01
-5.767200142145156860e-02 2.120052278041839600e-01 7.925251722335815430e-01
-8.410206995904445648e-03 -6.551986932754516602e-01 -8.494523167610168457e-02
-1.008614599704742432e-01 3.578245043754577637e-01 -5.831969156861305237e-02
-1.375798601657152176e-02 -2.191409021615982056e-01 -7.885270714759826660e-01
-1.008614599704742432e-01 -3.878020644187927246e-01 -7.306600213050842285e-01
1.027991920709609985e-01 2.123547792434692383e-01 3.666498064994812012e-01
8.347836881875991821e-02 -6.551986932754516602e-01 -1.630295813083648682e-01
-1.008614599704742432e-01 -5.871122330427169800e-02 -7.505977749824523926e-01
4.092644155025482178e-02 1.607051193714141846e-01 6.837651133537292480e-01
-1.008614599704742432e-01 2.828040346503257751e-02 1.399288475513458252e-01
1.636317968368530273e-01 -4.818166494369506836e-01 6.661646068096160889e-02
1.015029661357402802e-02 -3.910453319549560547e-01 -4.140038192272186279e-01
-1.008614599704742432e-01 1.616858877241611481e-02 5.851638317108154297e-01
1.027991920709609985e-01 9.424263238906860352e-02 -1.226694509387016296e-01
-2.100336551666259766e-02 -3.653229773044586182e-01 7.925251722335815430e-01
-1.008614599704742432e-01 -3.873438537120819092e-01 2.142466306686401367e-01
-3.899466246366500854e-02 -4.259430170059204102e-01 2.916801571846008301e-01
1.027991920709609985e-01 -1.299179792404174805e-01 -2.677093446254730225e-01
6.915237009525299072e-02 4.265787303447723389e-01 -5.618665814399719238e-01
-1.008614599704742432e-01 2.900575399398803711e-01 -7.573479413986206055e-01
2.596614882349967957e-02 5.302268266677856445e-01 1.256538629531860352e-01
-1.008614599704742432e-01 1.826244443655014038e-01 2.194937020540237427e-01
1.027991920709609985e-01 2.246911376714706421e-01 -2.419038116931915283e-01
9.269145876169204712e-02 3.700862526893615723e-01 -3.372609019279479980e-01
3.574937954545021057e-02 5.067472457885742188e-01 2.055144160985946655e-01
1.120717171579599380e-02 -3.885087072849273682e-01 5.397568345069885254e-01
-1.008614599704742432e-01 3.515013754367828369e-01 -2.468551844358444214e-01
-1.008614599704742432e-01 -1.210015416145324707e-01 1.616266369819641113e-01
8.150103688240051270e-02 -2.052343338727951050e-01 -5.823853611946105957e-01
5.806398391723632812e-02 -2.760528028011322021e-01 -1.941246837377548218e-01
-2.210067957639694214e-02 6.030831336975097656e-01 -1.841340810060501099e-01
9.737829864025115967e-02 3.588363230228424072e-01 4.864746034145355225e-01
-1.008614599704742432e-01 3.200869858264923096e-01 -6.076505184173583984e-01
7.953125238418579102e-02 -2.245296686887741089e-01 -1.748699843883514404e-01
-6.560178101062774658e-02 -4.259430170059204102e-01 -6.402534246444702148e-01
-5.314749479293823242e-02 -6.551986932754516602e-01 2.947666347026824951e-01
-1.008614599704742432e-01 2.343095242977142334e-01 6.943499445915222168e-01
2.046296298503875732e-01 -1.234503015875816345e-01 -3.285315632820129395e-02
-1.008614599704742432e-01 6.914058327674865723e-02 -2.094039022922515869e-01
-1.008614599704742432e-01 5.405055284500122070e-01 -1.864808052778244019e-01
2.083906233310699463e-01 -2.737278342247009277e-01 -1.126382276415824890e-01
-6.067451834678649902e-02 -4.259430170059204102e-01 -8.622638881206512451e-02
-1.062710285186767578e-01 6.030831336975097656e-01 6.591310501098632812e-01
4.969927668571472168e-02 4.732676446437835693e-01 -1.035734713077545166e-01
-1.008614599704742432e-01 -2.882040143013000488e-01 3.894151449203491211e-01
-2.057284861803054810e-02 1.672396808862686157e-01 7.925251722335815430e-01
-1.008614599704742432e-01 2.886508107185363770e-01 -6.652918457984924316e-02
7.088407874107360840e-02 -2.452836632728576660e-01 -3.104067444801330566e-01
2.779924310743808746e-03 4.201044142246246338e-01 7.753167748451232910e-01
2.046296298503875732e-01 -4.232316017150878906e-01 -4.821065813302993774e-03
9.743970632553100586e-02 7.432587444782257080e-02 9.856068342924118042e-02
1.612057089805603027e-01 -6.551986932754516602e-01 -1.847216933965682983e-01
-1.027672812342643738e-01 6.030831336975097656e-01 -5.056349039077758789e-01
6.699836999177932739e-02 -2.546110749244689941e-01 2.453030049800872803e-01
1.027991920709609985e-01 -4.999296274036169052e-03 -5.185531973838806152e-01
2.046296298503875732e-01 -9.392158687114715576e-02 2.513681538403034210e-02
-1.080528050661087036e-01 -1.575562804937362671e-01 -7.885270714759826660e-01
6.893508136272430420e-02 1.799313724040985107e-01 6.165441870689392090e-01
6.751887034624814987e-03 -3.031619265675544739e-02 7.657843828201293945e-01
1.638017967343330383e-02 -3.760939240455627441e-01 2.786182165145874023e-01
-1.008614599704742432e-01 5.226538181304931641e-01 2.505992054939270020e-01
9.597004973329603672e-04 -4.131030440330505371e-01 -7.708501219749450684e-01
1.334575237706303596e-03 5.893428325653076172e-01 4.137043356895446777e-01
6.667054444551467896e-02 4.325352907180786133e-01 -2.443705350160598755e-01
2.475055754184722900e-01 9.579866379499435425e-02 -1.374017354100942612e-02
1.027991920709609985e-01 1.157255023717880249e-01 -2.840920090675354004e-01
1.027991920709609985e-01 9.591325186192989349e-03 -1.290143132209777832e-01
5.138847231864929199e-02 -5.940599441528320312e-01 1.034525334835052490e-01
1.240794211626052856e-01 -5.213680863380432129e-01 7.856436818838119507e-02
8.976181596517562866e-02 -1.999787688255310059e-01 -3.488244712352752686e-01
-1.008614599704742432e-01 3.852379322052001953e-01 4.620966315269470215e-01
-1.008614599704742432e-01 5.427474379539489746e-01 -2.886117063462734222e-02
-4.657013714313507080e-02 1.263435930013656616e-01 -7.885270714759826660e-01
-1.008614599704742432e-01 4.660621285438537598e-01 1.118512526154518127e-01
-1.008614599704742432e-01 4.433506727218627930e-01 1.025600079447031021e-02
-1.008614599704742432e-01 5.890227481722831726e-02 3.717844486236572266e-01
-1.008614599704742432e-01 -1.132405251264572144e-01 -4.101114869117736816e-01
1.027991920709609985e-01 8.317199349403381348e-02 -3.370445668697357178e-01
-1.008614599704742432e-01 5.059527158737182617e-01 -5.215300917625427246e-01
-6.379059702157974243e-02 -4.259430170059204102e-01 -3.552250862121582031e-01
-5.266263708472251892e-02 -3.327219486236572266e-01 7.925251722335815430e-01
2.475055754184722900e-01 -6.571816205978393555e-01 6.074151396751403809e-02
1.027991920709609985e-01 2.130510360002517700e-01 -1.156424880027770996e-01
-1.008614599704742432e-01 3.116761706769466400e-02 -5.711080431938171387e-01
-1.008614599704742432e-01 -2.351069599390029907e-01 -4.320237636566162109e-01
7.467908412218093872e-02 4.133155345916748047e-01 -4.285102784633636475e-01
1.027991920709609985e-01 -3.606302663683891296e-02 -3.466790020465850830e-01
8.226722478866577148e-02 -2.179646790027618408e-01 3.985885381698608398e-01
-1.084042489528656006e-01 5.816451311111450195e-01 1.216434538364410400e-01
-1.008614599704742432e-01 9.533553570508956909e-02 1.956645846366882324e-01
-4.678006097674369812e-02 -6.980755329132080078e-01 -2.494551092386245728e-01
-1.008614599704742432e-01 4.401366412639617920e-01 2.702431082725524902e-01
1.027991920709609985e-01 1.808393746614456177e-01 5.286042094230651855e-01
-1.008614599704742432e-01 2.682161629199981689e-01 -2.614249289035797119e-01
4.635207355022430420e-02 -2.600083351135253906e-01 -6.667438149452209473e-01
-1.008614599704742432e-01 -1.730291843414306641e-01 4.488051533699035645e-01
-1.008614599704742432e-01 8.452550321817398071e-02 -6.961638927459716797e-01
4.615084826946258545e-02 -3.046443462371826172e-01 -2.525141537189483643e-01
1.027991920709609985e-01 1.249419823288917542e-01 4.390941858291625977e-01
-1.008614599704742432e-01 3.128011524677276611e-01 -4.976433515548706055e-01
-1.008614599704742432e-01 -9.120924025774002075e-02 5.010519623756408691e-01
-1.008614599704742432e-01 4.115630686283111572e-01 -6.672974228858947754e-01
4.020182788372039795e-02 4.960613548755645752e-01 -4.352301657199859619e-01
-1.008614599704742432e-01 5.571839809417724609e-01 -1.295187920331954956e-01
1.027991920709609985e-01 -1.389175355434417725e-01 -3.467063903808593750e-01
5.963602289557456970e-02 -2.722795307636260986e-01 5.914377570152282715e-01
-1.675705164670944214e-01 -6.880962848663330078e-01 -3.532232046127319336e-01
1.027991920709609985e-01 3.536083549261093140e-02 4.752313196659088135e-01
-5.696408450603485107e-02 -4.259430170059204102e-01 6.994732618331909180e-01
-1.008614599704742432e-01 4.167761206626892090e-01 1.845677047967910767e-01
-1.008614599704742432e-01 -3.472510874271392822e-01 5.439618825912475586e-01
9.064042568206787109e-02 3.535524010658264160e-01 -5.604513883590698242e-01
-1.008614599704742432e-01 4.470001459121704102e-01 -1.167421713471412659e-01
-1.008614599704742432e-01 -2.071824073791503906e-01 -2.549034059047698975e-01
4.454950988292694092e-02 4.024850726127624512e-01 6.750706434249877930e-01
-1.008614599704742432e-01 1.610242575407028198e-01 -2.632274925708770752e-01
5.706350505352020264e-02 3.366387486457824707e-01 -6.410365700721740723e-01
-1.008614599704742432e-01 5.676838159561157227e-01 -2.905285060405731201e-01
2.046296298503875732e-01 -5.275748670101165771e-02 -8.097733557224273682e-02
1.027991920709609985e-01 -1.269656717777252197e-01 1.653999239206314087e-01
-1.008614599704742432e-01 3.253944814205169678e-01 -3.488282561302185059e-01
2.046296298503875732e-01 -1.778707839548587799e-02 9.783984720706939697e-02
1.027991920709609985e-01 1.287828981876373291e-01 2.181739062070846558e-01
-1.008614599704742432e-01 5.770612359046936035e-01 -6.099206805229187012e-01
2.152285724878311157e-02 5.408909916877746582e-01 5.130255222320556641e-01
2.046296298503875732e-01 -2.779709466267377138e-04 -6.498500704765319824e-02
1.736403554677963257e-01 -6.551986932754516602e-01 -4.237337037920951843e-02
-1.008614599704742432e-01 -2.584306299686431885e-01 1.718194186687469482e-01
2.475055754184722900e-01 -2.880443930625915527e-01 9.656917303800582886e-02
1.027991920709609985e-01 -3.439177945256233215e-02 4.912918210029602051e-01
-9.654221683740615845e-02 4.152494370937347412e-01 -7.885270714759826660e-01
-1.115810200572013855e-01 5.921912193298339844e-01 2.747561335563659668e-01
-6.303369253873825073e-02 3.424753248691558838e-01 7.925251722335815430e-01
1.908232085406780243e-02 2.975086569786071777e-01 -7.321923971176147461e-01
-4.664609581232070923e-02 -6.551986932754516602e-01 2.256222069263458252e-01
-4.206666722893714905e-02 5.824226737022399902e-01 7.925251722335815430e-01
3.156901150941848755e-02 -3.396402597427368164e-01 6.835308074951171875e-01
4.865250736474990845e-02 -2.986395955085754395e-01 -3.963712453842163086e-01
2.226636931300163269e-02 -3.619672358036041260e-01 1.051946282386779785e-01
-4.390348214656114578e-03 5.832597017288208008e-01 7.306259870529174805e-01
-1.008614599704742432e-01 -3.622799515724182129e-01 -4.307115077972412109e-01
4.358305037021636963e-02 -3.108078241348266602e-01 3.931137919425964355e-01
8.077263832092285156e-02 2.388659864664077759e-01 -5.841349959373474121e-01
1.221596542745828629e-02 5.632274746894836426e-01 -4.974260330200195312e-01
-7.265443354845046997e-02 -2.154308855533599854e-01 -7.885270714759826660e-01
-1.115810200572013855e-01 5.928223133087158203e-01 5.811014175415039062e-01
-8.992259390652179718e-03 5.993683934211730957e-01 -7.885270714759826660e-01
1.836488991975784302e-01 7.369252294301986694e-02 -8.834440261125564575e-02
-5.651287734508514404e-02 6.030831336975097656e-01 -5.343303680419921875e-01
2.659373916685581207e-02 5.287209153175354004e-01 -5.397002398967742920e-02
5.691045895218849182e-02 4.559609889984130859e-01 3.979688286781311035e-01
9.267351031303405762e-02 -6.551986932754516602e-01 1.070642694830894470e-01
9.380522184073925018e-03 3.487313985824584961e-01 -7.554764151573181152e-01
6.465447694063186646e-02 -2.602341473102569580e-01 3.010661303997039795e-01
-1.115810200572013855e-01 5.845917463302612305e-01 1.925242692232131958e-01
-1.008614599704742432e-01 3.702940940856933594e-01 4.163713455200195312e-01
-1.008614599704742432e-01 2.474224865436553955e-01 -1.974869966506958008e-01
-9.232585877180099487e-02 -4.259430170059204102e-01 6.279112696647644043e-01
-1.008614599704742432e-01 2.945110201835632324e-01 2.144299149513244629e-01
-1.008614599704742432e-01 -1.013604477047920227e-01 -1.114176288247108459e-01
1.027991920709609985e-01 -1.538793593645095825e-01 -1.626394502818584442e-02
1.244724243879318237e-01 -6.980755329132080078e-01 7.626505941152572632e-02
-1.008614599704742432e-01 1.436816155910491943e-01 7.390001416206359863e-01
2.932932227849960327e-02 -3.450158238410949707e-01 -3.920282721519470215e-01
-1.008614599704742432e-01 2.519921660423278809e-01 -6.974374055862426758e-01
1.027991920709609985e-01 3.481657058000564575e-02 -4.192726314067840576e-01
2.812392637133598328e-02 -6.975039839744567871e-01 3.264824151992797852e-01
-1.008614599704742432e-01 1.719545722007751465e-01 6.534352302551269531e-01
1.027991920709609985e-01 5.062004551291465759e-02 -2.215513437986373901e-01
4.753299430012702942e-02 3.062191605567932129e-01 6.679086089134216309e-01
-1.008614599704742432e-01 3.534891009330749512e-01 5.506355166435241699e-01
2.028828114271163940e-01 -6.551986932754516602e-01 -9.658808261156082153e-02
-7.060741074383258820e-03 6.030831336975097656e-01 2.833485305309295654e-01
3.190127387642860413e-02 5.159820318222045898e-01 -6.480758190155029297e-01
-3.682926762849092484e-03 6.013854146003723145e-01 -2.980854511260986328e-01
-6.137545406818389893e-02 -6.814972758293151855e-01 1.587262898683547974e-01
1.434998353943228722e-03 5.891019701957702637e-01 1.335988752543926239e-03
-8.930472657084465027e-03 -6.980755329132080078e-01 1.990070380270481110e-02
-1.115810200572013855e-01 -4.178078472614288330e-01 -6.116467118263244629e-01
-1.008614599704742432e-01 2.445743232965469360e-02 2.032753452658653259e-02
2.224001437425613403e-01 -4.452807903289794922e-01 1.071020513772964478e-01
2.475055754184722900e-01 -1.650244444608688354e-01 -2.328003756701946259e-02
3.005525842308998108e-02 -6.551986932754516602e-01 9.648320078849792480e-02
-3.391632437705993652e-02 2.812421917915344238e-01 -7.885270714759826660e-01
-2.827563090249896049e-03 2.012503296136856079e-01 -7.847765088081359863e-01
-1.862763166427612305e-01 -6.551986932754516602e-01 3.437682688236236572e-01
-4.552534967660903931e-02 -4.259430170059204102e-01 -5.251871943473815918e-01
2.046296298503875732e-01 -1.536837965250015259e-01 2.817962691187858582e-02
5.433415621519088745e-02 -6.339902281761169434e-01 2.056882157921791077e-02
-1.008614599704742432e-01 2.321857511997222900e-01 7.469888329505920410e-01
-1.390415281057357788e-01 -6.660602688789367676e-01 -2.419274300336837769e-01
-1.115810200572013855e-01 6.023736000061035156e-01 7.339287996292114258e-01
1.205196380615234375e-01 -6.604154706001281738e-01 2.340880036354064941e-01
