-1.430141329765319824e-01 2.179899513721466064e-01 4.979105889797210693e-01
7.385254651308059692e-02 -1.304403133690357208e-02 8.569638729095458984e-01
-1.924808770418167114e-01 1.949874162673950195e-01 -3.541606366634368896e-01
7.316167000681161880e-03 -2.995479702949523926e-01 -6.136208176612854004e-01
1.924076229333877563e-01 2.179899513721466064e-01 4.488928914070129395e-01
1.813256442546844482e-01 -2.995479702949523926e-01 1.559427082538604736e-01
2.656618952751159668e-01 1.949874162673950195e-01 2.604392170906066895e-01
-1.853277832269668579e-01 1.097479742020368576e-02 1.202594861388206482e-01
-5.404253304004669189e-02 1.097479742020368576e-02 7.332529425621032715e-01
2.565587162971496582e-01 -2.445584237575531006e-01 -1.292732357978820801e-01
2.518161237239837646e-01 -2.995479702949523926e-01 5.622503161430358887e-01
2.795497477054595947e-01 2.065327316522598267e-01 6.874738335609436035e-01
3.541350364685058594e-03 6.652724742889404297e-02 2.876769602298736572e-01
1.121244654059410095e-01 1.097479742020368576e-02 5.418037772178649902e-01
-2.024054527282714844e-01 -3.675216734409332275e-01 -8.106434941291809082e-01
2.565587162971496582e-01 1.653669178485870361e-01 7.654496431350708008e-01
2.048968374729156494e-01 1.045214384794235229e-01 -2.988752722740173340e-01
-1.378197073936462402e-01 -2.310515493154525757e-01 8.569638729095458984e-01
-1.899765282869338989e-01 1.374839395284652710e-01 3.805755078792572021e-01
-9.815786033868789673e-02 -8.193628489971160889e-02 -8.681564927101135254e-01
-1.988738775253295898e-01 -2.606021761894226074e-01 8.031163811683654785e-01
2.053276300430297852e-01 -2.995479702949523926e-01 7.507522404193878174e-02
2.251030355691909790e-01 1.909140050411224365e-01 7.994747161865234375e-01
-2.448770552873611450e-01 1.809224486351013184e-01 6.736940741539001465e-01
-2.448770552873611450e-01 5.612402781844139099e-02 -1.338253021240234375e-01
2.022058069705963135e-01 7.385554164648056030e-02 2.646868526935577393e-01
-5.968987569212913513e-02 1.374839395284652710e-01 -7.475205063819885254e-01
-1.075003594160079956e-01 2.179899513721466064e-01 -8.159919977188110352e-01
-1.232980862259864807e-01 1.097479742020368576e-02 2.581627070903778076e-01
2.370437085628509521e-01 1.460883766412734985e-01 -8.681564927101135254e-01
4.049331322312355042e-02 -2.995479702949523926e-01 1.727886945009231567e-01
1.297556608915328979e-01 1.374839395284652710e-01 -1.538457870483398438e-01
2.565587162971496582e-01 -1.478409320116043091e-01 -7.611355185508728027e-01
4.851059988141059875e-02 1.374839395284652710e-01 6.327590346336364746e-01
1.567808687686920166e-01 1.949874162673950195e-01 5.844295620918273926e-01
-1.839520931243896484e-01 -2.995479702949523926e-01 4.248918294906616211e-01
2.565587162971496582e-01 -5.059614405035972595e-02 5.847837328910827637e-01
-2.448770552873611450e-01 -2.195407152175903320e-01 -5.453991293907165527e-01
2.565587162971496582e-01 -1.794622391462326050e-01 4.858828186988830566e-01
2.565587162971496582e-01 -2.883855700492858887e-01 -7.497395873069763184e-01
-4.820229858160018921e-02 -2.572381496429443359e-01 -8.681564927101135254e-01
-8.412252180278301239e-03 1.949874162673950195e-01 2.433347553014755249e-01
1.493960767984390259e-01 1.374839395284652710e-01 4.522281885147094727e-01
-2.448770552873611450e-01 -1.627246886491775513e-01 -4.852534830570220947e-01
2.795497477054595947e-01 2.083927989006042480e-01 6.068490743637084961e-01
2.189656496047973633e-01 1.949874162673950195e-01 3.507836461067199707e-01
2.490178942680358887e-01 1.097479742020368576e-02 -2.022135257720947266e-01
5.245935916900634766e-02 2.179899513721466064e-01 1.532004028558731079e-02
8.855117112398147583e-02 1.949874162673950195e-01 -5.472266674041748047e-01
-2.448770552873611450e-01 1.686246693134307861e-01 5.254872441291809082e-01
1.926220506429672241e-01 -2.995479702949523926e-01 -8.343865722417831421e-02
-7.135532051324844360e-02 1.097479742020368576e-02 -5.622384548187255859e-01
2.565587162971496582e-01 -8.397317677736282349e-02 -4.017711281776428223e-01
-2.448770552873611450e-01 1.927530169486999512e-01 1.548829525709152222e-01
-7.103031128644943237e-02 1.949874162673950195e-01 5.567055344581604004e-01
2.553276121616363525e-01 -4.787074401974678040e-02 -8.106434941291809082e-01
-2.448770552873611450e-01 -2.435905486345291138e-01 -2.393547296524047852e-01
-1.479089111089706421e-01 1.949874162673950195e-01 -7.863791584968566895e-01
-2.448770552873611450e-01 -2.924149632453918457e-01 3.804826438426971436e-01
4.655268415808677673e-02 1.949874162673950195e-01 4.083033502101898193e-01
2.795497477054595947e-01 2.011066079139709473e-01 -6.578867789357900620e-03
2.565587162971496582e-01 -2.864786088466644287e-01 1.892288029193878174e-01
-2.448770552873611450e-01 -3.590441122651100159e-02 7.211791872978210449e-01
3.810709342360496521e-02 1.160179302096366882e-01 -8.681564927101135254e-01
-4.710185155272483826e-02 -2.995479702949523926e-01 -1.594169810414314270e-02
-2.448770552873611450e-01 -6.244003772735595703e-02 4.320449531078338623e-01
2.565587162971496582e-01 -1.787717081606388092e-02 -4.958979487419128418e-01
-5.814743414521217346e-02 2.179899513721466064e-01 3.619201481342315674e-01
-2.448770552873611450e-01 -2.655218541622161865e-01 -3.577113449573516846e-01
2.565587162971496582e-01 -1.823723018169403076e-01 2.755926847457885742e-01
-1.089708060026168823e-01 1.374839395284652710e-01 -2.553783953189849854e-01
-2.419505119323730469e-01 2.179899513721466064e-01 7.089637517929077148e-01
1.733588129281997681e-01 -2.236658185720443726e-01 -8.681564927101135254e-01
-1.079168021678924561e-01 -2.995479702949523926e-01 -4.969089031219482422e-01
-2.448770552873611450e-01 -1.096878498792648315e-01 -8.160015940666198730e-01
2.138276845216751099e-01 2.629290334880352020e-02 -8.106434941291809082e-01
1.505831629037857056e-01 1.816193610429763794e-01 -8.681564927101135254e-01
1.321068406105041504e-01 1.097479742020368576e-02 -1.645179986953735352e-01
6.586302071809768677e-02 1.949874162673950195e-01 -6.214957237243652344e-01
-1.746555417776107788e-01 1.097479742020368576e-02 4.861154556274414062e-01
2.230084091424942017e-01 1.949874162673950195e-01 -3.056454658508300781e-01
2.519262433052062988e-01 1.097479742020368576e-02 -7.564504146575927734e-01
-1.988738775253295898e-01 -1.725492179393768311e-01 8.183464407920837402e-01
-1.928417980670928955e-01 1.949874162673950195e-01 -9.876353666186332703e-03
5.682522803544998169e-02 1.374839395284652710e-01 2.620034813880920410e-01
1.906204037368297577e-02 1.949874162673950195e-01 2.971400618553161621e-01
2.565587162971496582e-01 8.760509081184864044e-03 6.023467779159545898e-01
-1.825496256351470947e-01 1.949874162673950195e-01 -8.678348064422607422e-01
2.565587162971496582e-01 1.646087318658828735e-01 -6.655928492546081543e-01
-2.448770552873611450e-01 2.138868719339370728e-01 -7.364615201950073242e-01
-4.831771366298198700e-03 -2.995479702949523926e-01 7.982923984527587891e-01
1.363516151905059814e-01 -2.995479702949523926e-01 7.328518629074096680e-01
-2.225130349397659302e-01 -3.802281916141510010e-01 -8.681564927101135254e-01
1.886051297187805176e-01 1.949874162673950195e-01 -6.785894632339477539e-01
-2.448770552873611450e-01 -2.803172767162322998e-01 -5.646939873695373535e-01
-1.196755841374397278e-01 1.374839395284652710e-01 -4.693686068058013916e-01
-1.975834071636199951e-01 2.179899513721466064e-01 -4.732964932918548584e-01
-8.341126888990402222e-02 -2.995479702949523926e-01 -6.539413332939147949e-01
2.393192648887634277e-01 -2.995479702949523926e-01 3.489312231540679932e-01
-2.411779612302780151e-01 -2.995479702949523926e-01 5.741326212882995605e-01
2.565587162971496582e-01 -2.494503259658813477e-01 6.163504719734191895e-01
-1.135755255818367004e-01 1.949874162673950195e-01 -4.114477634429931641e-01
5.659652873873710632e-02 -4.545551538467407227e-02 -8.681564927101135254e-01
-1.114196404814720154e-01 -2.995479702949523926e-01 -1.061893180012702942e-01
2.565587162971496582e-01 1.591261178255081177e-01 -4.137280881404876709e-01
7.738362252712249756e-02 -2.995479702949523926e-01 5.621856451034545898e-02
-2.448770552873611450e-01 -2.839378416538238525e-01 1.271796179935336113e-03
2.333082407712936401e-01 -1.432671248912811279e-01 -8.681564927101135254e-01
1.463403105735778809e-01 1.949874162673950195e-01 -2.067320942878723145e-01
1.042022407054901123e-01 1.477158069610595703e-01 8.569638729095458984e-01
-9.434771537780761719e-02 2.179899513721466064e-01 1.399353146553039551e-01
-2.448770552873611450e-01 -2.825832664966583252e-01 -7.650289535522460938e-01
-1.170946434140205383e-01 1.097479742020368576e-02 -3.042401075363159180e-01
1.307734102010726929e-02 -2.995479702949523926e-01 4.888782799243927002e-01
-1.210167855024337769e-01 1.097479742020368576e-02 -6.063279509544372559e-01
3.336107358336448669e-02 2.179899513721466064e-01 8.549171090126037598e-01
-2.034747749567031860e-01 9.878708422183990479e-02 -3.757817745208740234e-01
2.036140263080596924e-01 3.075881302356719971e-02 8.569638729095458984e-01
2.093598693609237671e-01 1.374839395284652710e-01 6.746437549591064453e-01
-1.013505235314369202e-01 1.097479742020368576e-02 3.306668624281883240e-02
2.283856868743896484e-01 -2.995479702949523926e-01 -2.130341231822967529e-01
-1.428427696228027344e-01 1.949874162673950195e-01 -5.980001688003540039e-01
1.311925947666168213e-01 2.179899513721466064e-01 -1.238442584872245789e-01
4.781874269247055054e-02 3.165391087532043457e-02 7.994747161865234375e-01
-2.448770552873611450e-01 1.716220527887344360e-01 -6.741024851799011230e-01
2.565587162971496582e-01 1.597828716039657593e-01 1.543458998203277588e-01
3.872533142566680908e-02 1.949874162673950195e-01 -3.505582511425018311e-01
-1.042952537536621094e-01 1.097479742020368576e-02 4.114826321601867676e-01
4.247018322348594666e-02 1.097479742020368576e-02 3.967207372188568115e-01
-2.448770552873611450e-01 1.012024134397506714e-01 -8.545653820037841797e-01
1.390914767980575562e-01 1.408814936876296997e-01 -8.681564927101135254e-01
-1.664886325597763062e-01 1.374839395284652710e-01 -5.134073495864868164e-01
2.163971513509750366e-01 2.179899513721466064e-01 -5.601610541343688965e-01
-1.320987343788146973e-01 1.201545074582099915e-01 2.646868526935577393e-01
-6.184787303209304810e-02 2.179899513721466064e-01 2.027222514152526855e-01
-2.448770552873611450e-01 -1.332679837942123413e-01 7.066690921783447266e-01
-1.988738775253295898e-01 -4.241395890712738037e-01 8.386225104331970215e-01
-9.427303820848464966e-02 2.179899513721466064e-01 6.009954959154129028e-02
2.565587162971496582e-01 -2.019250392913818359e-01 -8.582271337509155273e-01
2.565587162971496582e-01 -1.059743687510490417e-01 -6.587527990341186523e-01
1.917451471090316772e-01 -8.460673689842224121e-02 8.569638729095458984e-01
-6.454934179782867432e-02 1.685270369052886963e-01 -8.681564927101135254e-01
-2.160042077302932739e-01 1.949874162673950195e-01 -2.732640504837036133e-01
2.565587162971496582e-01 -1.543476432561874390e-01 5.718848109245300293e-01
9.211892634630203247e-02 -2.995479702949523926e-01 8.535127043724060059e-01
1.991806626319885254e-01 -2.995479702949523926e-01 -3.298723995685577393e-01
-7.147977501153945923e-02 -2.995479702949523926e-01 5.898719429969787598e-01
2.105498313903808594e-01 1.662237197160720825e-01 -8.180425763130187988e-01
1.572298556566238403e-01 1.097479742020368576e-02 -7.123599648475646973e-01
-1.798537969589233398e-01 1.374839395284652710e-01 5.427381992340087891e-01
1.917537599802017212e-01 2.179899513721466064e-01 -6.208921968936920166e-02
1.233892980962991714e-02 -1.160743013024330139e-01 8.569638729095458984e-01
-1.866383552551269531e-01 1.949874162673950195e-01 3.121460974216461182e-01
2.565587162971496582e-01 -2.480392456054687500e-01 3.799312412738800049e-01
-3.353698551654815674e-02 2.179899513721466064e-01 2.829669415950775146e-01
-2.034747749567031860e-01 1.056367233395576477e-01 1.920586526393890381e-01
-6.946192681789398193e-02 -2.995479702949523926e-01 -7.785587906837463379e-01
2.565587162971496582e-01 -3.666189014911651611e-01 -8.660973310470581055e-01
2.565587162971496582e-01 -1.769765466451644897e-01 -6.177713349461555481e-02
1.552213877439498901e-01 2.179899513721466064e-01 -5.715388655662536621e-01
1.412530988454818726e-01 -2.995479702949523926e-01 9.891695529222488403e-02
1.535757631063461304e-01 -2.995235100388526917e-02 -8.681564927101135254e-01
-1.748345606029033661e-02 1.949874162673950195e-01 -8.047865629196166992e-01
-1.839176416397094727e-01 -2.995479702949523926e-01 5.704009532928466797e-01
-1.297571361064910889e-01 1.097479742020368576e-02 -6.735482215881347656e-01
2.089405655860900879e-01 1.097479742020368576e-02 6.933967471122741699e-01
-2.448770552873611450e-01 1.918186843395233154e-01 7.905457615852355957e-01
-1.531674861907958984e-01 2.175328508019447327e-02 8.569638729095458984e-01
-1.792698502540588379e-01 1.949874162673950195e-01 -3.198684155941009521e-01
-2.448770552873611450e-01 1.179765984416007996e-01 -9.228804707527160645e-02
1.806344687938690186e-01 1.374839395284652710e-01 -7.211644649505615234e-01
-2.448770552873611450e-01 1.991709172725677490e-01 3.891378045082092285e-01
2.388645261526107788e-01 2.179899513721466064e-01 1.408016979694366455e-01
1.557000428438186646e-01 2.179899513721466064e-01 -3.753232061862945557e-01
2.222607433795928955e-01 1.949874162673950195e-01 5.879132747650146484e-01
-2.448770552873611450e-01 6.149554997682571411e-02 -6.891736388206481934e-01
1.908326335251331329e-02 1.374839395284652710e-01 -5.888233184814453125e-01
1.471511572599411011e-01 1.374839395284652710e-01 -4.817085266113281250e-01
-2.986449934542179108e-02 1.031218394637107849e-01 7.994747161865234375e-01
-6.789173185825347900e-02 1.097479742020368576e-02 -1.921727135777473450e-02
-1.654499322175979614e-01 -2.995479702949523926e-01 2.968749105930328369e-01
1.747191697359085083e-01 1.374839395284652710e-01 3.181303441524505615e-01
-5.390477553009986877e-02 -2.995479702949523926e-01 2.199818193912506104e-01
2.481811791658401489e-01 1.097479742020368576e-02 4.057903885841369629e-01
-2.034747749567031860e-01 2.921752817928791046e-02 5.373427271842956543e-01
6.050689890980720520e-02 -2.995479702949523926e-01 -3.679607994854450226e-03
-1.988738775253295898e-01 9.941604733467102051e-02 8.102283477783203125e-01
-2.448770552873611450e-01 7.441844791173934937e-02 -2.250245958566665649e-01
-2.034747749567031860e-01 4.348162561655044556e-02 7.602149844169616699e-01
2.565587162971496582e-01 1.701688468456268311e-01 2.896605134010314941e-01
-2.020809203386306763e-01 9.433074295520782471e-02 2.876769602298736572e-01
-3.728840732946991920e-03 1.374839395284652710e-01 -9.441511332988739014e-02
-1.270239800214767456e-01 1.374839395284652710e-01 -6.273689270019531250e-01
-1.096744313836097717e-01 -2.995479702949523926e-01 2.353966087102890015e-01
2.565587162971496582e-01 -1.010257676243782043e-01 -1.747345477342605591e-01
1.446563750505447388e-01 4.668577760457992554e-02 -8.681564927101135254e-01
-1.000667586922645569e-01 1.097479742020368576e-02 -7.486462593078613281e-01
2.150884084403514862e-02 -2.995479702949523926e-01 -2.914110422134399414e-01
2.565587162971496582e-01 -2.412661761045455933e-01 -6.759319305419921875e-01
9.788295626640319824e-02 1.949874162673950195e-01 5.327197909355163574e-01
-1.054899580776691437e-02 1.374839395284652710e-01 -3.243879079818725586e-01
1.856814771890640259e-01 1.949874162673950195e-01 6.553240418434143066e-01
-2.448770552873611450e-01 1.821554750204086304e-01 -1.990112811326980591e-01
1.246741935610771179e-01 2.148681282997131348e-01 8.569638729095458984e-01
2.565587162971496582e-01 1.775230020284652710e-01 5.058497190475463867e-01
1.504922211170196533e-01 2.179899513721466064e-01 7.368697524070739746e-01
-2.448770552873611450e-01 1.782227903604507446e-01 3.368530794978141785e-02
2.500740578398108482e-03 -2.995479702949523926e-01 3.964804410934448242e-01
-1.803037375211715698e-01 1.374839395284652710e-01 1.531051993370056152e-01
-2.448770552873611450e-01 -9.178693592548370361e-02 2.270717322826385498e-01
2.565587162971496582e-01 -4.701958969235420227e-02 2.912707328796386719e-01
2.565587162971496582e-01 -7.817736268043518066e-02 6.759763360023498535e-01
-2.448770552873611450e-01 -2.543594837188720703e-01 -6.651898622512817383e-01
-2.448770552873611450e-01 -1.707412302494049072e-01 -3.354267776012420654e-01
-7.056476920843124390e-02 1.374839395284652710e-01 4.004696011543273926e-01
-1.988738775253295898e-01 -2.481947839260101318e-02 -8.525425791740417480e-01
2.565587162971496582e-01 -1.536696851253509521e-01 -6.161902546882629395e-01
2.565587162971496582e-01 1.505150198936462402e-01 3.968523070216178894e-02
1.667264848947525024e-01 2.179899513721466064e-01 1.639296412467956543e-01
-8.773548901081085205e-02 5.765765160322189331e-02 -2.758564651012420654e-01
1.938790231943130493e-01 4.383105412125587463e-02 -2.988752722740173340e-01
-2.438096404075622559e-01 -2.995479702949523926e-01 8.126258850097656250e-02
2.019186019897460938e-01 1.097479742020368576e-02 5.188108682632446289e-01
-2.448770552873611450e-01 -1.908043920993804932e-01 -5.110710486769676208e-02
-7.921596989035606384e-04 1.374839395284652710e-01 -4.329932630062103271e-01
-2.448770552873611450e-01 -2.141682207584381104e-01 7.980416417121887207e-01
2.565587162971496582e-01 -1.301677972078323364e-01 4.170025587081909180e-01
2.352276742458343506e-01 1.097479742020368576e-02 2.935989499092102051e-01
-2.448770552873611450e-01 -6.781396269798278809e-02 6.166462898254394531e-01
2.378641366958618164e-01 -2.995479702949523926e-01 6.441434621810913086e-01
9.333184361457824707e-02 9.496162086725234985e-02 -2.988752722740173340e-01
6.597253680229187012e-02 -2.562339305877685547e-01 -8.681564927101135254e-01
-1.970166862010955811e-01 1.097479742020368576e-02 -2.002701610326766968e-01
8.634588122367858887e-02 -2.995479702949523926e-01 2.427411973476409912e-01
-2.000245638191699982e-02 -9.091725572943687439e-03 -8.681564927101135254e-01
1.350793242454528809e-01 -1.909106522798538208e-01 -8.681564927101135254e-01
3.035230375826358795e-02 1.097479742020368576e-02 2.539370954036712646e-01
-2.448770552873611450e-01 1.762526184320449829e-01 2.549441754817962646e-01
-7.737017422914505005e-02 1.949874162673950195e-01 -5.025216937065124512e-01
-2.448770552873611450e-01 -2.936767041683197021e-01 7.290656566619873047e-01
2.153919488191604614e-01 2.179899513721466064e-01 -4.843909442424774170e-01
2.565587162971496582e-01 1.432881951332092285e-01 8.451696038246154785e-01
5.489622801542282104e-02 1.949874162673950195e-01 -2.260106354951858521e-01
1.050800979137420654e-01 1.097479742020368576e-02 -4.750129580497741699e-01
2.565587162971496582e-01 -2.810218632221221924e-01 -5.019616484642028809e-01
2.284689694643020630e-01 1.949874162673950195e-01 7.427706122398376465e-01
-2.448770552873611450e-01 1.437505930662155151e-01 1.333862841129302979e-01
9.351526945829391479e-02 1.949874162673950195e-01 -8.036693930625915527e-01
-2.448770552873611450e-01 1.188180893659591675e-01 7.280402779579162598e-01
2.469261288642883301e-01 1.949874162673950195e-01 -2.419586777687072754e-01
2.207917533814907074e-02 1.097479742020368576e-02 -7.615567445755004883e-01
3.587662801146507263e-02 1.949874162673950195e-01 1.739250570535659790e-01
-1.261671781539916992e-01 2.925772778689861298e-02 7.994747161865234375e-01
8.260055631399154663e-02 -2.995479702949523926e-01 -1.685435473918914795e-01
-9.867576509714126587e-02 1.949874162673950195e-01 7.232374548912048340e-01
-2.831162884831428528e-02 1.374839395284652710e-01 1.376147866249084473e-01
-1.592330783605575562e-01 1.949874162673950195e-01 1.991064399480819702e-01
-2.448770552873611450e-01 -3.060290217399597168e-01 8.240405321121215820e-01
-2.034747749567031860e-01 1.219537947326898575e-02 5.086598545312881470e-02
2.276533395051956177e-01 -2.995479702949523926e-01 4.558392167091369629e-01
2.565587162971496582e-01 -3.445320203900337219e-02 1.145418174564838409e-02
-4.071976989507675171e-02 1.097479742020368576e-02 4.265709817409515381e-01
-8.531442284584045410e-02 -2.995479702949523926e-01 -3.251576125621795654e-01
-1.986096650362014771e-01 2.179899513721466064e-01 8.675302565097808838e-02
9.193214774131774902e-02 1.949874162673950195e-01 2.384916394948959351e-01
8.114743232727050781e-02 1.374839395284652710e-01 7.892007231712341309e-01
-1.094896718859672546e-01 -2.995479702949523926e-01 -5.285757035017013550e-02
2.565587162971496582e-01 -2.265990674495697021e-01 -2.740787267684936523e-01
2.565587162971496582e-01 -1.775266230106353760e-01 -4.090381562709808350e-01
4.955848678946495056e-02 1.097479742020368576e-02 1.397227942943572998e-01
-7.225128263235092163e-02 1.374839395284652710e-01 -2.179949730634689331e-01
2.637166082859039307e-01 1.949874162673950195e-01 -1.175067797303199768e-01
-5.479719117283821106e-02 1.374839395284652710e-01 -6.224894523620605469e-01
1.494295895099639893e-01 -2.995479702949523926e-01 -4.646987915039062500e-01
-2.448770552873611450e-01 -9.290125966072082520e-02 7.907899022102355957e-01
-1.210206225514411926e-01 1.097479742020368576e-02 -1.136784479022026062e-01
8.159191906452178955e-02 1.097479742020368576e-02 6.836990714073181152e-01
3.373184427618980408e-02 1.949874162673950195e-01 6.074129343032836914e-01
-2.448770552873611450e-01 -7.044861465692520142e-02 -1.633793488144874573e-02
7.821639627218246460e-02 1.097479742020368576e-02 2.740862406790256500e-02
-2.448770552873611450e-01 1.859598755836486816e-01 3.404368758201599121e-01
2.565587162971496582e-01 -1.438382714986801147e-01 2.395121604204177856e-01
-1.397496610879898071e-01 1.097479742020368576e-02 -1.896639913320541382e-01
2.448994964361190796e-01 2.179899513721466064e-01 -4.242050349712371826e-01
-1.497785747051239014e-01 -1.798086762428283691e-01 8.569638729095458984e-01
-2.448770552873611450e-01 -1.521225422620773315e-01 4.715603291988372803e-01
6.578837521374225616e-03 -2.995479702949523926e-01 7.469809055328369141e-01
1.468007862567901611e-01 1.097479742020368576e-02 -3.136908113956451416e-01
1.223153620958328247e-01 1.097479742020368576e-02 -6.551676392555236816e-01
-2.448770552873611450e-01 2.403170987963676453e-02 -4.073638021945953369e-01
2.820847928524017334e-02 1.167033761739730835e-01 -8.106434941291809082e-01
2.565587162971496582e-01 -2.964979410171508789e-01 -4.226216077804565430e-01
-2.200105972588062286e-02 1.310019493103027344e-01 2.646868526935577393e-01
-1.620916277170181274e-02 -2.995479702949523926e-01 1.041008532047271729e-01
1.076799035072326660e-01 7.896956801414489746e-02 8.569638729095458984e-01
1.213034540414810181e-01 1.097479742020368576e-02 -5.978718996047973633e-01
-6.072617694735527039e-02 2.179899513721466064e-01 -3.118661344051361084e-01
-2.448770552873611450e-01 7.671889662742614746e-02 3.761852085590362549e-01
4.121427237987518311e-02 1.374839395284652710e-01 -7.130032777786254883e-01
-2.097165137529373169e-01 -2.995479702949523926e-01 -1.693515330553054810e-01
1.468993872404098511e-01 2.179899513721466064e-01 -2.486407607793807983e-01
-6.669057905673980713e-02 1.097479742020368576e-02 2.095403075218200684e-01
-2.448770552873611450e-01 6.370601803064346313e-02 1.823058538138866425e-02
8.605763316154479980e-02 1.841744631528854370e-01 -8.681564927101135254e-01
-2.034747749567031860e-01 7.559499889612197876e-02 2.363146841526031494e-01
-1.355077624320983887e-01 1.306955814361572266e-01 -2.988752722740173340e-01
-1.859749257564544678e-01 1.374839395284652710e-01 6.330299377441406250e-01
1.051933541893959045e-01 1.097479742020368576e-02 -3.976326286792755127e-01
7.560379337519407272e-03 6.451781839132308960e-02 -2.988752722740173340e-01
-1.489524096250534058e-01 1.374839395284652710e-01 -6.443638354539871216e-02
2.330200970172882080e-01 1.097479742020368576e-02 9.136463701725006104e-02
9.916041046380996704e-02 1.949874162673950195e-01 -3.126406371593475342e-01
4.511086270213127136e-02 1.374839395284652710e-01 5.667172074317932129e-01
2.795497477054595947e-01 1.988282054662704468e-01 -3.192815780639648438e-01
-8.729607611894607544e-02 1.024699062108993530e-01 2.876769602298736572e-01
2.215102016925811768e-01 1.949874162673950195e-01 -7.447869330644607544e-02
5.599880125373601913e-03 1.374839395284652710e-01 4.625596106052398682e-01
2.572968006134033203e-01 1.949874162673950195e-01 -7.050565481185913086e-01
2.565587162971496582e-01 1.484290063381195068e-01 -5.654991269111633301e-01
-2.448770552873611450e-01 -6.648836284875869751e-02 -4.546220302581787109e-01
1.231175884604454041e-01 -2.995479702949523926e-01 -8.122708797454833984e-01
2.565587162971496582e-01 -2.873305976390838623e-01 -1.755300760269165039e-01
-2.034747749567031860e-01 9.127879887819290161e-02 7.185800671577453613e-01
2.192480564117431641e-01 1.949874162673950195e-01 -5.318032503128051758e-01
2.105498313903808594e-01 -2.909311056137084961e-01 -8.488520979881286621e-01
2.565587162971496582e-01 -8.311848342418670654e-02 1.016539335250854492e-01
2.495434582233428955e-01 2.179899513721466064e-01 -7.447672486305236816e-01
-2.001988142728805542e-01 -2.039885334670543671e-02 -8.106434941291809082e-01
-5.313030257821083069e-02 1.374839395284652710e-01 8.512490242719650269e-02
1.761063337326049805e-01 -2.995479702949523926e-01 -2.193132042884826660e-01
-2.448770552873611450e-01 -9.502204507589340210e-02 -2.615368366241455078e-01
1.161588057875633240e-01 -2.493086457252502441e-01 -8.681564927101135254e-01
2.105498313903808594e-01 -2.105897516012191772e-01 -8.388786911964416504e-01
1.504673212766647339e-01 1.949874162673950195e-01 7.998778223991394043e-01
9.554335474967956543e-02 1.949874162673950195e-01 1.090387180447578430e-01
1.613549441099166870e-01 1.374839395284652710e-01 -1.143686771392822266e-01
2.565587162971496582e-01 -2.743110358715057373e-01 8.263822197914123535e-01
2.204835973680019379e-02 1.374839395284652710e-01 7.553977370262145996e-01
-6.386523693799972534e-02 2.306865155696868896e-02 2.876769602298736572e-01
2.096087783575057983e-01 1.097479742020368576e-02 -6.030548810958862305e-01
6.383742392063140869e-02 -2.995479702949523926e-01 6.695526838302612305e-01
-5.208691582083702087e-02 1.949874162673950195e-01 -4.758722707629203796e-02
2.105498313903808594e-01 1.516168862581253052e-01 8.328201770782470703e-01
1.250992417335510254e-01 9.871910512447357178e-02 -2.758564651012420654e-01
2.565587162971496582e-01 -1.612922698259353638e-01 7.703405618667602539e-01
1.555507034063339233e-01 1.949874162673950195e-01 4.953449666500091553e-01
-7.937615364789962769e-02 1.097479742020368576e-02 -5.029227733612060547e-01
-5.821033567190170288e-02 2.179899513721466064e-01 -3.929274082183837891e-01
-2.448770552873611450e-01 1.591730564832687378e-01 -2.854086160659790039e-01
2.565587162971496582e-01 -5.371519550681114197e-02 7.856730222702026367e-01
2.557344734668731689e-01 2.179899513721466064e-01 6.457326412200927734e-01
2.217045426368713379e-01 -4.106069207191467285e-01 7.994747161865234375e-01
-2.448770552873611450e-01 -1.945168823003768921e-01 -4.429369568824768066e-01
-2.448770552873611450e-01 9.889525175094604492e-02 -2.887429594993591309e-01
-4.169113468378782272e-03 -2.995479702949523926e-01 3.420088291168212891e-01
-1.700029671192169189e-01 -5.851635709404945374e-02 8.569638729095458984e-01
-1.988738775253295898e-01 1.234281063079833984e-02 8.396344184875488281e-01
-1.685054972767829895e-03 -2.995479702949523926e-01 -3.753978610038757324e-01
-4.265193268656730652e-02 1.949874162673950195e-01 -1.544239968061447144e-01
2.386778593063354492e-01 1.374839395284652710e-01 -1.272877454757690430e-01
5.607411265373229980e-02 -2.995479702949523926e-01 -4.456701278686523438e-01
1.919011920690536499e-01 1.374839395284652710e-01 2.808614633977413177e-03
-7.062706572469323874e-05 1.097479742020368576e-02 5.605338811874389648e-01
-2.448770552873611450e-01 1.196184158325195312e-01 -6.429062485694885254e-01
-2.448770552873611450e-01 -4.555315896868705750e-02 3.130431175231933594e-01
-1.824203878641128540e-01 -2.995479702949523926e-01 -6.980710029602050781e-01
-6.648647785186767578e-02 1.949874162673950195e-01 6.348325610160827637e-01
2.073552310466766357e-01 1.374839395284652710e-01 -2.377722859382629395e-01
-2.044550776481628418e-01 1.949874162673950195e-01 -7.230934500694274902e-01
-1.420864909887313843e-01 1.374839395284652710e-01 6.573746204376220703e-01
1.342206001281738281e-01 1.949874162673950195e-01 3.069329261779785156e-02
2.567894160747528076e-01 2.179899513721466064e-01 3.934083878993988037e-01
1.241830885410308838e-01 -1.837272942066192627e-01 8.569638729095458984e-01
1.957046240568161011e-01 1.374839395284652710e-01 1.282138675451278687e-01
1.584207713603973389e-01 1.949874162673950195e-01 -7.110981941223144531e-01
8.316671103239059448e-02 -1.460382938385009766e-01 -8.681564927101135254e-01
-1.506277173757553101e-01 4.022002965211868286e-02 -8.106434941291809082e-01
-3.981442749500274658e-02 -4.342283308506011963e-02 8.569638729095458984e-01
-1.392595171928405762e-01 1.949874162673950195e-01 -5.085116624832153320e-01
2.860069274902343750e-02 1.949874162673950195e-01 -8.430694043636322021e-02
9.401776641607284546e-02 2.179899513721466064e-01 -4.431810677051544189e-01
6.215531006455421448e-02 1.097479742020368576e-02 -6.623255610466003418e-01
-7.038182020187377930e-02 -2.995479702949523926e-01 4.118971824645996094e-01
-2.448770552873611450e-01 -1.915711164474487305e-01 -8.218450546264648438e-01
2.105498313903808594e-01 -1.739889383316040039e-01 -8.294758796691894531e-01
-2.448770552873611450e-01 -2.877202332019805908e-01 -5.140650272369384766e-01
2.105498313903808594e-01 8.228572458028793335e-02 -8.398666381835937500e-01
-2.034747749567031860e-01 1.233610510826110840e-02 -5.354305505752563477e-01
-2.448770552873611450e-01 -1.306474208831787109e-01 7.565063238143920898e-01
2.565587162971496582e-01 -4.662106279283761978e-03 1.362247318029403687e-01
2.317286580801010132e-01 1.374839395284652710e-01 4.189066588878631592e-01
2.565587162971496582e-01 -2.054250091314315796e-01 -2.056464701890945435e-01
1.708068884909152985e-02 2.179899513721466064e-01 8.638435602188110352e-02
3.453180659562349319e-03 1.374839395284652710e-01 -6.566055417060852051e-01
-1.155045256018638611e-01 1.097479742020368576e-02 2.099605649709701538e-01
-1.970099806785583496e-01 1.097479742020368576e-02 3.777188360691070557e-01
-2.448770552873611450e-01 -1.666796952486038208e-01 4.226172566413879395e-01
1.727930307388305664e-01 1.097479742020368576e-02 -1.170041859149932861e-01
-2.448770552873611450e-01 -1.831135600805282593e-01 3.380607962608337402e-01
-2.448770552873611450e-01 -2.768833637237548828e-01 6.495667099952697754e-01
1.796277798712253571e-02 -2.157420665025711060e-01 8.569638729095458984e-01
-2.188924401998519897e-01 -2.995479702949523926e-01 1.230414584279060364e-01
2.393001168966293335e-01 1.949874162673950195e-01 -7.718747854232788086e-01
2.653488516807556152e-01 2.179899513721466064e-01 -5.863744616508483887e-01
2.565587162971496582e-01 1.484960317611694336e-01 -1.975982785224914551e-01
-2.034747749567031860e-01 1.258266419172286987e-01 4.932312071323394775e-01
-1.738379895687103271e-01 -2.995479702949523926e-01 -3.499216139316558838e-01
-8.135586977005004883e-03 -1.666060537099838257e-01 -8.681564927101135254e-01
-2.448770552873611450e-01 -2.924886643886566162e-01 5.157235264778137207e-01
-8.997274935245513916e-02 1.949874162673950195e-01 8.145669102668762207e-01
-2.237843573093414307e-01 -2.750510573387145996e-01 -8.106434941291809082e-01
6.579658389091491699e-02 -2.995479702949523926e-01 -6.015307903289794922e-01
1.897137016057968140e-01 8.016046881675720215e-02 7.994747161865234375e-01
2.565587162971496582e-01 -2.298922389745712280e-01 -6.283693313598632812e-01
-1.131370738148689270e-01 -2.486236579716205597e-02 -8.681564927101135254e-01
2.295813858509063721e-01 1.949874162673950195e-01 4.579280614852905273e-01
-2.448770552873611450e-01 4.439969360828399658e-02 2.759363651275634766e-01
2.957553602755069733e-02 2.179899513721466064e-01 -4.880182445049285889e-01
-1.082901507616043091e-01 -2.177514731884002686e-01 -8.681564927101135254e-01
-2.034747749567031860e-01 4.793892055749893188e-02 -2.547743022441864014e-01
-5.391805898398160934e-03 -2.995479702949523926e-01 -2.063807547092437744e-01
2.795497477054595947e-01 2.152663767337799072e-01 -2.433946430683135986e-01
-1.799074113368988037e-01 1.949874162673950195e-01 8.540727496147155762e-01
1.204792112112045288e-01 1.279337257146835327e-01 2.876769602298736572e-01
-5.769749358296394348e-02 -1.810297518968582153e-01 -8.681564927101135254e-01
-2.427996695041656494e-01 2.346018888056278229e-02 8.569638729095458984e-01
2.218175083398818970e-01 2.179899513721466064e-01 -8.608933091163635254e-01
6.119741499423980713e-02 -2.995479702949523926e-01 4.903104305267333984e-01
2.565587162971496582e-01 -4.138297215104103088e-02 3.747329413890838623e-01
1.823605149984359741e-01 1.097479742020368576e-02 8.984421938657760620e-02
1.558752357959747314e-01 8.023130893707275391e-02 8.569638729095458984e-01
1.362884342670440674e-01 1.949874162673950195e-01 -5.416426062583923340e-01
-1.534508615732192993e-01 1.097479742020368576e-02 -7.482811808586120605e-02
-8.355869352817535400e-02 1.374839395284652710e-01 -2.720985934138298035e-02
-4.266495257616043091e-02 2.179899513721466064e-01 4.870737195014953613e-01
-2.448770552873611450e-01 -1.156857237219810486e-01 3.533764556050300598e-02
-1.569106280803680420e-01 1.097479742020368576e-02 7.021591067314147949e-01
2.563538253307342529e-01 -4.249552488327026367e-01 -8.681564927101135254e-01
-1.734263449907302856e-01 -2.995479702949523926e-01 -2.603836124762892723e-03
3.046479262411594391e-02 -2.995479702949523926e-01 8.304440975189208984e-01
-1.231113970279693604e-01 -2.995479702949523926e-01 6.440668702125549316e-01
7.767818868160247803e-02 -2.995479702949523926e-01 -2.808278501033782959e-01
-3.620063513517379761e-02 1.097479742020368576e-02 -3.734535276889801025e-01
-1.096237078309059143e-01 1.949874162673950195e-01 -6.901051402091979980e-01
-2.448770552873611450e-01 -4.822820425033569336e-02 -5.067961215972900391e-01
2.237273603677749634e-01 -2.995479702949523926e-01 1.215857826173305511e-02
-2.034747749567031860e-01 6.577574461698532104e-02 4.233773648738861084e-01
-4.307842254638671875e-02 5.075153708457946777e-02 -8.106434941291809082e-01
-2.041918039321899414e-01 -2.627820074558258057e-01 8.569638729095458984e-01
-2.448770552873611450e-01 -1.321089714765548706e-01 5.214818120002746582e-01
2.542515695095062256e-01 1.097479742020368576e-02 -1.331896483898162842e-01
2.379904985427856445e-01 1.097479742020368576e-02 -4.630655944347381592e-01
1.319029331207275391e-01 1.097479742020368576e-02 -2.525332570075988770e-01
-2.034747749567031860e-01 1.118535697460174561e-01 6.758203506469726562e-01
2.118182778358459473e-01 1.097479742020368576e-02 7.508734464645385742e-01
2.998344972729682922e-02 1.239771023392677307e-01 2.876769602298736572e-01
-2.448770552873611450e-01 -3.980372548103332520e-01 -8.184446692466735840e-01
-1.597548127174377441e-01 -2.995479702949523926e-01 4.841050803661346436e-01
2.112553715705871582e-01 -2.995479702949523926e-01 7.414906620979309082e-01
6.466224789619445801e-02 1.097479742020368576e-02 -5.279921889305114746e-01
-1.222699210047721863e-01 1.374839395284652710e-01 7.955554127693176270e-01
-1.311261057853698730e-01 2.179899513721466064e-01 -4.490672424435615540e-02
-2.034747749567031860e-01 1.254480518400669098e-02 -3.793650269508361816e-01
-1.172803565859794617e-01 1.949874162673950195e-01 2.360906600952148438e-01
-2.448770552873611450e-01 -1.841442137956619263e-01 -6.395872235298156738e-01
1.496938019990921021e-01 1.374839395284652710e-01 -3.992897570133209229e-01
2.565587162971496582e-01 -9.838660061359405518e-02 -7.061976790428161621e-01
1.519195884466171265e-01 1.097479742020368576e-02 3.848480284214019775e-01
-9.774139150977134705e-03 -2.995479702949523926e-01 -1.150110438466072083e-01
1.908232420682907104e-01 -2.995479702949523926e-01 6.479153633117675781e-01
-2.523192204535007477e-02 1.097479742020368576e-02 7.927118800580501556e-03
2.146481275558471680e-01 1.949874162673950195e-01 6.515622138977050781e-02
-7.883811369538307190e-03 1.097479742020368576e-02 1.061236709356307983e-01
2.277222573757171631e-01 -2.995479702949523926e-01 5.041762590408325195e-01
-2.002983838319778442e-01 2.179899513721466064e-01 -5.899835824966430664e-01
2.565587162971496582e-01 -2.570064663887023926e-01 3.333450257778167725e-01
1.173937544226646423e-01 2.179899513721466064e-01 4.961673319339752197e-01
-2.448770552873611450e-01 -9.741843491792678833e-02 -3.956126868724822998e-01
-1.603340059518814087e-01 1.097479742020368576e-02 2.926320433616638184e-01
-1.879996433854103088e-02 2.179899513721466064e-01 6.071822643280029297e-01
1.693026423454284668e-01 2.179899513721466064e-01 -2.087334170937538147e-02
-2.448770552873611450e-01 1.490436196327209473e-01 8.708932995796203613e-02
-2.448770552873611450e-01 -7.463862001895904541e-02 6.707130074501037598e-01
1.274360716342926025e-01 1.097479742020368576e-02 3.251402080059051514e-02
2.795497477054595947e-01 2.168249040842056274e-01 4.260119199752807617e-01
-1.160262748599052429e-01 1.097479742020368576e-02 -1.326728519052267075e-02
2.565587162971496582e-01 -3.712345659732818604e-02 -8.009578287601470947e-02
4.156015440821647644e-02 -2.995479702949523926e-01 -8.105841279029846191e-01
-2.448770552873611450e-01 -1.007882133126258850e-02 -2.499398589134216309e-01
1.859121769666671753e-01 1.949874162673950195e-01 2.537245750427246094e-01
-7.107996381819248199e-03 -2.995479702949523926e-01 2.301830351352691650e-01
1.013367846608161926e-01 1.374839395284652710e-01 -4.396571516990661621e-01
-3.787211701273918152e-02 1.075973212718963623e-01 -8.106434941291809082e-01
2.016543895006179810e-01 1.097479742020368576e-02 4.530773162841796875e-01
-1.278386563062667847e-01 -2.995479702949523926e-01 -7.332707643508911133e-01
-2.034747749567031860e-01 1.318692713975906372e-01 1.094297226518392563e-02
-2.448770552873611450e-01 4.876508936285972595e-02 -3.258129581809043884e-02
-2.034747749567031860e-01 5.598425865173339844e-02 6.655348539352416992e-01
9.373420476913452148e-02 1.949874162673950195e-01 -2.663703560829162598e-01
-1.555205881595611572e-01 2.179899513721466064e-01 3.662721514701843262e-01
1.770885288715362549e-01 2.179899513721466064e-01 -6.332487463951110840e-01
-1.496617794036865234e-01 1.949874162673950195e-01 -8.349508047103881836e-01
2.292338758707046509e-01 4.302785173058509827e-02 -2.758564651012420654e-01
-2.022876888513565063e-01 1.374839395284652710e-01 -2.650875449180603027e-01
1.017688214778900146e-01 -2.995479702949523926e-01 3.695040643215179443e-01
2.565587162971496582e-01 -9.520761668682098389e-02 -2.680312991142272949e-01
-2.448770552873611450e-01 -1.149965450167655945e-01 1.285786181688308716e-01
-2.448770552873611450e-01 6.853666156530380249e-02 -1.784269362688064575e-01
1.701412498950958252e-01 1.097479742020368576e-02 6.675069332122802734e-01
-5.126151815056800842e-02 -2.995479702949523926e-01 7.133764773607254028e-02
-1.189240813255310059e-01 1.097479742020368576e-02 -3.574767708778381348e-01
-2.083906233310699463e-01 -1.509327888488769531e-01 8.569638729095458984e-01
-1.511762384325265884e-02 1.374839395284652710e-01 5.515694618225097656e-01
-5.002015829086303711e-02 1.097479742020368576e-02 -6.257203817367553711e-01
8.847898989915847778e-02 -2.995479702949523926e-01 5.694388151168823242e-01
3.631613403558731079e-02 -2.995479702949523926e-01 4.277590215206146240e-01
1.094490364193916321e-01 1.374839395284652710e-01 -5.685940980911254883e-01
5.413680803030729294e-03 1.949874162673950195e-01 -4.494314193725585938e-01
-2.034747749567031860e-01 2.363155595958232880e-02 4.525594115257263184e-01
-2.034747749567031860e-01 7.874076813459396362e-02 -7.067902684211730957e-01
2.171409875154495239e-01 -3.335348069667816162e-01 8.569638729095458984e-01
-1.491649299860000610e-01 1.097479742020368576e-02 -4.823824763298034668e-01
1.612199693918228149e-01 -2.995479702949523926e-01 -5.746701955795288086e-01
-2.487292885780334473e-02 2.179899513721466064e-01 -2.295249700546264648e-01
2.216327488422393799e-01 1.374839395284652710e-01 -3.119436800479888916e-01
-1.813931763172149658e-01 2.179899513721466064e-01 -1.247795596718788147e-01
-1.855278462171554565e-01 1.949874162673950195e-01 4.049336016178131104e-01
-1.931950449943542480e-01 -2.575339674949645996e-01 -8.681564927101135254e-01
2.016438543796539307e-01 1.097479742020368576e-02 -4.354076087474822998e-01
1.092036999762058258e-02 2.179899513721466064e-01 -6.917814016342163086e-01
1.696798205375671387e-01 1.374839395284652710e-01 2.244304865598678589e-01
9.940722957253456116e-03 1.097479742020368576e-02 -4.520209729671478271e-01
1.053685471415519714e-01 1.949874162673950195e-01 -3.925526887178421021e-02
-1.176183000206947327e-01 -6.433256715536117554e-02 8.569638729095458984e-01
-1.988738775253295898e-01 -8.371268957853317261e-02 -8.598909974098205566e-01
-6.096872966736555099e-03 5.621305853128433228e-02 7.994747161865234375e-01
2.565587162971496582e-01 -8.983103185892105103e-02 2.808541059494018555e-01
6.469096988439559937e-02 1.374839395284652710e-01 3.498894870281219482e-01
-2.448770552873611450e-01 1.636355929076671600e-02 -6.941086053848266602e-01
-1.532258838415145874e-01 -2.995479702949523926e-01 -8.176386356353759766e-01
-2.448770552873611450e-01 -2.478085160255432129e-01 3.929220736026763916e-01
1.666920185089111328e-01 1.097479742020368576e-02 -5.884872674942016602e-01
-4.472776781767606735e-03 -2.995479702949523926e-01 1.478705704212188721e-01
-2.448770552873611450e-01 -1.908973455429077148e-01 5.811899900436401367e-01
-6.988908350467681885e-02 1.374839395284652710e-01 6.104218363761901855e-01
-4.650352522730827332e-02 1.097479742020368576e-02 1.520291864871978760e-01
2.565587162971496582e-01 -1.775067001581192017e-01 1.595058590173721313e-01
-5.068348348140716553e-02 -5.808441340923309326e-02 -8.681564927101135254e-01
1.067240163683891296e-01 -2.995479702949523926e-01 -7.344846129417419434e-01
-2.080593854188919067e-01 2.179899513721466064e-01 4.843195080757141113e-01
2.565587162971496582e-01 -1.471525132656097412e-01 3.037867844104766846e-01
7.262295484542846680e-02 4.038085415959358215e-02 -8.681564927101135254e-01
1.898295432329177856e-01 -2.995479702949523926e-01 5.529700517654418945e-01
-2.448770552873611450e-01 -1.988511681556701660e-01 -2.440580576658248901e-01
-1.702470779418945312e-01 -2.007839083671569824e-01 -8.681564927101135254e-01
1.453621429391205311e-03 2.179899513721466064e-01 -8.383368849754333496e-01
-6.690952181816101074e-02 2.179899513721466064e-01 4.059043228626251221e-01
2.565587162971496582e-01 -2.086473554372787476e-01 6.419678777456283569e-02
-2.448770552873611450e-01 -7.711233943700790405e-02 3.481098115444183350e-01
-2.448770552873611450e-01 -2.328967675566673279e-02 -1.774581372737884521e-01
-1.273408532142639160e-01 1.949874162673950195e-01 6.291786432266235352e-01
-3.450952097773551941e-02 -2.995479702949523926e-01 -4.083670973777770996e-01
1.552874445915222168e-01 2.179899513721466064e-01 6.384062767028808594e-01
7.136915624141693115e-02 1.374839395284652710e-01 -3.514514267444610596e-01
-1.413311511278152466e-01 1.374839395284652710e-01 -5.502585172653198242e-01
-2.114684134721755981e-01 2.179899513721466064e-01 8.091226220130920410e-01
-1.480984687805175781e-01 1.374839395284652710e-01 -1.361314803361892700e-01
2.270588427782058716e-01 1.097479742020368576e-02 -3.609643280506134033e-01
2.565587162971496582e-01 1.753527373075485229e-01 -2.841679453849792480e-01
-1.234273165464401245e-01 2.179899513721466064e-01 -2.453475743532180786e-01
-3.443188220262527466e-02 1.949874162673950195e-01 7.096387147903442383e-01
-1.530267596244812012e-01 1.949874162673950195e-01 5.311450362205505371e-01
2.565587162971496582e-01 -5.260125547647476196e-02 -3.704475462436676025e-01
-2.034747749567031860e-01 4.593333229422569275e-02 -7.667234539985656738e-01
-1.534584909677505493e-02 -2.995479702949523926e-01 -8.507322669029235840e-01
2.565587162971496582e-01 -1.171346232295036316e-01 -3.222584351897239685e-02
2.564256489276885986e-01 1.374839395284652710e-01 6.726152300834655762e-01
-2.447401583194732666e-01 1.464617252349853516e-01 7.994747161865234375e-01
-2.034747749567031860e-01 1.461836136877536774e-02 -3.006491959095001221e-01
2.047666460275650024e-01 1.374839395284652710e-01 -3.793181180953979492e-01
-1.321111917495727539e-01 -2.995479702949523926e-01 8.839713037014007568e-02
-1.747790426015853882e-01 1.374839395284652710e-01 -7.523415684700012207e-01
-2.448770552873611450e-01 -2.000812292098999023e-01 -7.333281636238098145e-01
2.399941831827163696e-01 2.179899513721466064e-01 2.966901659965515137e-01
-2.034747749567031860e-01 1.006318479776382446e-01 -6.064562201499938965e-01
-7.258653640747070312e-02 2.179899513721466064e-01 7.081548571586608887e-01
5.359063297510147095e-02 2.179899513721466064e-01 -1.310681998729705811e-01
1.685568839311599731e-01 -2.995479702949523926e-01 1.980294734239578247e-01
1.742050945758819580e-01 -2.995479702949523926e-01 -1.253386437892913818e-01
1.365469098091125488e-01 1.725478023290634155e-01 8.569638729095458984e-01
-2.448770552873611450e-01 1.141138076782226562e-01 4.021535515785217285e-01
-2.034747749567031860e-01 1.523391902446746826e-02 -7.737430185079574585e-02
-2.448770552873611450e-01 -2.288798242807388306e-02 5.795016884803771973e-02
-1.212599501013755798e-01 1.374839395284652710e-01 1.311078667640686035e-01
2.565587162971496582e-01 -1.772991567850112915e-01 6.819155812263488770e-01
1.333197653293609619e-01 -2.995479702949523926e-01 -1.951255053281784058e-01
1.595121175050735474e-01 1.374839395284652710e-01 6.300966739654541016e-01
-1.750585883855819702e-01 1.097479742020368576e-02 5.917636156082153320e-01
2.433079667389392853e-02 7.446727901697158813e-02 -8.681564927101135254e-01
2.125956118106842041e-01 -2.995479702949523926e-01 -3.714900612831115723e-01
-2.253687232732772827e-01 -2.995479702949523926e-01 -1.020201742649078369e-01
-2.034747749567031860e-01 8.154474943876266479e-02 -4.547608196735382080e-01
9.447039663791656494e-02 2.179899513721466064e-01 -6.785722374916076660e-01
-1.340698748826980591e-01 -2.995479702949523926e-01 -6.673887968063354492e-01
-2.448770552873611450e-01 1.227651238441467285e-01 -4.731883406639099121e-01
1.346102505922317505e-01 1.868793368339538574e-02 2.646868526935577393e-01
1.215561926364898682e-01 1.374839395284652710e-01 -3.490245938301086426e-01
2.565587162971496582e-01 -2.259662598371505737e-01 -2.347821556031703949e-02
-9.216310083866119385e-02 -1.356932669878005981e-01 8.569638729095458984e-01
2.565587162971496582e-01 -2.556346356868743896e-01 -3.603545129299163818e-01
2.059451043605804443e-01 1.097479742020368576e-02 1.871667206287384033e-01
-1.598026603460311890e-02 2.179899513721466064e-01 3.881555795669555664e-01
2.795497477054595947e-01 1.985438764095306396e-01 -8.075628280639648438e-01
2.393020391464233398e-01 -3.835156559944152832e-01 -8.106434941291809082e-01
-4.481998085975646973e-02 1.097479742020368576e-02 -2.576261758804321289e-01
-5.007874593138694763e-02 1.374839395284652710e-01 1.856675595045089722e-01
-1.553808152675628662e-01 1.374839395284652710e-01 2.980524301528930664e-01
-2.448770552873611450e-01 3.185015916824340820e-02 -6.521807909011840820e-01
1.173276975750923157e-01 1.949874162673950195e-01 -7.246673107147216797e-01
-2.448770552873611450e-01 1.888825893402099609e-01 2.135869115591049194e-01
1.616565138101577759e-01 2.179899513721466064e-01 4.045793712139129639e-01
1.385151594877243042e-01 1.374839395284652710e-01 -8.081123232841491699e-01
2.191137522459030151e-02 -2.995479702949523926e-01 -4.753825068473815918e-01
3.452163189649581909e-02 2.179899513721466064e-01 -6.004710197448730469e-01
4.209702089428901672e-02 1.374839395284652710e-01 7.067652046680450439e-02
2.565587162971496582e-01 -2.638781368732452393e-01 -5.439656227827072144e-02
-2.039831131696701050e-01 -2.995479702949523926e-01 -2.590219378471374512e-01
1.859255731105804443e-01 1.949874162673950195e-01 -3.277203440666198730e-01
