5.026813745498657227e-01 1.343691069632768631e-02 -1.452602744102478027e-01
-4.380556941032409668e-01 -1.619541645050048828e-02 5.546769499778747559e-01
-4.202904179692268372e-02 -5.539640039205551147e-02 7.818248867988586426e-01
-4.853792190551757812e-01 1.343691069632768631e-02 -2.942153811454772949e-01
4.225340485572814941e-01 5.445444583892822266e-02 -1.563840359449386597e-01
1.665728390216827393e-01 -5.539640039205551147e-02 -5.638842470943927765e-03
3.157198727130889893e-01 1.343691069632768631e-02 -4.313067793846130371e-01
-2.138976603746414185e-01 1.343691069632768631e-02 -2.580865323543548584e-01
6.476861238479614258e-02 1.343691069632768631e-02 -4.069745540618896484e-01
7.344979792833328247e-02 -5.539640039205551147e-02 -5.327646061778068542e-02
-4.381908476352691650e-01 -3.520748764276504517e-02 7.488630414009094238e-01
-1.761275082826614380e-01 -4.057021811604499817e-03 8.908833265304565430e-01
-4.382886365056037903e-02 -5.539640039205551147e-02 8.725238591432571411e-02
2.212792262434959412e-02 1.169150471687316895e-01 -2.086471468210220337e-01
8.440921455621719360e-02 -1.547214016318321228e-02 8.908833265304565430e-01
-1.856721341609954834e-01 -5.539640039205551147e-02 3.655460476875305176e-01
-4.132158756256103516e-01 1.481548547744750977e-01 -1.087405756115913391e-01
2.275542914867401123e-01 1.245288923382759094e-02 -3.260026574134826660e-01
-1.227792352437973022e-01 -5.539640039205551147e-02 2.452848292887210846e-02
-9.342285990715026855e-02 1.065186187624931335e-01 -4.692422151565551758e-01
-2.728909999132156372e-02 1.343691069632768631e-02 -3.521522283554077148e-01
1.261570900678634644e-01 4.010238870978355408e-02 -6.274240016937255859e-01
-3.899107221513986588e-03 -2.564110793173313141e-02 -1.543508470058441162e-01
1.331345289945602417e-01 1.078361570835113525e-01 -6.438324451446533203e-01
3.946307301521301270e-02 -5.539640039205551147e-02 1.115464866161346436e-01
-1.862924993038177490e-01 1.343691069632768631e-02 -5.607885122299194336e-01
-1.775121539831161499e-01 1.343691069632768631e-02 -3.478048145771026611e-01
-1.766389757394790649e-01 1.080841124057769775e-01 7.470454089343547821e-03
-2.252693772315979004e-01 1.343691069632768631e-02 -1.161781251430511475e-01
4.158403575420379639e-01 4.241717979311943054e-02 -7.405721545219421387e-01
-2.777774930000305176e-01 -5.539640039205551147e-02 -2.809926494956016541e-02
7.068789005279541016e-01 1.343691069632768631e-02 -4.643289148807525635e-01
-1.544148325920104980e-01 -5.539640039205551147e-02 1.243384107947349548e-01
-2.283303439617156982e-01 1.183813512325286865e-01 -5.788664817810058594e-01
-3.501440882682800293e-01 4.270032979547977448e-03 -6.294653564691543579e-02
-3.459133505821228027e-01 -4.837658256292343140e-02 -6.294653564691543579e-02
7.059302181005477905e-02 -5.539640039205551147e-02 -3.526646196842193604e-01
5.003856420516967773e-01 1.343691069632768631e-02 -3.409244120121002197e-01
-3.519234657287597656e-01 -5.539640039205551147e-02 1.620477735996246338e-01
-1.774835400283336639e-02 -2.305106632411479950e-02 -2.677799165248870850e-01
-8.402993530035018921e-02 -5.539640039205551147e-02 6.819863915443420410e-01
-1.211767867207527161e-01 5.494412407279014587e-02 -2.294773794710636139e-02
-3.499242961406707764e-01 6.923288851976394653e-02 -5.121775269508361816e-01
-2.310072183609008789e-01 1.343691069632768631e-02 -3.071622550487518311e-01
-8.682058751583099365e-02 -2.334360964596271515e-02 8.908833265304565430e-01
1.526819616556167603e-01 -5.539640039205551147e-02 -2.992473244667053223e-01
-1.441982686519622803e-01 1.343691069632768631e-02 -4.767740666866302490e-01
-1.949805021286010742e-01 -5.539640039205551147e-02 1.450641918927431107e-02
2.251345813274383545e-01 -5.539640039205551147e-02 -7.630182802677154541e-02
4.954445734620094299e-02 1.343691069632768631e-02 -4.567970931529998779e-01
1.529887616634368896e-01 -5.539640039205551147e-02 5.406477451324462891e-01
-2.012949585914611816e-01 -5.539640039205551147e-02 8.248758912086486816e-01
-1.961521804332733154e-01 -5.539640039205551147e-02 2.279909700155258179e-01
4.520975351333618164e-01 1.343691069632768631e-02 -5.401940345764160156e-01
-3.794741928577423096e-01 1.343691069632768631e-02 -4.554387032985687256e-01
-5.279690772294998169e-02 -5.539640039205551147e-02 1.306998431682586670e-01
-4.982464015483856201e-01 1.467731595039367676e-01 -2.502931058406829834e-01
-4.408813118934631348e-01 1.213236898183822632e-01 -1.547961831092834473e-01
-4.377726912498474121e-01 -5.117841809988021851e-02 1.461977213621139526e-01
1.103862747550010681e-01 -5.539640039205551147e-02 7.452260702848434448e-02
-4.153501987457275391e-01 -5.539640039205551147e-02 6.702257394790649414e-01
-4.759230911731719971e-01 1.137529462575912476e-01 -2.131316363811492920e-01
-5.564943552017211914e-01 1.307448446750640869e-01 -3.472612500190734863e-01
7.640748023986816406e-01 1.343691069632768631e-02 -4.926147162914276123e-01
-3.286705911159515381e-01 3.574322536587715149e-02 3.200492262840270996e-02
5.335219576954841614e-02 9.480465948581695557e-02 -1.517167389392852783e-01
-5.022208765149116516e-02 4.332788661122322083e-02 -4.925670921802520752e-01
-3.276058733463287354e-01 -5.539640039205551147e-02 6.413682103157043457e-01
1.624971181154251099e-01 -5.539640039205551147e-02 -9.004704654216766357e-02
4.266169667243957520e-01 2.045780047774314880e-02 -3.835135698318481445e-01
-1.089999899268150330e-01 6.915334612131118774e-02 -4.477347135543823242e-01
-1.821998804807662964e-01 -5.539640039205551147e-02 4.279927015304565430e-01
2.441844940185546875e-01 -5.539640039205551147e-02 -1.647015661001205444e-01
-9.019173681735992432e-02 1.343691069632768631e-02 -2.973317801952362061e-01
-3.251088559627532959e-01 -5.539640039205551147e-02 4.273868501186370850e-01
1.514797508716583252e-01 -5.539640039205551147e-02 6.249013543128967285e-01
-2.614623401314020157e-03 3.923894092440605164e-02 -2.537605464458465576e-01
9.368450939655303955e-02 -5.539640039205551147e-02 3.088179230690002441e-01
4.708085656166076660e-01 7.741505652666091919e-02 -9.352028369903564453e-02
-1.241065040230751038e-01 -5.539640039205551147e-02 7.389518022537231445e-01
3.719385266304016113e-01 2.742482163012027740e-02 -3.603870868682861328e-01
-2.338912487030029297e-01 1.343691069632768631e-02 -3.433319330215454102e-01
2.691048681735992432e-01 -5.539640039205551147e-02 2.252440601587295532e-01
2.112819850444793701e-01 -5.539640039205551147e-02 3.205328285694122314e-01
5.135205760598182678e-02 -5.539640039205551147e-02 -3.035026602447032928e-02
-4.221732318401336670e-01 6.513440608978271484e-02 -4.725521504878997803e-01
1.698116511106491089e-01 -5.539640039205551147e-02 4.391601681709289551e-01
1.734917312860488892e-01 1.073062270879745483e-01 -7.019540667533874512e-01
-3.787488043308258057e-01 1.343691069632768631e-02 -3.350746929645538330e-01
2.882489860057830811e-01 -1.142381783574819565e-02 6.964812874794006348e-01
-2.889119386672973633e-01 -5.539640039205551147e-02 8.590975403785705566e-02
-3.872598409652709961e-01 1.343691069632768631e-02 -1.714613735675811768e-01
5.032590031623840332e-01 1.343691069632768631e-02 -6.382628083229064941e-01
3.304908871650695801e-01 1.343691069632768631e-02 -5.110573768615722656e-01
4.934702813625335693e-01 1.174430325627326965e-01 -6.692197322845458984e-01
4.678477346897125244e-01 1.343691069632768631e-02 -4.310238361358642578e-01
-1.258586943149566650e-01 1.309529244899749756e-01 -4.784727990627288818e-01
2.882489860057830811e-01 -4.920288547873497009e-02 2.462766133248806000e-02
-5.778676867485046387e-01 5.799488723278045654e-02 -3.828406929969787598e-01
-1.103418320417404175e-01 -5.539640039205551147e-02 2.472544014453887939e-01
-4.010906219482421875e-01 -5.539640039205551147e-02 1.964777112007141113e-01
7.132721543312072754e-01 1.343691069632768631e-02 -3.605844974517822266e-01
7.463701367378234863e-01 1.343691069632768631e-02 -3.129429519176483154e-01
3.405678272247314453e-02 1.491165310144424438e-01 -1.459837257862091064e-01
7.972185015678405762e-01 1.343691069632768631e-02 -5.176810622215270996e-01
-4.116435647010803223e-01 -5.539640039205551147e-02 -2.813622727990150452e-02
-4.378884136676788330e-01 -3.874064236879348755e-02 3.124720156192779541e-01
-3.620135784149169922e-01 -5.539640039205551147e-02 3.441367447376251221e-01
-4.382209777832031250e-01 -2.459505014121532440e-02 7.922689914703369141e-01
-4.379515945911407471e-01 6.893835496157407761e-03 4.035437405109405518e-01
1.465499997138977051e-01 -5.539640039205551147e-02 3.149213492870330811e-01
5.525496006011962891e-01 1.343691069632768631e-02 -5.167417526245117188e-01
5.629440546035766602e-01 1.343691069632768631e-02 -3.764027059078216553e-01
2.745521962642669678e-01 -5.539640039205551147e-02 4.065327644348144531e-01
-1.677983254194259644e-01 1.343691069632768631e-02 -4.046081751585006714e-02
6.294716000556945801e-01 1.343691069632768631e-02 -3.830283582210540771e-01
3.178146854043006897e-02 -5.539640039205551147e-02 7.635689377784729004e-01
-2.155010998249053955e-01 -5.539640039205551147e-02 1.514670103788375854e-01
-8.257819712162017822e-02 -5.539640039205551147e-02 4.319579303264617920e-01
1.140151992440223694e-01 -5.539640039205551147e-02 5.007539987564086914e-01
8.804679661989212036e-02 -5.539640039205551147e-02 -2.692141830921173096e-01
3.129496276378631592e-01 1.343691069632768631e-02 -3.627586364746093750e-01
2.882489860057830811e-01 -2.408632263541221619e-02 8.643622994422912598e-01
-2.869487702846527100e-01 1.343691069632768631e-02 -9.673005342483520508e-02
3.240960463881492615e-02 7.678001374006271362e-02 -1.899020820856094360e-01
4.698229953646659851e-02 -3.033326752483844757e-02 -3.691975772380828857e-01
8.978731930255889893e-02 -5.539640039205551147e-02 -9.392090886831283569e-02
3.970252871513366699e-01 1.343691069632768631e-02 -6.321428418159484863e-01
2.104851603507995605e-01 1.343691069632768631e-02 -6.109055876731872559e-01
1.172405928373336792e-01 -5.539640039205551147e-02 7.479859590530395508e-01
4.504882991313934326e-01 1.343691069632768631e-02 -5.896694064140319824e-01
2.680231034755706787e-01 1.019679903984069824e-01 -3.607137799263000488e-01
-2.782490849494934082e-01 -5.539640039205551147e-02 8.160294294357299805e-01
1.587352603673934937e-01 9.042906016111373901e-02 -4.295322000980377197e-01
-2.778300046920776367e-01 -5.539640039205551147e-02 3.898996710777282715e-01
4.035955071449279785e-01 1.343691069632768631e-02 -7.055673003196716309e-01
-2.030150592327117920e-01 -5.539640039205551147e-02 5.403852462768554688e-01
-4.373137652873992920e-01 -5.539640039205551147e-02 6.921065971255302429e-03
-4.453220963478088379e-01 1.831716299057006836e-02 -1.621889919042587280e-01
2.685561776161193848e-01 -5.539640039205551147e-02 4.803938865661621094e-01
2.882489860057830811e-01 1.707487623207271099e-03 5.323817729949951172e-01
2.882489860057830811e-01 -1.364518329501152039e-02 7.877066731452941895e-01
-3.946981206536293030e-02 1.010189801454544067e-01 -3.225235641002655029e-01
1.945177937159314752e-04 -5.539640039205551147e-02 -3.100073635578155518e-01
-3.298461139202117920e-01 -5.539640039205551147e-02 7.032828927040100098e-01
4.338406026363372803e-01 1.343691069632768631e-02 -6.260277032852172852e-01
3.802113234996795654e-01 9.747280180454254150e-02 -3.627887666225433350e-01
-1.493955254554748535e-01 7.789248973131179810e-02 -5.213886499404907227e-01
-3.589614033699035645e-01 -5.539640039205551147e-02 8.105239868164062500e-01
1.947602480649948120e-01 -5.539640039205551147e-02 -2.275915294885635376e-01
2.075627893209457397e-01 -4.540827125310897827e-02 -3.562642633914947510e-01
-1.228048349730670452e-03 -5.539640039205551147e-02 -2.012319564819335938e-01
-7.313855737447738647e-02 -3.355604410171508789e-02 -1.129032075405120850e-01
8.769966661930084229e-02 1.155537366867065430e-01 -3.911815583705902100e-01
5.255920290946960449e-01 9.632250666618347168e-02 -5.594300627708435059e-01
-2.651544213294982910e-01 1.343691069632768631e-02 -2.947404384613037109e-01
-3.702581822872161865e-01 1.043658256530761719e-01 -5.010256171226501465e-01
-3.804076611995697021e-01 4.206858947873115540e-02 -4.954588413238525391e-01
-2.962920963764190674e-01 -5.539640039205551147e-02 3.139431774616241455e-01
-5.139334201812744141e-01 6.970680505037307739e-02 -2.764076888561248779e-01
-3.015010356903076172e-01 -5.539640039205551147e-02 5.332899689674377441e-01
1.608761101961135864e-01 -5.539640039205551147e-02 2.461518347263336182e-01
-3.070657141506671906e-03 1.462237685918807983e-01 -2.545918822288513184e-01
4.537018835544586182e-01 7.254268229007720947e-02 -7.153570055961608887e-01
-4.381684660911560059e-01 -1.508440449833869934e-02 7.173383235931396484e-01
4.202062487602233887e-01 5.055024847388267517e-02 -2.029219269752502441e-01
9.206068515777587891e-02 1.343691069632768631e-02 -5.521540045738220215e-01
7.549563795328140259e-02 -5.539640039205551147e-02 4.212270379066467285e-01
-4.320460930466651917e-02 -5.539640039205551147e-02 2.226528376340866089e-01
4.621983766555786133e-01 9.185842424631118774e-02 -1.381834745407104492e-01
-1.026942804455757141e-01 -5.539640039205551147e-02 1.972517222166061401e-01
2.582457959651947021e-01 4.129566252231597900e-02 -7.544359564781188965e-01
-7.836693525314331055e-02 1.352147758007049561e-01 -4.642718657851219177e-02
-3.899107221513986588e-03 3.081581182777881622e-02 -1.695166528224945068e-01
1.952100545167922974e-01 -5.539640039205551147e-02 6.334182620048522949e-01
7.072138041257858276e-02 -5.539640039205551147e-02 5.296903252601623535e-01
5.157570168375968933e-02 4.972850903868675232e-03 -3.716780841350555420e-01
1.237806603312492371e-01 -4.543004557490348816e-03 -4.106607437133789062e-01
8.070454001426696777e-02 -5.539640039205551147e-02 8.724143505096435547e-01
2.543354630470275879e-01 1.343691069632768631e-02 -7.011032700538635254e-01
2.105462849140167236e-01 -5.539640039205551147e-02 1.636426895856857300e-01
-7.652625441551208496e-02 -5.539640039205551147e-02 6.282238960266113281e-01
-4.742408990859985352e-01 1.487898081541061401e-01 -4.439950585365295410e-01
1.911744028329849243e-01 1.343691069632768631e-02 -4.277440607547760010e-01
2.882489860057830811e-01 -2.765279449522495270e-02 4.818193316459655762e-01
6.837314367294311523e-02 -5.539640039205551147e-02 6.744098067283630371e-01
-3.789335787296295166e-01 -5.539640039205551147e-02 5.845350623130798340e-01
-1.727310568094253540e-01 1.288947463035583496e-02 -1.155635789036750793e-01
-2.462547421455383301e-01 -5.539640039205551147e-02 7.300828583538532257e-04
7.553745061159133911e-02 -5.539640039205551147e-02 5.875824093818664551e-01
2.310093492269515991e-01 -4.977647680789232254e-03 8.908833265304565430e-01
-4.471257627010345459e-01 5.402845516800880432e-02 -1.651906669139862061e-01
-5.469244718551635742e-01 1.399355530738830566e-01 -4.041313827037811279e-01
-1.158750802278518677e-02 -5.539640039205551147e-02 4.151867628097534180e-01
2.221141606569290161e-01 -5.539640039205551147e-02 7.948573827743530273e-01
2.882489860057830811e-01 -3.824833407998085022e-02 -1.898379027843475342e-01
1.412048786878585815e-01 -5.539640039205551147e-02 7.087261676788330078e-01
6.970234960317611694e-02 -5.539640039205551147e-02 -2.015295177698135376e-01
5.023469328880310059e-01 8.236531913280487061e-02 -6.545556187629699707e-01
1.307769566774368286e-01 -5.539640039205551147e-02 3.965146243572235107e-01
-1.737306416034698486e-01 -5.539640039205551147e-02 -9.775239974260330200e-03
6.008866801857948303e-02 -5.539640039205551147e-02 2.050909399986267090e-01
-2.986374497413635254e-01 9.378660470247268677e-02 -5.403058528900146484e-01
-8.314605802297592163e-02 -5.539640039205551147e-02 7.816625237464904785e-01
1.818124651908874512e-01 1.343691069632768631e-02 -5.292248725891113281e-01
-3.719546645879745483e-02 -5.539640039205551147e-02 -1.567743904888629913e-02
-2.703613936901092529e-01 -5.539640039205551147e-02 1.756739914417266846e-01
1.876013875007629395e-01 -5.539640039205551147e-02 5.341913700103759766e-01
3.841347694396972656e-01 1.343691069632768631e-02 -4.131392538547515869e-01
1.826030910015106201e-01 -4.332072287797927856e-02 8.908833265304565430e-01
-9.340341389179229736e-02 -5.539640039205551147e-02 5.890185832977294922e-01
-8.837052434682846069e-02 -5.539640039205551147e-02 -5.768706649541854858e-02
-1.156372949481010437e-01 -5.539640039205551147e-02 7.599970698356628418e-02
2.882489860057830811e-01 1.008967589586973190e-02 2.174123376607894897e-01
-3.899107221513986588e-03 -1.935754716396331787e-02 -2.254416495561599731e-01
-3.511776924133300781e-01 -5.539640039205551147e-02 1.900161243975162506e-02
3.336724638938903809e-01 1.109564527869224548e-01 -3.541484177112579346e-01
-2.301778048276901245e-01 1.199769899249076843e-01 3.683461248874664307e-02
1.292597800493240356e-01 -5.539640039205551147e-02 -2.536778450012207031e-01
6.512504816055297852e-01 1.343691069632768631e-02 -3.372975289821624756e-01
1.400085836648941040e-01 -5.539640039205551147e-02 -4.988780617713928223e-02
-2.332212924957275391e-01 -5.539640039205551147e-02 7.108585834503173828e-01
7.347193956375122070e-01 1.343691069632768631e-02 -2.347509860992431641e-01
-7.350125163793563843e-02 -5.539640039205551147e-02 9.938286617398262024e-03
4.860249757766723633e-01 1.413331273943185806e-02 -6.815190315246582031e-01
2.762156128883361816e-01 1.343691069632768631e-02 -5.403320789337158203e-01
-1.716857701539993286e-01 1.343691069632768631e-02 -5.086176991462707520e-01
2.810846865177154541e-01 -5.539640039205551147e-02 -4.365306720137596130e-02
1.507279127836227417e-01 -5.539640039205551147e-02 -2.253142893314361572e-01
2.268522530794143677e-01 1.377176046371459961e-01 -3.764533102512359619e-01
-1.323627829551696777e-01 1.357051171362400055e-02 -1.681217551231384277e-02
6.853649020195007324e-02 -5.539640039205551147e-02 -1.406629979610443115e-01
-3.827187046408653259e-02 1.279435008764266968e-01 -4.990186691284179688e-01
2.325922548770904541e-01 -5.539640039205551147e-02 5.356022119522094727e-01
-3.818049430847167969e-01 6.818118691444396973e-02 -5.644924938678741455e-02
5.252565741539001465e-01 5.248552188277244568e-02 -5.756402015686035156e-01
5.772299170494079590e-01 1.343691069632768631e-02 -4.961142241954803467e-01
1.719566881656646729e-01 -1.256918441504240036e-02 -4.101619124412536621e-01
-4.016847312450408936e-01 -5.539640039205551147e-02 3.766299784183502197e-01
-3.125411272048950195e-01 1.343691069632768631e-02 -1.788522303104400635e-01
5.204794406890869141e-01 1.193206459283828735e-01 -6.056354641914367676e-01
2.921611666679382324e-01 1.343691069632768631e-02 -6.447601318359375000e-01
-3.899107221513986588e-03 2.737192623317241669e-02 -2.109166234731674194e-01
1.320299208164215088e-01 -5.539640039205551147e-02 2.038028538227081299e-01
-1.984401494264602661e-01 -4.133342206478118896e-02 8.908833265304565430e-01
5.230463743209838867e-01 1.237613856792449951e-01 -5.239255428314208984e-01
-2.297023236751556396e-01 1.343691069632768631e-02 -2.177571505308151245e-01
6.897430419921875000e-01 1.343691069632768631e-02 -5.017179250717163086e-01
1.576336771249771118e-01 -1.918796822428703308e-02 8.908833265304565430e-01
-4.257728755474090576e-01 1.343691069632768631e-02 -2.506879270076751709e-01
-2.225311994552612305e-01 -5.539640039205551147e-02 2.569366395473480225e-01
6.468748450279235840e-01 1.343691069632768631e-02 -5.013707876205444336e-01
-2.105751335620880127e-01 1.343691069632768631e-02 -4.880971610546112061e-01
-5.289699435234069824e-01 1.003315225243568420e-01 -3.014399409294128418e-01
-1.667287200689315796e-01 -5.539640039205551147e-02 3.230920732021331787e-01
2.010834403336048126e-02 -5.539640039205551147e-02 3.598937690258026123e-01
-3.706807643175125122e-02 -1.525618042796850204e-02 -3.147223293781280518e-01
-6.613923702389001846e-03 9.200816601514816284e-02 -2.610532045364379883e-01
2.674335837364196777e-01 -2.300748415291309357e-02 8.908833265304565430e-01
1.223886385560035706e-01 -5.539640039205551147e-02 5.390667319297790527e-01
-5.817552562803030014e-03 1.149083767086267471e-02 8.908833265304565430e-01
2.578348815441131592e-01 1.343691069632768631e-02 -4.485301077365875244e-01
2.702572047710418701e-01 -5.539640039205551147e-02 7.394068837165832520e-01
-4.382588863372802734e-01 -3.662654384970664978e-02 8.473159670829772949e-01
3.409664332866668701e-02 1.143431663513183594e-01 -3.622413575649261475e-01
-1.699355393648147583e-01 -5.539640039205551147e-02 5.620396137237548828e-01
5.105778574943542480e-01 4.725610092282295227e-02 -6.397505402565002441e-01
-1.274170447140932083e-02 -5.539640039205551147e-02 1.148029044270515442e-01
2.342212945222854614e-02 1.409827768802642822e-01 -1.022549644112586975e-01
5.169254541397094727e-01 3.551131859421730042e-02 -4.990303218364715576e-01
-4.004002213478088379e-01 -3.315222263336181641e-02 8.908833265304565430e-01
2.035516798496246338e-01 -5.539640039205551147e-02 6.836180090904235840e-01
-5.004059672355651855e-01 1.343691069632768631e-02 -3.243379592895507812e-01
1.421000212430953979e-01 6.671079248189926147e-02 -4.205515384674072266e-01
-1.435409635305404663e-01 1.343691069632768631e-02 -2.856081128120422363e-01
-1.907400637865066528e-01 -5.539640039205551147e-02 5.300195515155792236e-02
-1.931971907615661621e-01 1.343691069632768631e-02 -1.435713022947311401e-01
4.050160944461822510e-01 1.396898366510868073e-02 -7.465258240699768066e-01
2.464732974767684937e-01 -5.539640039205551147e-02 5.986001491546630859e-01
2.288662791252136230e-01 1.759314723312854767e-02 -3.753457665443420410e-01
1.284679491072893143e-02 1.491165310144424438e-01 -2.090234607458114624e-01
-1.076685264706611633e-02 -5.539640039205551147e-02 1.340376120060682297e-02
-3.066272735595703125e-01 -4.853847622871398926e-02 -6.294653564691543579e-02
-2.791728675365447998e-01 -5.539640039205551147e-02 2.443033903837203979e-01
6.632687449455261230e-01 1.343691069632768631e-02 -2.384177297353744507e-01
-7.951430976390838623e-02 -5.539640039205551147e-02 3.478083610534667969e-01
5.537844896316528320e-01 1.343691069632768631e-02 -4.568874835968017578e-01
-4.835129901766777039e-02 -5.539640039205551147e-02 7.360133528709411621e-01
1.987220644950866699e-01 -5.539640039205551147e-02 7.452445477247238159e-02
5.023508071899414062e-01 1.343691069632768631e-02 -5.558090806007385254e-01
-3.034326806664466858e-02 -5.539640039205551147e-02 2.804348766803741455e-01
-3.132597208023071289e-01 1.358088701963424683e-01 -5.322868227958679199e-01
1.427704691886901855e-01 3.563461452722549438e-02 -6.613504290580749512e-01
1.515801995992660522e-01 -5.539640039205551147e-02 3.169764950871467590e-02
-3.124157190322875977e-01 1.343691069632768631e-02 7.202084641903638840e-03
-3.288597986102104187e-02 -5.539640039205551147e-02 5.664336681365966797e-01
4.763169586658477783e-01 1.037240698933601379e-01 -4.251945316791534424e-01
-3.566788136959075928e-02 1.433378159999847412e-01 -3.140261471271514893e-01
-2.699393332004547119e-01 1.343691069632768631e-02 -4.394862353801727295e-01
-2.440192848443984985e-01 -2.647683769464492798e-02 -6.294653564691543579e-02
-2.508296966552734375e-01 -2.382245473563671112e-02 8.908833265304565430e-01
1.742282807826995850e-01 -5.539640039205551147e-02 -1.568070054054260254e-01
-1.125947907567024231e-01 -2.726789936423301697e-02 -7.587399333715438843e-02
-4.890748113393783569e-02 -5.539640039205551147e-02 6.971327662467956543e-01
-3.172356784343719482e-01 -5.539640039205551147e-02 1.342337578535079956e-01
7.331603672355413437e-03 -5.062213540077209473e-02 -6.294653564691543579e-02
-3.747952282428741455e-01 -5.539640039205551147e-02 9.195926785469055176e-02
4.749375209212303162e-02 6.017092242836952209e-02 -1.623980402946472168e-01
-2.365603595972061157e-01 -5.539640039205551147e-02 7.956251502037048340e-02
-2.013192772865295410e-01 1.343691069632768631e-02 -5.487015843391418457e-02
3.401205316185951233e-02 -5.539640039205551147e-02 -2.657808065414428711e-01
-3.527470231056213379e-01 -5.539640039205551147e-02 4.396463036537170410e-01
4.025813043117523193e-01 1.343691069632768631e-02 -4.796464145183563232e-01
-9.504726156592369080e-03 -5.539640039205551147e-02 6.813368797302246094e-01
-5.511425137519836426e-01 3.859777003526687622e-02 -3.383515179157257080e-01
1.743047498166561127e-02 -5.539640039205551147e-02 8.262858390808105469e-01
2.022523432970046997e-01 9.406372159719467163e-02 -7.271088361740112305e-01
-2.959391474723815918e-01 1.343691069632768631e-02 -2.858424186706542969e-01
4.919028580188751221e-01 3.440458327531814575e-02 -4.451190531253814697e-01
2.021860331296920776e-01 -5.539640039205551147e-02 8.615755438804626465e-01
2.882489860057830811e-01 -1.932650990784168243e-02 6.188338398933410645e-01
-1.442750990390777588e-01 1.343691069632768631e-02 -4.288583993911743164e-01
2.644006013870239258e-01 1.071827337145805359e-01 -7.562221884727478027e-01
2.201610989868640900e-02 1.343691069632768631e-02 -1.191214323043823242e-01
-2.986442148685455322e-01 -5.539640039205551147e-02 2.768779695034027100e-01
-2.952030897140502930e-01 2.050204202532768250e-02 -5.421902537345886230e-01
-2.188576608896255493e-01 -5.539640039205551147e-02 6.577970981597900391e-01
-3.322339057922363281e-02 -2.669433504343032837e-02 8.908833265304565430e-01
-1.040672510862350464e-01 1.343691069632768631e-02 -4.004967212677001953e-01
-4.740813970565795898e-01 5.523349717259407043e-02 -2.100648581981658936e-01
9.059728682041168213e-02 -5.539640039205551147e-02 2.702562510967254639e-01
-1.091658417135477066e-02 4.692978039383888245e-02 -8.342141658067703247e-02
3.217873573303222656e-01 4.490368068218231201e-02 -7.641108632087707520e-01
7.109744548797607422e-01 1.343691069632768631e-02 -1.792032420635223389e-01
-2.595448791980743408e-01 1.343691069632768631e-02 7.458790205419063568e-03
-2.178901582956314087e-01 5.837604776024818420e-02 -5.845927000045776367e-01
-3.364830464124679565e-02 1.343691069632768631e-02 -1.279854178428649902e-01
-4.086409509181976318e-01 1.343691069632768631e-02 -1.202610358595848083e-01
-9.021604806184768677e-02 -5.539640039205551147e-02 3.173882365226745605e-01
6.447055339813232422e-01 1.343691069632768631e-02 -3.050269484519958496e-01
2.546115405857563019e-02 -5.539640039205551147e-02 -1.855507940053939819e-01
-5.119347572326660156e-02 -2.673383057117462158e-02 -6.284832954406738281e-02
2.387673854827880859e-01 -3.962003439664840698e-02 -3.090292215347290039e-01
1.525569260120391846e-01 -5.539640039205551147e-02 4.690153896808624268e-01
-3.899107221513986588e-03 1.143762245774269104e-01 -1.457046568393707275e-01
-1.027166470885276794e-01 -5.539640039205551147e-02 8.792062401771545410e-01
5.177830457687377930e-01 9.352795779705047607e-02 -5.025181770324707031e-01
-4.378212988376617432e-01 -1.093918737024068832e-02 2.154381722211837769e-01
-3.997643291950225830e-01 1.440729200839996338e-01 -8.634722232818603516e-02
-1.760633438825607300e-01 1.343691069632768631e-02 -2.599321007728576660e-01
2.568123638629913330e-01 -5.539640039205551147e-02 3.258749544620513916e-01
-2.956610620021820068e-01 -5.539640039205551147e-02 5.286537110805511475e-03
-2.124592103064060211e-02 -5.539640039205551147e-02 4.855342954397201538e-02
-3.832459747791290283e-01 -5.539640039205551147e-02 -5.922726914286613464e-02
1.316753178834915161e-01 -5.539640039205551147e-02 6.543433070182800293e-01
-6.893798708915710449e-02 -5.539640039205551147e-02 -3.971891105175018311e-02
-4.380692541599273682e-01 -3.592722490429878235e-02 5.744332075119018555e-01
-3.906620740890502930e-01 -5.539640039205551147e-02 5.508098602294921875e-01
7.453734874725341797e-01 1.343691069632768631e-02 -3.781976997852325439e-01
-3.724702894687652588e-01 1.343691069632768631e-02 -1.394339352846145630e-01
3.391772881150245667e-02 3.163366392254829407e-02 -3.621441125869750977e-01
2.020169794559478760e-02 -5.539640039205551147e-02 1.924704462289810181e-01
-1.148458123207092285e-01 -5.539640039205551147e-02 5.115996599197387695e-01
-4.978798329830169678e-01 7.025249302387237549e-02 -4.310306012630462646e-01
-2.300718277692794800e-01 -5.539640039205551147e-02 8.457728028297424316e-01
2.809041179716587067e-02 -5.539640039205551147e-02 7.849034070968627930e-01
3.457792699337005615e-01 3.167255967855453491e-02 -7.639319300651550293e-01
8.546812087297439575e-02 1.343691069632768631e-02 -4.655803442001342773e-01
1.879323720932006836e-01 -5.539640039205551147e-02 7.851085662841796875e-01
2.498104274272918701e-01 1.343691069632768631e-02 -5.945797562599182129e-01
1.947655975818634033e-01 -5.539640039205551147e-02 -9.363503754138946533e-02
-3.444295227527618408e-01 -5.539640039205551147e-02 6.154287457466125488e-01
2.882489860057830811e-01 -2.098894305527210236e-02 4.527857601642608643e-01
-3.145072460174560547e-01 1.309694647789001465e-01 5.558258667588233948e-02
-3.896946012973785400e-01 -5.539640039205551147e-02 4.337635636329650879e-01
-1.147602349519729614e-01 -2.292639017105102539e-02 -1.057807132601737976e-01
4.533946812152862549e-01 1.343691069632768631e-02 -1.370487362146377563e-01
2.882489860057830811e-01 -2.066779509186744690e-02 3.318053483963012695e-01
-8.243136852979660034e-02 1.343691069632768631e-02 -2.078060656785964966e-01
2.882489860057830811e-01 -5.037224292755126953e-02 7.134051322937011719e-01
-3.266606926918029785e-01 -1.872423890745267272e-04 8.908833265304565430e-01
1.742298305034637451e-01 -4.911459609866142273e-02 -4.067207872867584229e-01
7.258369326591491699e-01 1.343691069632768631e-02 -5.112936496734619141e-01
1.206794194877147675e-02 -5.539640039205551147e-02 6.527340412139892578e-01
-4.307065682951360941e-04 1.343691069632768631e-02 -7.549769431352615356e-02
9.398302435874938965e-02 2.468054555356502533e-02 -3.945731222629547119e-01
-4.607903063297271729e-01 1.343691069632768631e-02 -4.165522456169128418e-01
2.329273223876953125e-01 -5.539640039205551147e-02 7.687262892723083496e-01
2.273837327957153320e-01 -5.539640039205551147e-02 1.080174278467893600e-02
2.053878754377365112e-01 1.110235378146171570e-01 -3.882605731487274170e-01
3.420862853527069092e-01 1.343691069632768631e-02 -6.975269317626953125e-01
-1.359556168317794800e-01 9.338890761137008667e-02 -1.484217774122953415e-02
6.518770009279251099e-02 -5.539640039205551147e-02 6.378755569458007812e-01
2.322961203753948212e-02 -5.539640039205551147e-02 3.093799352645874023e-01
1.030797977000474930e-02 1.014283448457717896e-01 -5.252469182014465332e-01
-4.377736747264862061e-01 -1.919052563607692719e-02 1.474783122539520264e-01
1.829295977950096130e-02 6.898152828216552734e-02 -2.156403362751007080e-01
3.736472874879837036e-02 1.343691069632768631e-02 -1.583812534809112549e-01
-4.025812149047851562e-01 1.218179613351821899e-02 8.908833265304565430e-01
-5.076753497123718262e-01 2.195444889366626740e-02 -4.256583452224731445e-01
-2.368167415261268616e-02 1.070806458592414856e-01 -7.641948014497756958e-02
2.310768514871597290e-01 -5.539640039205551147e-02 8.927060663700103760e-02
-1.614332944154739380e-01 1.461401432752609253e-01 -5.433366894721984863e-01
1.045301631093025208e-01 -5.539640039205551147e-02 -5.728451162576675415e-02
3.492058515548706055e-01 7.404020428657531738e-02 -7.630889415740966797e-01
-1.226596459746360779e-01 -5.539640039205551147e-02 5.423912405967712402e-01
1.072858199477195740e-01 1.343691069632768631e-02 -5.134056210517883301e-01
-2.891248762607574463e-01 -5.539640039205551147e-02 4.755301475524902344e-01
-1.738979071378707886e-01 -5.539640039205551147e-02 8.052411675453186035e-01
-3.139730170369148254e-02 -5.539640039205551147e-02 8.178263306617736816e-01
3.696272373199462891e-01 1.388844251632690430e-01 -7.580676674842834473e-01
2.466344088315963745e-01 -5.539640039205551147e-02 -1.060364469885826111e-01
2.165535837411880493e-02 1.343691069632768631e-02 -5.050842165946960449e-01
1.880262047052383423e-01 -5.539640039205551147e-02 -2.910192310810089111e-01
-4.381110966205596924e-01 3.895870642736554146e-03 6.338878870010375977e-01
-1.528172492980957031e-01 -5.539640039205551147e-02 6.734627485275268555e-01
-2.246315032243728638e-01 -5.539640039205551147e-02 7.556840777397155762e-01
-4.382190108299255371e-01 1.057264488190412521e-02 7.897136211395263672e-01
2.195372283458709717e-01 1.343691069632768631e-02 -6.950483918190002441e-01
-3.497113585472106934e-01 1.259482204914093018e-01 -3.022234188392758369e-03
-3.837175071239471436e-01 -5.539640039205551147e-02 2.907534837722778320e-01
-2.278217971324920654e-01 -5.539640039205551147e-02 4.372874200344085693e-01
-1.498379409313201904e-01 -2.585793472826480865e-02 8.908833265304565430e-01
4.303887486457824707e-01 1.343691069632768631e-02 -4.631329178810119629e-01
-2.346671670675277710e-01 -5.539640039205551147e-02 5.193765759468078613e-01
4.431897997856140137e-01 5.409428849816322327e-02 -3.935453891754150391e-01
-2.189714014530181885e-01 -5.040821805596351624e-02 -6.294653564691543579e-02
-2.582769095897674561e-01 1.343691069632768631e-02 -1.814056336879730225e-01
-4.184597730636596680e-01 -2.147041447460651398e-02 -6.294653564691543579e-02
5.348819494247436523e-01 1.343691069632768631e-02 -3.226062059402465820e-01
1.810882538557052612e-01 -5.539640039205551147e-02 1.964469999074935913e-01
-2.446726858615875244e-01 1.343691069632768631e-02 4.232257977128028870e-02
4.713346362113952637e-01 1.343691069632768631e-02 -5.069686174392700195e-01
4.717400968074798584e-01 4.885572567582130432e-02 -2.146796435117721558e-01
-3.506535887718200684e-01 -5.539640039205551147e-02 3.840023279190063477e-01
-2.610189616680145264e-01 -5.539640039205551147e-02 3.183965682983398438e-01
5.246054381132125854e-02 1.001876145601272583e-01 -5.480049252510070801e-01
-4.158465936779975891e-02 -5.539640039205551147e-02 4.082888662815093994e-01
2.270647883415222168e-02 -5.539640039205551147e-02 5.542092323303222656e-01
-2.260040305554866791e-02 1.073237285017967224e-01 -2.902014851570129395e-01
-4.112332463264465332e-01 1.139571443200111389e-01 -4.785525202751159668e-01
2.679359018802642822e-01 -5.539640039205551147e-02 2.751287221908569336e-01
-3.257389068603515625e-01 -5.539640039205551147e-02 3.400616049766540527e-01
6.014639735221862793e-01 1.343691069632768631e-02 -3.975125849246978760e-01
2.882489860057830811e-01 6.721631158143281937e-03 -2.768310531973838806e-02
-2.063862085342407227e-01 4.011726751923561096e-02 2.378560602664947510e-02
6.015187129378318787e-02 1.107259988784790039e-01 -1.223992407321929932e-01
2.138984799385070801e-01 -5.539640039205551147e-02 -2.646499574184417725e-01
-4.379924535751342773e-01 -2.842607907950878143e-02 4.630995392799377441e-01
2.976872324943542480e-01 4.207354411482810974e-02 -3.534211218357086182e-01
4.343417659401893616e-02 -5.539640039205551147e-02 7.169804573059082031e-01
-1.784844994544982910e-01 6.825703382492065430e-02 8.482670411467552185e-03
4.674893617630004883e-02 -5.539640039205551147e-02 3.785095214843750000e-01
9.192650020122528076e-02 -5.539640039205551147e-02 1.986084431409835815e-01
-6.839348375797271729e-02 -5.539640039205551147e-02 5.083276629447937012e-01
3.306931555271148682e-01 1.343691069632768631e-02 -5.826149582862854004e-01
-4.895467162132263184e-01 1.343691069632768631e-02 -3.589693903923034668e-01
2.818500101566314697e-01 -5.539640039205551147e-02 -1.309287548065185547e-01
-1.536194235086441040e-01 -5.539640039205551147e-02 3.991691470146179199e-01
-2.719686329364776611e-01 -5.539640039205551147e-02 7.759917378425598145e-01
4.683679342269897461e-01 3.179079294204711914e-02 -7.012860774993896484e-01
-1.441807746887207031e-01 1.343691069632768631e-02 -3.144150972366333008e-01
-5.451139211654663086e-01 1.343691069632768631e-02 -3.837624788284301758e-01
-4.425323903560638428e-01 8.619056642055511475e-02 -1.575440317392349243e-01
-3.929568827152252197e-01 -5.539640039205551147e-02 2.222847938537597656e-01
1.153593808412551880e-01 -5.539640039205551147e-02 -2.855030894279479980e-01
-4.102997779846191406e-01 -5.539640039205551147e-02 6.435803771018981934e-01
5.009578540921211243e-02 -2.180349454283714294e-02 8.908833265304565430e-01
1.947784423828125000e-01 1.439030468463897705e-02 -7.225844860076904297e-01
-4.378699362277984619e-01 9.615166112780570984e-03 2.866618037223815918e-01
-1.426026374101638794e-01 -5.539640039205551147e-02 1.658405810594558716e-01
-4.381597042083740234e-01 -5.286458134651184082e-02 7.037904858589172363e-01
-4.377036392688751221e-01 2.797205699607729912e-03 4.576569050550460815e-02
-3.866355717182159424e-01 -5.539640039205551147e-02 7.625781297683715820e-01
-4.966779649257659912e-01 2.287614531815052032e-02 -2.476823329925537109e-01
-3.458141684532165527e-01 -5.539640039205551147e-02 8.425854444503784180e-01
-6.234542280435562134e-02 -5.539640039205551147e-02 2.516119182109832764e-01
1.535455137491226196e-01 1.091643944382667542e-01 -6.809385418891906738e-01
-2.326310575008392334e-01 1.743494346737861633e-02 -5.765076279640197754e-01
8.841240406036376953e-02 -5.539640039205551147e-02 4.777568578720092773e-01
-4.376706182956695557e-01 5.655737128108739853e-03 -9.744580602273344994e-04
-5.318684577941894531e-01 4.283917695283889771e-02 -3.062658011913299561e-01
-1.555446982383728027e-01 1.115194484591484070e-01 -5.325999259948730469e-01
2.882489860057830811e-01 -3.147549182176589966e-02 -1.008625552058219910e-01
3.281757533550262451e-01 1.343691069632768631e-02 -6.367197036743164062e-01
-4.537154734134674072e-01 1.343691069632768631e-02 -2.776969969272613525e-01
8.120141923427581787e-02 -5.539640039205551147e-02 1.579991728067398071e-01
3.915840089321136475e-01 1.343691069632768631e-02 -6.627486944198608398e-01
-3.502004742622375488e-01 1.343691069632768631e-02 -2.510952949523925781e-01
2.220614552497863770e-01 -5.539640039205551147e-02 6.211627125740051270e-01
5.474404431879520416e-03 -5.539640039205551147e-02 2.221949547529220581e-01
4.682357311248779297e-01 4.929201677441596985e-02 -8.330083638429641724e-02
-4.020561575889587402e-01 -5.539640039205551147e-02 8.401769399642944336e-01
-4.380158185958862305e-01 -3.556181490421295166e-02 4.963910281658172607e-01
4.520191997289657593e-02 1.443753242492675781e-01 -5.440863370895385742e-01
-1.941788941621780396e-02 6.501082330942153931e-02 -3.333488106727600098e-01
-2.131168693304061890e-01 -5.539640039205551147e-02 5.932045578956604004e-01
-3.507962077856063843e-02 -5.539640039205551147e-02 3.547500371932983398e-01
-4.350131750106811523e-01 -5.539640039205551147e-02 3.555006682872772217e-01
2.882489860057830811e-01 -2.619751170277595520e-02 7.540602684020996094e-01
7.484261877834796906e-03 1.343691069632768631e-02 -2.349435091018676758e-01
2.986783683300018311e-01 1.343691069632768631e-02 -4.025260210037231445e-01
4.105682373046875000e-01 3.438134118914604187e-02 -9.478046745061874390e-02
1.506235897541046143e-01 -5.539640039205551147e-02 1.423572152853012085e-01
-3.074158728122711182e-01 -5.539640039205551147e-02 6.139594316482543945e-01
5.372670888900756836e-01 1.343691069632768631e-02 -4.273920953273773193e-01
3.693306744098663330e-01 1.343691069632768631e-02 -5.051522254943847656e-01
1.559023112058639526e-01 -5.539640039205551147e-02 1.739893853664398193e-01
-3.432656228542327881e-01 1.343691069632768631e-02 -4.841503500938415527e-01
-4.571984410285949707e-01 1.343691069632768631e-02 -3.826122283935546875e-01
4.363045394420623779e-01 1.340207159519195557e-01 -3.893778026103973389e-01
-2.809211313724517822e-01 -5.539640039205551147e-02 7.062904238700866699e-01
2.882489860057830811e-01 -4.053473100066184998e-02 1.907062083482742310e-01
1.465463042259216309e-01 -5.539640039205551147e-02 2.762333154678344727e-01
4.418061375617980957e-01 1.035607233643531799e-01 -3.927081227302551270e-01
2.882489860057830811e-01 -1.016069017350673676e-02 2.890684008598327637e-01
-6.575020030140876770e-03 1.320546120405197144e-01 -8.580271899700164795e-02
-3.208168447017669678e-01 1.343691069632768631e-02 -3.311581015586853027e-01
-3.623656034469604492e-01 -5.539640039205551147e-02 5.123327970504760742e-01
4.516716599464416504e-01 1.114863827824592590e-01 -7.173055410385131836e-01
6.616691946983337402e-01 1.343691069632768631e-02 -1.764991581439971924e-01
2.882489860057830811e-01 -2.330899238586425781e-02 4.196722209453582764e-01
5.252040624618530273e-01 1.974224671721458435e-02 -5.782023668289184570e-01
-2.788140475749969482e-01 2.088495716452598572e-02 6.350922584533691406e-02
5.233510956168174744e-02 -5.539640039205551147e-02 4.454892277717590332e-01
-6.198177114129066467e-02 1.343691069632768631e-02 -1.787472069263458252e-01
5.146471858024597168e-01 6.555543839931488037e-02 -4.897667169570922852e-01
-4.115891456604003906e-01 1.343691069632768631e-02 -3.413094878196716309e-01
-3.224552869796752930e-01 1.053002551198005676e-01 4.235174506902694702e-02
-1.461284160614013672e-01 1.343691069632768631e-02 -1.942572593688964844e-01
-4.382627606391906738e-01 -7.177018094807863235e-03 8.535535931587219238e-01
5.109425783157348633e-01 1.014293134212493896e-01 -6.384942531585693359e-01
1.670714616775512695e-01 -5.539640039205551147e-02 7.224460840225219727e-01
-9.118704125285148621e-03 -5.539640039205551147e-02 -3.376621305942535400e-01
5.050830841064453125e-01 1.991386711597442627e-02 -1.817031949758529663e-01
-1.175975725054740906e-01 1.280137104913592339e-03 -6.294653564691543579e-02
-3.958291709423065186e-01 1.343691069632768631e-02 -4.081685841083526611e-01
3.206905722618103027e-01 1.400921046733856201e-01 -3.538800776004791260e-01
-3.309857249259948730e-01 -5.539640039205551147e-02 6.700828075408935547e-01
3.285150825977325439e-01 1.149129644036293030e-01 -7.642508745193481445e-01
-4.380964934825897217e-01 -1.999320648610591888e-02 6.134470701217651367e-01
2.434395402669906616e-01 -5.539640039205551147e-02 2.263391315937042236e-01
2.156720496714115143e-03 -5.539640039205551147e-02 2.856223583221435547e-01
6.301484107971191406e-01 1.343691069632768631e-02 -2.380045056343078613e-01
2.882489860057830811e-01 5.720690358430147171e-03 1.017008051276206970e-01
1.780158132314682007e-01 -5.539640039205551147e-02 3.188447952270507812e-01
-9.347829222679138184e-02 6.356026232242584229e-02 -3.813883289694786072e-02
-9.331651963293552399e-03 -5.539640039205551147e-02 5.066192746162414551e-01
1.652138829231262207e-01 4.336833208799362183e-02 -4.237855970859527588e-01
2.497039586305618286e-01 -5.539640039205551147e-02 6.808565258979797363e-01
5.903463438153266907e-02 -5.539640039205551147e-02 2.884402573108673096e-01
-3.174340128898620605e-01 1.343691069632768631e-02 -8.686257153749465942e-02
-1.252305507659912109e-01 -5.539640039205551147e-02 1.072091087698936462e-01
1.051058024168014526e-01 4.640626534819602966e-02 -5.764278769493103027e-01
1.410252749919891357e-01 1.223660632967948914e-01 -4.199710488319396973e-01
-2.965342402458190918e-01 1.343691069632768631e-02 -2.261252254247665405e-01
2.641759812831878662e-01 -5.539640039205551147e-02 1.310736089944839478e-01
-2.154563516378402710e-01 -5.539640039205551147e-02 3.569368422031402588e-01
6.321090459823608398e-02 5.442410707473754883e-02 -5.538089275360107422e-01
6.269264221191406250e-02 -5.303503945469856262e-02 -3.776794373989105225e-01
-1.794574037194252014e-02 1.343691069632768631e-02 -4.401056170463562012e-01
1.888292729854583740e-01 -2.981918305158615112e-02 -3.846210539340972900e-01
-2.149274051189422607e-01 1.343691069632768631e-02 -4.376358389854431152e-01
-1.639507114887237549e-01 -5.539640039205551147e-02 2.914380431175231934e-01
2.683238685131072998e-01 6.985791772603988647e-02 -3.606398999691009521e-01
4.518058300018310547e-01 1.035616919398307800e-01 -1.857345849275588989e-01
-3.813148438930511475e-01 -5.539640039205551147e-02 7.089109420776367188e-01
1.741211414337158203e-01 -5.539640039205551147e-02 -1.193246617913246155e-01
-3.456265032291412354e-01 4.504797980189323425e-02 3.778426442295312881e-03
-4.947241395711898804e-02 1.343691069632768631e-02 -4.832198619842529297e-01
-1.723787002265453339e-02 1.838192157447338104e-02 -2.804225385189056396e-01
1.370999813079833984e-01 -5.539640039205551147e-02 5.216539837419986725e-03
1.165149286389350891e-01 1.121378615498542786e-01 -5.882089138031005859e-01
3.852086886763572693e-02 -5.539640039205551147e-02 5.953962206840515137e-01
1.307601183652877808e-01 1.426017582416534424e-01 -6.395161747932434082e-01
-4.917724430561065674e-01 9.631472826004028320e-02 -2.395165115594863892e-01
2.882489860057830811e-01 -2.597366273403167725e-02 6.492841243743896484e-01
5.279114097356796265e-02 1.264645457267761230e-01 -1.527396440505981445e-01
-2.351873964071273804e-01 1.343691069632768631e-02 -4.064932465553283691e-01
2.882489860057830811e-01 -2.495664916932582855e-02 5.684236995875835419e-03
-8.683420717716217041e-02 2.671471238136291504e-02 -4.728000760078430176e-01
-3.934896886348724365e-01 -5.539640039205551147e-02 4.796956777572631836e-01
-2.792195081710815430e-01 -1.264146901667118073e-02 -6.294653564691543579e-02
-3.899107221513986588e-03 5.721632391214370728e-02 -1.999503970146179199e-01
-2.217743359506130219e-02 1.343691069632768631e-02 -1.512178927659988403e-01
-4.382403790950775146e-01 -3.667545691132545471e-02 8.204254508018493652e-01
2.709695398807525635e-01 9.576759301126003265e-03 -2.602840662002563477e-01
7.707474380731582642e-02 9.743876755237579346e-02 -5.612940788269042969e-01
-2.012648284435272217e-01 -5.539640039205551147e-02 4.545544981956481934e-01
6.348315626382827759e-02 2.321549691259860992e-02 -1.242263019084930420e-01
6.007116287946701050e-02 1.101377233862876892e-01 -3.762646615505218506e-01
6.161406636238098145e-01 1.343691069632768631e-02 -5.162624120712280273e-01
3.413268625736236572e-01 1.343691069632768631e-02 -4.469179213047027588e-01
-2.309100031852722168e-01 5.824634339660406113e-03 -7.211195677518844604e-02
2.230350673198699951e-01 -1.831847801804542542e-02 -3.328431844711303711e-01
-2.672945261001586914e-01 -5.055582523345947266e-02 8.908833265304565430e-01
1.619774848222732544e-01 1.467410624027252197e-01 -4.268912672996520996e-01
-4.012403786182403564e-01 -5.539640039205551147e-02 2.693408541381359100e-02
-3.214469552040100098e-01 -5.539640039205551147e-02 8.108016848564147949e-02
3.682118281722068787e-02 -5.539640039205551147e-02 4.987247288227081299e-01
-3.260948061943054199e-01 6.492184847593307495e-02 3.629300743341445923e-02
-2.956367135047912598e-01 -5.539640039205551147e-02 2.078608870506286621e-01
6.797599196434020996e-01 1.343691069632768631e-02 -4.248989522457122803e-01
2.631965577602386475e-01 -5.539640039205551147e-02 5.928434059023857117e-02
2.882489860057830811e-01 -3.294909745454788208e-02 5.507203936576843262e-01
1.173279136419296265e-01 -5.539640039205551147e-02 6.136930584907531738e-01
-5.930002033710479736e-02 1.343691069632768631e-02 -3.038805723190307617e-01
4.064814448356628418e-01 2.752623893320560455e-02 -1.548895239830017090e-01
5.379827618598937988e-01 1.343691069632768631e-02 -3.969242572784423828e-01
-3.899107221513986588e-03 9.566324949264526367e-02 -2.061316668987274170e-01
-4.358989894390106201e-01 -5.539640039205551147e-02 2.108452469110488892e-01
1.362700760364532471e-01 -5.539640039205551147e-02 8.347715735435485840e-01
-1.592143476009368896e-01 -5.539640039205551147e-02 4.257441684603691101e-02
-6.493676453828811646e-02 8.325015753507614136e-02 -4.846219420433044434e-01
-4.135033860802650452e-02 -5.539640039205551147e-02 8.450444936752319336e-01
1.689489781856536865e-01 1.343691069632768631e-02 -6.008368730545043945e-01
6.341120600700378418e-02 -5.539640039205551147e-02 -2.763765454292297363e-01
2.419978529214859009e-01 -5.539640039205551147e-02 4.721754789352416992e-01
9.105040878057479858e-02 6.117770075798034668e-02 -3.929901421070098877e-01
-4.360911995172500610e-02 4.634373821318149567e-03 -6.294653564691543579e-02
2.606653869152069092e-01 1.315917670726776123e-01 -7.551379799842834473e-01
-5.679827332496643066e-01 7.991692423820495605e-02 -3.663855195045471191e-01
4.038502573966979980e-01 2.311145700514316559e-02 -1.848866790533065796e-01
-4.435047209262847900e-01 8.276496082544326782e-02 -4.608527421951293945e-01
9.033594396896660328e-04 -5.539640039205551147e-02 -2.789562046527862549e-01
-3.039834499359130859e-01 1.067675501108169556e-01 7.310325652360916138e-02
