3.986586257815361023e-02 -2.305467575788497925e-01 3.920298516750335693e-01
-2.477051466703414917e-01 -9.349257498979568481e-02 -1.822483241558074951e-01
-4.395455121994018555e-02 -7.376343011856079102e-02 -3.694755733013153076e-01
2.485899627208709717e-02 -4.292733967304229736e-01 -6.760956346988677979e-02
-7.949627935886383057e-02 7.582562565803527832e-01 5.104598402976989746e-01
-2.153854668140411377e-01 7.582562565803527832e-01 5.570359826087951660e-01
-1.843195706605911255e-01 -4.609543681144714355e-01 -3.383209705352783203e-01
-1.971585452556610107e-01 2.994433231651782990e-02 -3.115124106407165527e-01
6.124795600771903992e-02 -7.376343011856079102e-02 -6.176388859748840332e-01
-2.459367364645004272e-02 -2.378972768783569336e-01 5.015430450439453125e-01
-3.595584928989410400e-01 7.582562565803527832e-01 3.695890009403228760e-01
-3.951103985309600830e-01 6.548703312873840332e-01 5.734541416168212891e-01
8.644171059131622314e-02 1.138927862048149109e-01 2.639981545507907867e-02
-2.016149759292602539e-01 1.038977131247520447e-01 -4.894019365310668945e-01
1.196304336190223694e-01 -6.234567761421203613e-01 3.817517459392547607e-01
-4.679745808243751526e-02 1.368652433156967163e-01 5.861284732818603516e-01
-2.350446134805679321e-01 1.129944026470184326e-01 4.676373302936553955e-01
-8.919071406126022339e-02 2.759073488414287567e-02 -3.103472888469696045e-01
1.222337186336517334e-01 -1.235549896955490112e-01 -1.523564457893371582e-01
-3.062104880809783936e-01 7.582562565803527832e-01 2.827078104019165039e-01
-1.675544306635856628e-02 -3.454075157642364502e-01 -2.139677703380584717e-01
3.476860821247100830e-01 1.878293156623840332e-01 4.552597105503082275e-01
-3.364582061767578125e-01 5.840819478034973145e-01 2.407468110322952271e-01
-2.429086565971374512e-01 1.038977131247520447e-01 5.786156281828880310e-02
-7.207905501127243042e-02 -6.613231897354125977e-01 2.032530605792999268e-01
1.156461611390113831e-01 1.484905928373336792e-01 -6.820200681686401367e-01
2.553559467196464539e-02 -5.212270021438598633e-01 6.545267254114151001e-02
2.531281709671020508e-01 1.010922715067863464e-02 -5.165042877197265625e-01
-1.749237179756164551e-01 -7.610154896974563599e-02 -1.745577752590179443e-01
-5.348722636699676514e-02 5.670260787010192871e-01 5.900940299034118652e-01
-7.345048338174819946e-02 -4.280934929847717285e-01 4.009259343147277832e-01
4.965985566377639771e-02 7.582562565803527832e-01 3.888311982154846191e-01
1.714584976434707642e-01 -4.223782718181610107e-01 -2.398172169923782349e-01
-1.330474615097045898e-01 -6.607091426849365234e-01 -4.357877373695373535e-01
-8.573607355356216431e-02 -2.456351518630981445e-01 -1.204175278544425964e-01
6.273096054792404175e-02 -6.615676283836364746e-01 4.991852045059204102e-01
1.738390028476715088e-01 -6.165203452110290527e-01 1.679515540599822998e-01
-2.800357043743133545e-01 5.432249903678894043e-01 5.861807465553283691e-01
9.412685781717300415e-02 1.018797457218170166e-01 -9.089793264865875244e-02
1.163036376237869263e-01 -6.606646776199340820e-01 -4.826901853084564209e-01
2.336819320917129517e-01 1.627198308706283569e-01 -2.323573082685470581e-01
3.603848395869135857e-03 -7.547463476657867432e-02 5.073450207710266113e-01
-2.175057381391525269e-01 8.662196993827819824e-02 -6.043829917907714844e-01
-7.071284204721450806e-02 -6.198697686195373535e-01 3.107751607894897461e-01
2.852950990200042725e-01 -1.430345326662063599e-02 -3.524167239665985107e-01
-7.494916766881942749e-02 6.834344267845153809e-01 1.873218864202499390e-01
-3.741421177983283997e-02 1.547557581216096878e-02 4.640148282051086426e-01
3.675138354301452637e-01 4.734233021736145020e-01 5.740239024162292480e-01
2.237498946487903595e-02 4.450318589806556702e-02 1.316357254981994629e-01
1.385404616594314575e-01 2.062927931547164917e-01 2.276949286460876465e-01
-4.562849551439285278e-02 -7.607986778020858765e-02 3.662099838256835938e-01
-6.624192744493484497e-02 -5.793755650520324707e-01 1.450030505657196045e-01
5.401334259659051895e-03 -4.757982790470123291e-01 5.260420441627502441e-01
4.065788090229034424e-01 5.068539381027221680e-01 4.337582290172576904e-01
-1.761026233434677124e-01 1.928606070578098297e-02 -4.938721954822540283e-01
-1.936306655406951904e-01 -7.376343011856079102e-02 -3.105020225048065186e-01
2.339608967304229736e-01 4.448751360177993774e-02 -5.843650102615356445e-01
3.901636600494384766e-01 3.959172964096069336e-01 3.870243728160858154e-01
-2.053932249546051025e-01 3.829619884490966797e-01 2.263149023056030273e-01
8.030138164758682251e-02 -4.904992580413818359e-01 4.284205734729766846e-01
-2.776640653610229492e-01 1.549810469150543213e-01 -3.193863332271575928e-01
-7.224515080451965332e-02 -6.610352993011474609e-01 -1.651283949613571167e-01
-2.468259036540985107e-01 5.497673526406288147e-02 -5.568595528602600098e-01
4.019647464156150818e-02 1.650349795818328857e-01 -5.858534574508666992e-01
1.646925359964370728e-01 5.812716484069824219e-01 2.065739482641220093e-01
5.723499879240989685e-02 -2.120221853256225586e-01 -3.157253563404083252e-01
-2.037914395332336426e-01 1.129939109086990356e-01 3.372377455234527588e-01
-3.003770112991333008e-01 3.148972094058990479e-01 5.789899230003356934e-01
-4.068660438060760498e-01 5.137243866920471191e-01 4.480905830860137939e-01
-1.456508487462997437e-01 -2.308612167835235596e-01 -4.398558139801025391e-01
1.674111336469650269e-01 2.264292351901531219e-02 -2.701615691184997559e-01
1.269089877605438232e-01 -1.880374737083911896e-02 -6.816455125808715820e-01
-4.233718290925025940e-02 -1.975193023681640625e-01 2.680679559707641602e-01
2.651657760143280029e-01 1.129943132400512695e-01 4.032108485698699951e-01
2.689558267593383789e-01 -6.057748571038246155e-02 -2.346362918615341187e-01
-1.914344355463981628e-02 -1.874472349882125854e-01 -4.865719377994537354e-01
3.260939717292785645e-01 4.844396710395812988e-01 5.798948407173156738e-01
-1.462452411651611328e-01 3.882651627063751221e-01 5.875341296195983887e-01
3.069049715995788574e-01 6.877853870391845703e-01 2.351597547531127930e-01
7.192298024892807007e-02 1.271419078111648560e-01 -2.121786773204803467e-01
-1.005887687206268311e-01 -7.376343011856079102e-02 -5.502158403396606445e-01
2.031946629285812378e-01 -6.183763742446899414e-01 -1.573609411716461182e-01
-1.523399353027343750e-01 -3.779677450656890869e-01 -2.080948501825332642e-01
7.062922418117523193e-02 -6.613665819168090820e-01 9.482410550117492676e-02
4.656450450420379639e-02 1.038985997438430786e-01 4.791406989097595215e-01
9.601825475692749023e-02 7.582562565803527832e-01 2.747156322002410889e-01
-1.079629212617874146e-01 7.597270607948303223e-02 -7.189874649047851562e-01
-3.642593920230865479e-01 2.680509686470031738e-01 5.067802071571350098e-01
2.296868264675140381e-01 3.738748654723167419e-02 -1.647321283817291260e-01
4.447231814265251160e-02 1.624106168746948242e-01 -6.575644612312316895e-01
1.744264960289001465e-01 -1.532990187406539917e-01 -4.873023629188537598e-01
-6.486921757459640503e-02 -2.765561342239379883e-01 1.855751872062683105e-01
1.369209289550781250e-01 1.018796488642692566e-01 -2.621023356914520264e-01
1.099073141813278198e-01 3.679170012474060059e-01 5.881827473640441895e-01
7.649125531315803528e-03 -7.376343011856079102e-02 -3.300360143184661865e-01
-2.733003199100494385e-01 1.577987372875213623e-01 2.819655835628509521e-01
2.761269509792327881e-01 3.890921771526336670e-01 2.502836287021636963e-01
2.045480459928512573e-01 -6.613074541091918945e-01 -5.968035385012626648e-02
-1.549649089574813843e-01 -6.607918143272399902e-01 -3.636174499988555908e-01
4.230571165680885315e-02 -1.755178719758987427e-02 2.242340743541717529e-01
6.850401312112808228e-02 4.704752191901206970e-02 -1.291723698377609253e-01
4.254799485206604004e-01 6.522256135940551758e-01 4.234752357006072998e-01
2.230175025761127472e-02 -3.230218887329101562e-01 -6.101533770561218262e-01
2.480221539735794067e-01 5.091683268547058105e-01 2.318408638238906860e-01
-7.643859088420867920e-02 -2.389864772558212280e-01 -5.599704980850219727e-01
2.493154108524322510e-01 1.708104908466339111e-01 2.668288946151733398e-01
2.188232727348804474e-02 -5.441588163375854492e-01 -5.838236212730407715e-02
-3.257808983325958252e-01 7.582562565803527832e-01 5.254033803939819336e-01
-3.465361893177032471e-01 3.753798604011535645e-01 2.994009554386138916e-01
2.601100206375122070e-01 9.954448044300079346e-02 -1.693312451243400574e-02
1.872802525758743286e-01 -6.607534289360046387e-01 -3.427655994892120361e-01
-1.864576041698455811e-01 1.614753454923629761e-01 -4.940710589289665222e-02
5.284914374351501465e-02 1.664129197597503662e-01 -3.948479294776916504e-01
-1.707610189914703369e-01 -6.465502381324768066e-01 -4.957056045532226562e-01
-1.454251259565353394e-01 -1.160319894552230835e-01 1.797123812139034271e-02
3.561219573020935059e-02 -1.547618210315704346e-01 7.595746219158172607e-02
-8.755679428577423096e-02 1.926358789205551147e-02 -5.436608195304870605e-01
1.542527973651885986e-01 4.915419593453407288e-02 -8.902187459170818329e-03
-3.403014689683914185e-02 -1.654144823551177979e-01 6.871125847101211548e-02
2.355794981122016907e-02 1.662102490663528442e-01 -1.776864528656005859e-01
-1.486513763666152954e-01 3.258388862013816833e-02 1.787599325180053711e-01
7.784625142812728882e-02 -3.066077232360839844e-01 -6.058119982481002808e-02
1.114598214626312256e-01 2.402332238852977753e-02 -5.807356238365173340e-01
-7.830987125635147095e-02 -2.950402796268463135e-01 -7.805649191141128540e-02
-1.749375015497207642e-01 1.018796488642692566e-01 -2.276800721883773804e-01
-1.599003970623016357e-01 -5.646311640739440918e-01 -1.723596155643463135e-01
1.839692294597625732e-01 1.636120080947875977e-01 -1.212134957313537598e-01
7.931760512292385101e-03 -5.185675621032714844e-01 -1.789412498474121094e-01
-2.389145344495773315e-01 -1.066103205084800720e-02 -4.911325871944427490e-02
-1.770262420177459717e-01 -1.947100013494491577e-01 -3.215420842170715332e-01
5.243583396077156067e-02 4.523407518863677979e-01 1.998424679040908813e-01
-3.706714808940887451e-01 5.046991109848022461e-01 3.080259859561920166e-01
3.016964495182037354e-01 2.747449874877929688e-01 2.772873938083648682e-01
1.669695787131786346e-02 1.038977131247520447e-01 4.074180871248245239e-02
-2.642218768596649170e-01 -5.403035134077072144e-02 -3.971259295940399170e-01
-4.183713495731353760e-01 6.086776256561279297e-01 4.693347811698913574e-01
-1.966775059700012207e-01 3.809099644422531128e-02 -1.166529729962348938e-01
-1.017124876379966736e-01 4.177134931087493896e-01 2.047000974416732788e-01
-8.046633005142211914e-02 4.320093393325805664e-01 5.889693498611450195e-01
-3.267488256096839905e-02 5.927417054772377014e-02 3.107810914516448975e-01
1.897888928651809692e-01 1.018796488642692566e-01 -4.795161783695220947e-01
-9.215950220823287964e-02 1.018796488642692566e-01 -4.848124384880065918e-01
1.765881776809692383e-01 5.881924033164978027e-01 5.882310271263122559e-01
-1.037834808230400085e-01 1.038977131247520447e-01 -2.349374815821647644e-02
-2.392693907022476196e-01 6.785945892333984375e-01 2.137095481157302856e-01
-1.208334416151046753e-01 3.118109107017517090e-01 2.117864042520523071e-01
-3.042182885110378265e-02 -5.863909125328063965e-01 2.025061100721359253e-02
-2.058840729296207428e-02 -4.093668162822723389e-01 2.218368202447891235e-01
-1.971723437309265137e-01 -6.201891303062438965e-01 -1.096401363611221313e-02
-4.381743445992469788e-02 3.038090653717517853e-02 -2.417363971471786499e-01
-4.315090179443359375e-01 6.752677559852600098e-01 3.513729274272918701e-01
1.660104244947433472e-01 -7.376343011856079102e-02 -2.294928133487701416e-01
2.575727701187133789e-01 1.129947081208229065e-01 5.194396972656250000e-01
1.081103533506393433e-01 -4.770639538764953613e-01 -5.792205333709716797e-01
9.649406373500823975e-02 -6.615272164344787598e-01 3.058337569236755371e-01
6.403900682926177979e-02 -1.543281227350234985e-01 2.949701845645904541e-01
7.076692581176757812e-02 1.614069640636444092e-01 -6.437458214350044727e-04
2.572238817811012268e-02 -4.179218709468841553e-01 4.266267642378807068e-02
2.990695238113403320e-01 7.021443247795104980e-01 5.886598229408264160e-01
-1.888440102338790894e-01 1.667929142713546753e-01 2.453451752662658691e-01
1.472236365079879761e-01 4.434458538889884949e-02 1.075960472226142883e-01
2.236778736114501953e-01 1.018796488642692566e-01 -2.909907400608062744e-01
-2.420215159654617310e-01 1.129947081208229065e-01 5.631740689277648926e-01
7.631701231002807617e-02 -2.469569891691207886e-01 4.678325057029724121e-01
8.741619437932968140e-02 1.129937171936035156e-01 2.813386619091033936e-01
-6.677135080099105835e-02 -5.090386271476745605e-01 -1.291950494050979614e-01
1.504262387752532959e-01 -2.008500546216964722e-01 -3.732439875602722168e-01
2.351487241685390472e-02 -3.422108292579650879e-01 3.340459764003753662e-01
-7.018391042947769165e-02 -6.209707856178283691e-01 4.055450260639190674e-01
-1.083798781037330627e-01 -6.223074793815612793e-01 -6.126975417137145996e-01
-4.357928410172462463e-02 5.821055769920349121e-01 1.940415352582931519e-01
3.796598315238952637e-01 3.279845714569091797e-01 4.506485164165496826e-01
-7.646463811397552490e-03 1.038977131247520447e-01 -3.987602591514587402e-01
3.076925575733184814e-01 7.582562565803527832e-01 3.304116427898406982e-01
-2.329706698656082153e-01 1.018796488642692566e-01 -9.903661161661148071e-02
2.968939661514014006e-04 2.786937654018402100e-01 2.072718292474746704e-01
-5.623471736907958984e-02 1.018796488642692566e-01 -5.936140418052673340e-01
1.053996309638023376e-01 -1.416596621274948120e-01 -5.933301448822021484e-01
-3.305744826793670654e-01 4.276228845119476318e-01 5.774906277656555176e-01
2.619227953255176544e-02 -6.606114506721496582e-01 -5.210030674934387207e-01
1.581069380044937134e-01 -5.703670382499694824e-01 -1.655976027250289917e-01
-2.335712080821394920e-03 7.258517742156982422e-01 5.901679396629333496e-01
-3.450714349746704102e-01 1.798696368932723999e-01 3.759616613388061523e-01
4.876384139060974121e-02 5.237079039216041565e-02 -7.504841089248657227e-01
2.673234939575195312e-01 -2.808033674955368042e-02 -4.330218434333801270e-01
-1.243908926844596863e-01 -6.609732508659362793e-01 -2.112934887409210205e-01
-1.554557830095291138e-01 5.099778622388839722e-02 6.457005441188812256e-02
-5.111115425825119019e-02 1.129946038126945496e-01 5.091912746429443359e-01
3.903066366910934448e-02 -1.253093779087066650e-02 4.420392513275146484e-01
5.914581194519996643e-02 7.582573294639587402e-01 1.967374682426452637e-01
1.541137993335723877e-01 1.658098399639129639e-01 -4.080703556537628174e-01
1.066307947039604187e-01 1.038977131247520447e-01 -5.124904513359069824e-01
2.696014940738677979e-01 5.348110198974609375e-02 -4.723527655005455017e-02
1.025676578283309937e-01 -1.270954869687557220e-02 1.148765534162521362e-01
-2.150877714157104492e-01 -1.257886290550231934e-01 -4.535740613937377930e-01
3.544403240084648132e-02 -3.192801177501678467e-01 -1.986910998821258545e-01
2.337095290422439575e-01 8.411625772714614868e-02 1.854805648326873779e-01
1.225590035319328308e-01 -3.130040168762207031e-01 -5.010088086128234863e-01
-3.768824934959411621e-01 3.154058158397674561e-01 3.907937407493591309e-01
2.989236414432525635e-01 9.742617607116699219e-02 -1.848151534795761108e-01
-1.529056765139102936e-02 -4.425844848155975342e-01 -1.629736125469207764e-01
-2.746342681348323822e-03 1.038981005549430847e-01 2.185395807027816772e-01
-1.174514442682266235e-01 1.287608593702316284e-01 -1.615591347217559814e-01
8.789023011922836304e-02 1.038977131247520447e-01 -3.447369933128356934e-01
-2.871181070804595947e-01 1.038977131247520447e-01 -1.836165189743041992e-01
-8.299785107374191284e-02 7.582562565803527832e-01 2.946596741676330566e-01
-1.228679642081260681e-01 1.657224148511886597e-01 -2.421711087226867676e-01
5.187002941966056824e-02 -8.852455019950866699e-02 -1.292019486427307129e-01
-1.454073786735534668e-01 -6.613162755966186523e-01 1.222970411181449890e-01
5.486129224300384521e-02 -6.612147688865661621e-01 -2.804753743112087250e-02
-2.457721680402755737e-01 5.404343605041503906e-01 2.290778756141662598e-01
-4.729563742876052856e-02 -4.764557480812072754e-01 3.235687911510467529e-01
-1.911722719669342041e-01 4.858741164207458496e-02 1.706948131322860718e-01
1.165421828627586365e-01 1.836816407740116119e-02 -3.935241401195526123e-01
-1.168777495622634888e-01 -6.615676283836364746e-01 4.385251700878143311e-01
1.475321799516677856e-01 -2.134031504392623901e-01 -2.673325240612030029e-01
-2.331195026636123657e-01 1.018796488642692566e-01 -4.218753278255462646e-01
1.862639784812927246e-01 -1.014009788632392883e-01 -1.727083139121532440e-02
-3.953834176063537598e-01 4.635207653045654297e-01 5.298903584480285645e-01
1.696920990943908691e-01 6.750794649124145508e-01 5.901511907577514648e-01
1.722106039524078369e-01 6.441022157669067383e-01 2.055103480815887451e-01
-8.754407614469528198e-02 -4.025052487850189209e-01 -1.361187249422073364e-01
-5.446298792958259583e-02 -4.117264226078987122e-02 1.173073425889015198e-01
3.479167520999908447e-01 1.880077123641967773e-01 3.643223047256469727e-01
-2.810894548892974854e-01 3.753315508365631104e-01 2.520973384380340576e-01
-5.996694043278694153e-02 -1.629058271646499634e-01 3.630724251270294189e-01
1.942620873451232910e-01 1.552885025739669800e-01 5.838928818702697754e-01
-1.757674813270568848e-01 -4.774887859821319580e-01 -4.148353338241577148e-01
-2.296872287988662720e-01 7.430475950241088867e-01 2.182034403085708618e-01
-2.087938971817493439e-02 -2.834433615207672119e-01 3.080210685729980469e-01
4.081519842147827148e-01 5.718580484390258789e-01 5.407233834266662598e-01
2.175003886222839355e-01 7.582562565803527832e-01 4.624899327754974365e-01
3.750860989093780518e-01 5.214119553565979004e-01 3.114148974418640137e-01
8.288829773664474487e-02 -3.806676566600799561e-01 -5.827159285545349121e-01
3.130076453089714050e-02 5.483743548393249512e-01 5.904577970504760742e-01
-1.539082080125808716e-01 1.038977131247520447e-01 -3.341228067874908447e-01
-2.244175821542739868e-01 3.391793668270111084e-01 5.858485102653503418e-01
-2.274269759654998779e-01 2.644099295139312744e-02 -2.226203829050064087e-01
-1.090994551777839661e-01 -2.993577420711517334e-01 -1.604965180158615112e-01
-3.356350585818290710e-02 1.435507684946060181e-01 2.285929173231124878e-01
-1.376448571681976318e-01 -6.615006327629089355e-01 2.627184689044952393e-01
-2.577653527259826660e-02 4.383250698447227478e-02 -1.684581488370895386e-01
7.504773093387484550e-04 -5.516117811203002930e-01 5.107890963554382324e-01
7.334034144878387451e-02 -5.061781406402587891e-01 3.420450985431671143e-01
1.160710081458091736e-01 -6.168485879898071289e-01 2.285386919975280762e-01
1.750258058309555054e-01 1.038978099822998047e-01 2.513366192579269409e-02
-2.078663557767868042e-02 -3.476549685001373291e-01 2.670901119709014893e-01
3.431716188788414001e-02 2.914085388183593750e-01 5.891162157058715820e-01
-1.141847744584083557e-01 -2.938407063484191895e-01 -5.073193311691284180e-01
-3.356114923954010010e-01 6.043640375137329102e-01 5.802249908447265625e-01
-3.842979669570922852e-02 1.018801406025886536e-01 -4.458122700452804565e-02
-5.949921905994415283e-02 1.287608593702316284e-01 -2.892647385597229004e-01
2.238247543573379517e-01 4.886488988995552063e-02 2.784022390842437744e-01
8.356430381536483765e-02 -5.770266056060791016e-01 -6.286494135856628418e-01
3.382035195827484131e-01 3.390591144561767578e-01 2.977656424045562744e-01
1.308814287185668945e-01 -6.609535217285156250e-01 -2.476309984922409058e-01
2.989384233951568604e-01 9.949766099452972412e-02 -3.660876452922821045e-01
3.460921943187713623e-01 2.124446481466293335e-01 5.472369790077209473e-01
1.945666819810867310e-01 -7.376343011856079102e-02 -4.843471646308898926e-01
-1.654518954455852509e-02 -3.899629414081573486e-01 5.228927135467529297e-01
-1.778887510299682617e-01 -1.589067727327346802e-01 -8.613543957471847534e-02
2.505170106887817383e-01 1.615640670061111450e-01 -3.370769917964935303e-01
3.663930296897888184e-01 2.647448480129241943e-01 4.770194292068481445e-01
1.725181490182876587e-01 -6.157091259956359863e-01 -8.815537393093109131e-02
-8.249670267105102539e-02 1.904180087149143219e-02 -6.448417901992797852e-01
-1.146766468882560730e-01 -6.163429021835327148e-01 1.650791615247726440e-01
1.297813653945922852e-01 4.053379967808723450e-02 -2.153655141592025757e-01
3.741772770881652832e-01 3.885263800621032715e-01 5.666182041168212891e-01
3.235093951225280762e-01 4.760068655014038086e-01 2.662285864353179932e-01
-3.636817634105682373e-01 5.934512019157409668e-01 2.893348038196563721e-01
4.224613076075911522e-04 1.931245774030685425e-01 5.882527232170104980e-01
1.367888301610946655e-01 -1.681892722845077515e-01 -3.465618193149566650e-02
5.037506110966205597e-03 1.661131680011749268e-01 -1.300910711288452148e-01
2.605634331703186035e-01 8.619210869073867798e-02 -5.202155113220214844e-01
-2.672923803329467773e-01 6.068196892738342285e-02 -4.153240472078323364e-02
-1.292278021574020386e-01 -4.658977091312408447e-01 -5.367578268051147461e-01
1.063025444746017456e-01 -7.376343011856079102e-02 -2.648298144340515137e-01
-7.669062912464141846e-02 -8.982076495885848999e-02 -6.764290928840637207e-01
-1.587461084127426147e-01 -1.581162214279174805e-01 -1.861813664436340332e-01
-2.448159642517566681e-02 1.038979068398475647e-01 1.337925046682357788e-01
-3.445143997669219971e-02 1.129942089319229126e-01 3.994611799716949463e-01
-2.146727740764617920e-01 1.511006802320480347e-01 -5.545855164527893066e-01
-1.877242475748062134e-01 4.617198705673217773e-01 2.174631506204605103e-01
-1.557287853211164474e-02 1.038977131247520447e-01 -6.165102720260620117e-01
-3.038999065756797791e-02 -5.362276434898376465e-01 9.831058979034423828e-02
7.208493351936340332e-02 -1.332308053970336914e-01 3.011508285999298096e-02
2.322763577103614807e-02 -6.611220240592956543e-01 -1.009949445724487305e-01
-4.187932610511779785e-01 7.258706092834472656e-01 5.407085418701171875e-01
4.359867796301841736e-02 -3.078132569789886475e-01 4.008046984672546387e-01
9.997522830963134766e-02 1.653303056955337524e-01 -7.747068256139755249e-02
-4.052563011646270752e-02 1.666833907365798950e-01 -2.280960381031036377e-01
1.377607434988021851e-01 -6.612187623977661133e-01 -3.176315873861312866e-02
-4.818643257021903992e-02 -2.415838390588760376e-01 1.046339645981788635e-01
-4.657383076846599579e-03 1.018796488642692566e-01 -4.427351057529449463e-01
6.735417246818542480e-02 -1.558599174022674561e-01 1.910153627395629883e-01
1.075070947408676147e-01 7.049528509378433228e-02 4.375847876071929932e-01
-7.660862058401107788e-02 -2.741174697875976562e-01 -2.281128168106079102e-01
2.103302776813507080e-01 -9.234596043825149536e-03 1.848864182829856873e-02
-3.640625160187482834e-03 -6.608845591545104980e-01 -2.936728894710540771e-01
-8.005955256521701813e-03 4.982152953743934631e-02 -6.376418471336364746e-02
1.663100868463516235e-01 -5.314992070198059082e-01 -4.774757325649261475e-01
-1.665204614400863647e-01 1.038980036973953247e-01 2.120091915130615234e-01
8.119887858629226685e-02 -5.834367275238037109e-01 3.082014620304107666e-01
-1.980417035520076752e-02 -7.376343011856079102e-02 -1.747223734855651855e-01
-3.412625789642333984e-01 2.507171034812927246e-01 3.122251629829406738e-01
7.991714775562286377e-02 -3.459329307079315186e-01 4.653889238834381104e-01
-2.244254648685455322e-01 1.924889907240867615e-02 -4.887799620628356934e-01
-3.411711892113089561e-03 5.421339347958564758e-02 1.903374493122100830e-02
2.005657553672790527e-01 2.692949473857879639e-01 5.858613252639770508e-01
-4.703954979777336121e-02 -6.122462749481201172e-01 -1.110411807894706726e-01
2.093071043491363525e-01 -1.637505888938903809e-01 -3.612763583660125732e-01
1.085499823093414307e-01 -2.303565144538879395e-01 -2.256514579057693481e-01
-1.701705753803253174e-01 6.858770847320556641e-01 5.928915143013000488e-01
-1.749069541692733765e-01 -4.523598551750183105e-01 -2.430040389299392700e-01
-1.417799293994903564e-01 -8.960589021444320679e-02 -6.253265738487243652e-01
6.272219121456146240e-02 -3.788263201713562012e-01 -2.198569849133491516e-02
-1.272474974393844604e-01 -7.376343011856079102e-02 -2.742256522178649902e-01
-1.435493081808090210e-01 1.018796488642692566e-01 -5.896040797233581543e-01
-6.753134727478027344e-02 -3.717291355133056641e-01 -2.770901322364807129e-01
5.217136442661285400e-02 -1.772539466619491577e-01 -5.436124801635742188e-01
2.684541605412960052e-02 -4.743176996707916260e-01 2.421100735664367676e-01
8.753556013107299805e-02 6.479438394308090210e-02 2.684386074542999268e-01
2.746710740029811859e-02 3.868094459176063538e-02 -3.074423968791961670e-01
1.912990212440490723e-01 3.546117544174194336e-01 2.250916361808776855e-01
-1.939510107040405273e-01 -6.609948873519897461e-01 -1.819151639938354492e-01
-3.044421076774597168e-01 8.071630448102951050e-02 -2.930696308612823486e-01
-1.588860154151916504e-02 -1.527746170759201050e-01 4.950284659862518311e-01
-6.980174779891967773e-02 -1.531166732311248779e-01 -6.045249104499816895e-01
6.974444538354873657e-02 1.038981005549430847e-01 1.737505346536636353e-01
-3.049063682556152344e-01 3.362736478447914124e-02 -3.341237902641296387e-01
-1.378360204398632050e-02 -6.606844663619995117e-01 -4.572497904300689697e-01
-1.123523265123367310e-01 -1.953810639679431915e-02 -6.923740506172180176e-01
7.699292153120040894e-02 4.169270768761634827e-02 4.641047492623329163e-02
-2.751120626926422119e-01 7.487576454877853394e-02 -4.785304665565490723e-01
1.753639131784439087e-01 -5.794266238808631897e-02 -6.115925312042236328e-01
1.031256467103958130e-02 -6.386861205101013184e-01 2.049534171819686890e-01
1.532030664384365082e-02 7.582562565803527832e-01 3.149191141128540039e-01
-6.140943989157676697e-02 -2.212465256452560425e-01 4.047121107578277588e-01
-1.651631295680999756e-01 1.911385543644428253e-02 -5.756098628044128418e-01
4.047532677650451660e-01 7.582591772079467773e-01 4.877203404903411865e-01
5.141729116439819336e-02 -6.615656018257141113e-01 4.385429024696350098e-01
2.759032323956489563e-02 -2.471805177628993988e-02 -7.287125587463378906e-01
9.039966017007827759e-02 7.152444720268249512e-01 5.902211666107177734e-01
6.910599023103713989e-02 3.230483084917068481e-02 -4.451106786727905273e-01
-1.435433775186538696e-01 5.484800040721893311e-02 2.457838356494903564e-01
2.570395171642303467e-01 2.847837284207344055e-02 -2.786150574684143066e-01
-4.004993140697479248e-01 7.493138909339904785e-01 3.190394341945648193e-01
-1.576815396547317505e-01 -2.496549189090728760e-01 -3.926409184932708740e-01
1.438278406858444214e-01 -4.298323094844818115e-01 -1.781093031167984009e-01
-8.953130804002285004e-03 -6.612679958343505859e-01 2.044253237545490265e-02
-6.106365472078323364e-02 -6.611960530281066895e-01 -3.192634508013725281e-02
-9.371693432331085205e-02 3.794293850660324097e-02 -4.546660184860229492e-02
9.679854661226272583e-02 5.360843539237976074e-01 1.990795284509658813e-01
1.222347021102905273e-01 1.038977131247520447e-01 -1.678322255611419678e-01
2.099084481596946716e-02 1.038987934589385986e-01 5.586959719657897949e-01
-6.144216284155845642e-02 1.642355620861053467e-01 -6.092987656593322754e-01
-3.048284538090229034e-02 -4.001572430133819580e-01 5.052072554826736450e-02
-3.970394432544708252e-01 4.420488774776458740e-01 4.497268795967102051e-01
5.267881602048873901e-02 -2.846961915493011475e-01 -1.325257718563079834e-01
2.348116040229797363e-02 -2.023601680994033813e-01 -3.910667300224304199e-01
-4.047476872801780701e-02 1.353231817483901978e-01 -7.278096079826354980e-01
-7.111787796020507812e-02 6.632757186889648438e-02 3.811682164669036865e-01
-1.857537925243377686e-01 -6.165597438812255859e-01 1.193388998508453369e-01
6.747383624315261841e-02 -5.836496353149414062e-01 1.422420591115951538e-01
1.224170625209808350e-01 -2.325418442487716675e-01 -4.932846724987030029e-01
3.334198519587516785e-02 -7.376343011856079102e-02 -5.401841998100280762e-01
2.544313073158264160e-01 7.406011223793029785e-02 3.005663119256496429e-02
-9.071693755686283112e-03 -9.898597002029418945e-02 -6.462809443473815918e-01
-2.514222450554370880e-02 -4.890689551830291748e-01 1.995586007833480835e-01
1.271199285984039307e-01 -7.376343011856079102e-02 -5.575012564659118652e-01
2.046880871057510376e-02 -6.239674687385559082e-01 -1.519779264926910400e-01
-1.512506511062383652e-02 1.287608593702316284e-01 -5.376863479614257812e-01
-2.860239446163177490e-01 1.286410987377166748e-01 -2.514920830726623535e-01
3.624266013503074646e-02 -2.323102205991744995e-01 8.021872490644454956e-02
1.648118048906326294e-01 1.271419078111648560e-01 -5.461674928665161133e-01
1.580980718135833740e-01 1.038977131247520447e-01 -8.779194205999374390e-02
-2.296172380447387695e-01 4.436676576733589172e-02 9.769056737422943115e-02
-2.949209883809089661e-02 5.923986434936523438e-02 -7.541519999504089355e-01
-2.487234026193618774e-01 -1.093606501817703247e-01 -3.384422361850738525e-01
-3.683974444866180420e-01 7.582562565803527832e-01 4.508525431156158447e-01
-3.085594475269317627e-01 7.224017977714538574e-01 5.844439268112182617e-01
1.757335513830184937e-01 3.623851239681243896e-01 5.869910120964050293e-01
-5.595901608467102051e-02 -3.723097443580627441e-01 -9.416303038597106934e-02
-3.667995333671569824e-02 -1.269389688968658447e-01 1.163403466343879700e-01
1.131079420447349548e-01 1.018796488642692566e-01 -6.045101284980773926e-01
7.872097939252853394e-02 -2.850086688995361328e-01 1.133279949426651001e-01
-4.201692342758178711e-02 -2.797486819326877594e-02 2.515285909175872803e-01
1.607368439435958862e-01 7.582562565803527832e-01 3.206589519977569580e-01
-1.464926600456237793e-01 -6.611024141311645508e-01 -6.646002084016799927e-02
-2.572508752346038818e-01 -3.173833712935447693e-02 -1.246188506484031677e-01
5.415252875536680222e-03 6.924763321876525879e-01 1.837644279003143311e-01
-2.560827322304248810e-02 -4.548794031143188477e-01 -6.363133788108825684e-01
5.640314891934394836e-02 -7.376343011856079102e-02 -3.937774598598480225e-01
-3.495899438858032227e-01 2.002503275871276855e-01 4.619113206863403320e-01
7.356981188058853149e-02 -6.155849099159240723e-01 -6.528367102146148682e-02
-8.007095754146575928e-02 -5.500494241714477539e-01 3.213262856006622314e-01
4.008231759071350098e-01 6.995478868484497070e-01 5.761708021163940430e-01
8.876455575227737427e-02 -6.607702374458312988e-01 -3.941510319709777832e-01
1.493981331586837769e-01 -3.439693450927734375e-01 -2.107138931751251221e-01
-2.121986299753189087e-01 1.638685762882232666e-01 -2.765490114688873291e-01
-1.167860850691795349e-01 -5.619300156831741333e-02 6.985774636268615723e-02
-8.484202623367309570e-02 1.018796488642692566e-01 -6.645344495773315430e-01
1.895572692155838013e-01 1.018796488642692566e-01 -1.977172046899795532e-01
8.297248184680938721e-02 -3.267331123352050781e-01 -5.685147047042846680e-01
2.119162976741790771e-01 1.038978099822998047e-01 1.009355559945106506e-01
-1.537120491266250610e-01 1.071717739105224609e-01 1.475868560373783112e-02
-1.723588071763515472e-02 -6.605346202850341797e-01 -5.883769392967224121e-01
4.373667240142822266e-01 6.783363223075866699e-01 3.500461578369140625e-01
1.012428626418113708e-01 3.783845528960227966e-02 -2.982002794742584229e-01
2.581839263439178467e-01 -8.900656551122665405e-02 -3.471214771270751953e-01
-9.041983634233474731e-03 -6.162481904029846191e-01 1.488650888204574585e-01
1.332067251205444336e-01 -6.613537669181823730e-01 7.965391129255294800e-02
-1.687807142734527588e-01 -3.308337032794952393e-01 -3.571373224258422852e-01
2.214471995830535889e-01 1.415277868509292603e-01 -5.729609727859497070e-02
1.936144828796386719e-01 -6.107647418975830078e-01 -3.910223543643951416e-01
-1.835221350193023682e-01 5.851849913597106934e-01 5.880417823791503906e-01
-8.549023419618606567e-02 1.623530387878417969e-01 -1.405926607549190521e-02
-3.808835446834564209e-01 3.480823934078216553e-01 4.705639481544494629e-01
1.018756851553916931e-01 -2.030718475580215454e-01 -9.173815697431564331e-02
-3.868858097121119499e-03 1.038977131247520447e-01 -2.533047795295715332e-01
1.416474431753158569e-01 4.204281568527221680e-01 2.095310986042022705e-01
-5.623481795191764832e-02 6.419612765312194824e-01 5.903394818305969238e-01
2.914706170558929443e-01 1.276945173740386963e-01 -2.908438742160797119e-01
-1.641882508993148804e-01 1.018796488642692566e-01 -3.992304503917694092e-01
-1.535464525222778320e-01 3.155184164643287659e-02 -2.649313509464263916e-01
-1.455039829015731812e-01 2.580343186855316162e-02 -3.652980923652648926e-01
7.173006981611251831e-02 1.018796488642692566e-01 -6.540306210517883301e-01
7.572606950998306274e-02 1.018796488642692566e-01 -2.746396660804748535e-01
2.607586793601512909e-02 1.038977131247520447e-01 -1.625741831958293915e-02
4.178859591484069824e-01 5.945266485214233398e-01 4.104391038417816162e-01
1.136047393083572388e-01 -7.376343011856079102e-02 -4.196308851242065430e-01
5.028292909264564514e-02 1.667992174625396729e-01 -3.367921411991119385e-01
1.778587698936462402e-01 5.361348390579223633e-02 3.177698254585266113e-01
-9.743969887495040894e-02 1.038978099822998047e-01 1.202536448836326599e-01
5.731385573744773865e-02 -6.605424880981445312e-01 -6.596245765686035156e-01
7.086668163537979126e-02 -6.250694394111633301e-01 4.375246763229370117e-01
-1.450130939483642578e-01 -5.291374325752258301e-01 -5.269666910171508789e-01
2.299421131610870361e-01 -1.129683852195739746e-01 -1.411606669425964355e-01
-7.812830805778503418e-02 1.287608593702316284e-01 -4.199334681034088135e-01
-2.316616177558898926e-01 1.018796488642692566e-01 -3.697328567504882812e-01
-7.843948900699615479e-02 -1.814481765031814575e-01 -1.348865777254104614e-01
1.674633920192718506e-01 4.133578017354011536e-02 5.440070107579231262e-02
-3.252762258052825928e-01 1.275231987237930298e-01 4.385951757431030273e-01
2.120927423238754272e-01 1.414051558822393417e-02 -4.445084035396575928e-01
1.858371645212173462e-01 -4.566043913364410400e-01 -3.054719269275665283e-01
-3.120833933353424072e-01 1.272787302732467651e-01 5.639685392379760742e-01
6.028392165899276733e-02 -5.110140442848205566e-01 4.970452487468719482e-01
-1.998012512922286987e-01 -5.972681194543838501e-02 -5.121171940118074417e-03
4.021806269884109497e-02 -2.817055284976959229e-01 8.548958227038383484e-03
-3.466781079769134521e-01 5.247939825057983398e-01 5.772244930267333984e-01
-1.839164197444915771e-01 -1.921461522579193115e-01 -2.217332273721694946e-01
2.235004603862762451e-01 7.290081381797790527e-01 5.861433148384094238e-01
-3.062429279088973999e-02 -3.469225764274597168e-01 3.731799721717834473e-01
1.287434101104736328e-01 -5.024382472038269043e-01 -1.594654470682144165e-01
-2.761569321155548096e-01 1.420670747756958008e-01 -4.005897641181945801e-01
8.371167629957199097e-02 2.550877928733825684e-01 2.147829979658126831e-01
-1.420519798994064331e-01 6.489146351814270020e-01 1.982475817203521729e-01
6.897105276584625244e-02 -2.732677757740020752e-01 -1.753739565610885620e-01
2.637522518634796143e-01 1.314888447523117065e-01 -4.611187279224395752e-01
1.602568030357360840e-01 7.582562565803527832e-01 4.865404665470123291e-01
1.151572465896606445e-01 1.653087139129638672e-01 -5.108797550201416016e-01
-4.941768944263458252e-02 4.543744772672653198e-02 1.584817469120025635e-01
-5.960945971310138702e-03 -8.111885190010070801e-02 -7.027310132980346680e-01
-2.841658592224121094e-01 6.228462457656860352e-01 2.389646172523498535e-01
4.008123576641082764e-01 4.870597124099731445e-01 5.126619338989257812e-01
-2.597229741513729095e-02 1.612168103456497192e-01 2.575016347691416740e-03
2.331240028142929077e-01 6.655880212783813477e-01 5.875735282897949219e-01
1.846178174018859863e-01 1.039884909987449646e-01 -6.287972331047058105e-01
-2.330357134342193604e-01 1.018796488642692566e-01 -2.216997444629669189e-01
1.480575650930404663e-01 -3.515584170818328857e-01 -4.586258530616760254e-01
-7.318640500307083130e-02 -1.451362818479537964e-01 2.147070914506912231e-01
-1.010629013180732727e-01 1.038984954357147217e-01 3.736826777458190918e-01
1.917416788637638092e-02 1.038977131247520447e-01 -3.262863457202911377e-01
2.004129737615585327e-01 2.519829757511615753e-02 -6.358175277709960938e-01
-2.116022706031799316e-01 8.681291341781616211e-02 4.021640121936798096e-01
-9.216946363449096680e-02 3.378792107105255127e-01 5.881679058074951172e-01
-1.392781883478164673e-01 1.317252069711685181e-01 5.842437744140625000e-01
1.663209348917007446e-01 1.129943132400512695e-01 4.200341105461120605e-01
-1.191015392541885376e-01 -7.376343011856079102e-02 -3.814776837825775146e-01
2.410580664873123169e-01 6.963936686515808105e-01 2.146834433078765869e-01
2.806099653244018555e-01 -3.591482713818550110e-02 -3.042989075183868408e-01
-1.056701466441154480e-01 -6.161763072013854980e-01 9.289899468421936035e-02
-1.860347241163253784e-01 -5.495911240577697754e-01 -4.016168713569641113e-01
6.698640435934066772e-02 -4.436678290367126465e-01 3.756856620311737061e-01
1.100265905261039734e-01 5.148727297782897949e-01 5.890373587608337402e-01
-2.597545981407165527e-01 7.582562565803527832e-01 5.040192008018493652e-01
-4.232723414897918701e-01 6.560147404670715332e-01 4.922408759593963623e-01
3.781999647617340088e-01 3.410492837429046631e-01 5.239790081977844238e-01
-1.725589781999588013e-01 -1.524473577737808228e-01 -4.905512928962707520e-01
-4.575844388455152512e-03 2.037942036986351013e-02 -6.020951271057128906e-01
1.976500153541564941e-01 -6.606193184852600098e-01 1.246804967522621155e-01
1.461107730865478516e-01 -2.047475725412368774e-01 -1.580805182456970215e-01
5.003048479557037354e-02 1.038977131247520447e-01 -4.371855258941650391e-01
-9.567720117047429085e-04 4.407814517617225647e-02 7.560260593891143799e-02
-1.597022563219070435e-01 1.018799468874931335e-01 -6.375323981046676636e-02
2.533213794231414795e-01 4.953101873397827148e-01 5.864912271499633789e-01
-1.077342405915260315e-01 -1.133577451109886169e-01 -1.391064524650573730e-01
2.399816513061523438e-01 5.904457569122314453e-01 2.241936475038528442e-01
-3.249223530292510986e-01 1.756977885961532593e-01 3.090994358062744141e-01
-2.236122488975524902e-01 1.633860617876052856e-01 -3.283041119575500488e-01
-9.380427002906799316e-02 1.038982048630714417e-01 2.637968361377716064e-01
2.491153776645660400e-02 5.198062062263488770e-01 1.953939199447631836e-01
9.656690806150436401e-02 1.656931340694427490e-01 -1.643782556056976318e-01
-1.643725931644439697e-01 2.653885483741760254e-01 2.255184501409530640e-01
-2.875576727092266083e-02 1.622629724442958832e-02 -4.907898306846618652e-01
-7.668363302946090698e-02 -3.201997876167297363e-01 2.440018765628337860e-02
7.266581803560256958e-02 -9.169166535139083862e-02 3.080447316169738770e-01
-3.183022737503051758e-01 1.296316385269165039e-01 3.113192617893218994e-01
2.161755859851837158e-01 -3.127209097146987915e-02 -5.657162070274353027e-01
-2.887898311018943787e-02 -6.614119410514831543e-01 2.924339175224304199e-01
-1.617141067981719971e-01 -6.611999273300170898e-01 1.636313647031784058e-02
1.103223040699958801e-01 2.112895995378494263e-02 -6.331639289855957031e-01
3.776617944240570068e-01 6.589146852493286133e-01 2.961826026439666748e-01
2.794063985347747803e-01 7.582562565803527832e-01 3.991358876228332520e-01
-2.552459239959716797e-01 7.582562565803527832e-01 3.305614590644836426e-01
-1.713645528070628643e-03 -2.665649056434631348e-01 -6.045830845832824707e-01
-2.418529689311981201e-01 4.408386349678039551e-02 1.643470115959644318e-02
9.439813345670700073e-02 -6.614750027656555176e-01 2.197510153055191040e-01
-7.835866510868072510e-02 -3.029970228672027588e-01 1.293133795261383057e-01
-2.007731236517429352e-02 -4.989794492721557617e-01 -6.186943873763084412e-02
2.259331941604614258e-01 -1.451402455568313599e-01 -2.016689628362655640e-01
1.487554460763931274e-01 -6.610649228096008301e-01 -1.583693176507949829e-01
9.364632517099380493e-02 6.840052008628845215e-01 1.883164644241333008e-01
-7.029391825199127197e-02 2.877605706453323364e-02 2.827679514884948730e-01
1.058786883950233459e-01 1.561442017555236816e-01 2.296387553215026855e-01
-9.030270576477050781e-02 -6.166830062866210938e-01 2.319285869598388672e-01
3.008763492107391357e-01 2.087247557938098907e-02 -2.243355363607406616e-01
-6.388024985790252686e-02 1.018796488642692566e-01 -1.139070540666580200e-01
2.213486842811107635e-02 -6.160206198692321777e-01 3.322492539882659912e-02
-2.777064740657806396e-01 1.414051558822393417e-02 -4.471116960048675537e-01
3.374484479427337646e-01 7.582562565803527832e-01 2.614271640777587891e-01
-1.767679899930953979e-01 -7.411137968301773071e-02 -5.337986946105957031e-01
-6.120539829134941101e-02 5.007848143577575684e-01 1.983737498521804810e-01
-4.019433856010437012e-01 4.821321070194244385e-01 3.624573349952697754e-01
1.670129150152206421e-01 -3.298923373222351074e-01 -3.771198093891143799e-01
1.846306473016738892e-01 1.406629569828510284e-02 8.532474189996719360e-02
-2.213874757289886475e-01 5.047681331634521484e-01 5.869880318641662598e-01
-4.397455975413322449e-02 1.665315032005310059e-01 -4.148244857788085938e-01
-2.348395735025405884e-01 8.831162750720977783e-02 1.625517904758453369e-01
-6.681738793849945068e-02 -5.086877346038818359e-01 4.765522181987762451e-01
-1.685066819190979004e-01 7.130163908004760742e-02 -6.680337190628051758e-01
4.762316495180130005e-02 1.287608593702316284e-01 -1.405751556158065796e-01
-3.386228680610656738e-01 4.573097527027130127e-01 2.809424102306365967e-01
-6.010129675269126892e-02 2.275487929582595825e-01 2.168460935354232788e-01
6.454113870859146118e-02 3.780856430530548096e-01 2.046616524457931519e-01
1.097772046923637390e-01 3.421721979975700378e-02 -7.824102044105529785e-02
-1.570684164762496948e-01 1.654344946146011353e-01 -2.048981636762619019e-01
-5.517260730266571045e-02 -2.462679892778396606e-01 -2.975842356681823730e-01
-2.235077768564224243e-01 2.700657844543457031e-01 5.852896571159362793e-01
-1.995666474103927612e-01 -6.343233585357666016e-01 -3.258910775184631348e-01
-1.811662614345550537e-01 -7.376343011856079102e-02 -3.837990164756774902e-01
-5.053234100341796875e-02 -2.843837141990661621e-01 -1.543927006423473358e-02
1.266014426946640015e-01 1.018801406025886536e-01 -2.819337509572505951e-02
9.082815796136856079e-02 -4.218066036701202393e-01 -1.369339227676391602e-01
2.010448649525642395e-02 7.582562565803527832e-01 4.504050314426422119e-01
1.900994032621383667e-01 1.414051558822393417e-02 -5.349007248878479004e-01
2.882019877433776855e-01 1.480000019073486328e-01 5.745729207992553711e-01
-1.861392110586166382e-01 -5.569475293159484863e-01 -2.273804247379302979e-01
2.174077332019805908e-01 4.436646774411201477e-02 1.409576833248138428e-01
-3.527422547340393066e-01 3.199677169322967529e-01 3.108973801136016846e-01
-2.233490645885467529e-01 2.253695763647556305e-02 -6.003198027610778809e-01
-1.019875034689903259e-01 -3.584209680557250977e-01 -5.538619756698608398e-01
-4.205221831798553467e-01 6.207033395767211914e-01 3.931949734687805176e-01
-1.971319317817687988e-01 1.627402156591415405e-01 -4.613898098468780518e-01
1.002906486392021179e-01 1.038977131247520447e-01 -7.179968357086181641e-01
-7.903081923723220825e-02 8.877263218164443970e-02 5.628093481063842773e-01
1.325857341289520264e-01 1.129940152168273926e-01 3.460490703582763672e-01
2.021783888339996338e-01 1.038979068398475647e-01 3.558155596256256104e-01
3.400152623653411865e-01 2.301057577133178711e-01 3.133527934551239014e-01
-1.379740834236145020e-01 -5.924165844917297363e-01 -5.579537153244018555e-01
5.054591596126556396e-02 -3.650390803813934326e-01 1.011524125933647156e-01
-1.733229011297225952e-01 1.038986966013908386e-01 4.776423871517181396e-01
2.018560618162155151e-01 4.570556432008743286e-02 -4.126793518662452698e-02
1.074440684169530869e-02 1.129941120743751526e-01 3.684386610984802246e-01
-1.279700249433517456e-01 4.245121777057647705e-02 -1.225635260343551636e-01
-8.918995968997478485e-03 1.635201275348663330e-01 -6.340215206146240234e-01
-1.224263608455657959e-01 -2.180823534727096558e-01 -2.725095152854919434e-01
2.877426147460937500e-01 2.681810855865478516e-01 5.804438591003417969e-01
-4.204682540148496628e-03 7.863654941320419312e-02 4.982793629169464111e-01
3.283315896987915039e-02 -2.022192180156707764e-01 4.901393353939056396e-01
-3.691928982734680176e-01 2.731747329235076904e-01 4.478894770145416260e-01
-5.334528163075447083e-02 -6.605384945869445801e-01 -6.507275104522705078e-01
2.666817903518676758e-01 4.442253410816192627e-01 2.426571249961853027e-01
-3.553198650479316711e-02 -6.613221764564514160e-01 1.468493193387985229e-01
2.030113339424133301e-01 2.037486582994461060e-01 2.437759339809417725e-01
-2.079915255308151245e-02 3.511885553598403931e-02 -3.427941799163818359e-01
3.796026408672332764e-01 3.289722800254821777e-01 3.736501336097717285e-01
-1.118416525423526764e-02 -3.841294646263122559e-01 -6.273088455200195312e-01
-9.197300672531127930e-02 -1.949820667505264282e-01 -4.432240128517150879e-01
1.176058407872915268e-02 -6.269137263298034668e-01 4.902635514736175537e-01
5.000219494104385376e-02 3.015300817787647247e-02 -4.906754791736602783e-01
3.307849764823913574e-01 1.402755230665206909e-01 4.159098565578460693e-01
6.818858534097671509e-02 4.382787272334098816e-02 -1.985599994659423828e-01
-1.702139526605606079e-01 1.018796488642692566e-01 -1.389980167150497437e-01
-8.364990353584289551e-02 1.663262695074081421e-01 -3.343544602394104004e-01
-1.761410683393478394e-01 -3.846134543418884277e-01 -3.220566511154174805e-01
-2.624061144888401031e-02 -2.190000861883163452e-01 -1.275212913751602173e-01
1.045568436384201050e-01 -6.615676283836364746e-01 4.150611460208892822e-01
2.880501747131347656e-01 3.584602102637290955e-02 -1.543042361736297607e-01
-6.313356757164001465e-02 -6.607376933097839355e-01 -4.114553034305572510e-01
-1.652814149856567383e-01 1.950144022703170776e-02 1.195892766118049622e-01
1.834349781274795532e-01 1.287608593702316284e-01 -2.644779086112976074e-01
2.409101873636245728e-01 7.582562565803527832e-01 2.788398861885070801e-01
1.804463192820549011e-02 6.670293211936950684e-02 2.485891878604888916e-01
-2.559112608432769775e-01 2.270019240677356720e-02 -3.740384578704833984e-01
-4.145013913512229919e-02 -2.090344578027725220e-01 -3.178242966532707214e-02
7.099531590938568115e-02 1.038987934589385986e-01 5.352585315704345703e-01
2.743339724838733673e-02 -5.505107045173645020e-01 -6.536629199981689453e-01
1.014715433120727539e-01 1.287608593702316284e-01 -4.543853104114532471e-01
-8.839425444602966309e-02 1.544345766305923462e-01 2.290571928024291992e-01
2.116866260766983032e-01 1.284098327159881592e-01 -4.224795997142791748e-01
2.271092124283313751e-02 -2.669798731803894043e-01 2.971771955490112305e-01
1.608945578336715698e-01 -6.162641048431396484e-01 9.899665415287017822e-02
-2.447716742753982544e-01 2.091947346925735474e-01 2.569766640663146973e-01
-2.415385246276855469e-01 7.149202227592468262e-01 5.878022313117980957e-01
1.319952905178070068e-01 1.129944995045661926e-01 4.719232618808746338e-01
5.597751960158348083e-02 -6.157009676098823547e-02 9.571026265621185303e-02
3.007383346557617188e-01 4.076908901333808899e-02 -3.833091259002685547e-01
1.721159815788269043e-01 -2.001058310270309448e-01 -3.074206709861755371e-01
-4.244433343410491943e-02 6.438343971967697144e-02 2.462303489446640015e-01
1.048969179391860962e-01 5.262411758303642273e-02 3.302864730358123779e-01
-1.596184819936752319e-01 1.038982048630714417e-01 2.761853337287902832e-01
-2.139236330986022949e-01 7.582562565803527832e-01 2.767787575721740723e-01
7.713545113801956177e-02 -4.362434148788452148e-01 4.655436873435974121e-01
1.721780598163604736e-01 1.038977131247520447e-01 -3.161354362964630127e-01
-7.978855073451995850e-02 -4.986333847045898438e-01 3.989209830760955811e-01
9.958783537149429321e-02 1.633617281913757324e-01 -5.919777154922485352e-01
-7.135132327675819397e-03 1.271419078111648560e-01 -1.930744946002960205e-01
