-4.794065952301025391e-01 2.875894606113433838e-01 2.976463735103607178e-01
-5.234214663505554199e-01 -2.500545382499694824e-01 -3.271644413471221924e-01
-2.996208071708679199e-01 4.436985850334167480e-01 3.049900829792022705e-01
-2.236906439065933228e-01 -3.707636296749114990e-01 -3.265865743160247803e-01
-2.219337373971939087e-01 1.117685250937938690e-02 -1.360480040311813354e-01
-7.725121378898620605e-01 -1.649750471115112305e-01 1.582972519099712372e-02
7.117628455162048340e-01 9.420140646398067474e-03 -2.283217161893844604e-01
1.061917617917060852e-01 -1.019421517848968506e-01 3.031517267227172852e-01
-3.777267932891845703e-01 -3.820458948612213135e-01 -3.271644413471221924e-01
-3.840165734291076660e-01 1.070280000567436218e-01 1.773667633533477783e-01
-7.740334272384643555e-01 -4.133590459823608398e-01 2.966631948947906494e-01
4.929886162281036377e-01 -8.418641984462738037e-02 -1.360480040311813354e-01
5.992797613143920898e-01 -3.142273724079132080e-01 3.049900829792022705e-01
-1.939889639616012573e-01 -1.121885702013969421e-01 -3.124634027481079102e-01
2.526155710220336914e-01 7.024289369583129883e-01 -2.944127842783927917e-02
-2.358290404081344604e-01 -1.649750471115112305e-01 2.642413042485713959e-02
5.419668555259704590e-01 -2.199058681726455688e-01 3.031517267227172852e-01
2.062920778989791870e-01 6.743745803833007812e-01 3.049900829792022705e-01
7.695983648300170898e-01 -3.228577375411987305e-01 -9.504543989896774292e-02
-5.829179883003234863e-01 -3.384952200576663017e-03 1.884938776493072510e-01
-1.758768707513809204e-01 8.822847902774810791e-02 -1.303486973047256470e-01
6.311601400375366211e-01 6.221319735050201416e-02 3.659084811806678772e-02
5.440214276313781738e-01 1.070280000567436218e-01 1.470483988523483276e-01
-2.893799245357513428e-01 5.038495063781738281e-01 -5.151534825563430786e-02
5.825523985549807549e-04 -1.590103656053543091e-01 -1.360480040311813354e-01
-8.593037724494934082e-01 -1.782786995172500610e-01 -2.052433490753173828e-01
-1.654556244611740112e-01 2.616742067039012909e-02 -2.527332603931427002e-01
9.541859850287437439e-03 -1.649750471115112305e-01 -8.985925465822219849e-02
-5.265309810638427734e-01 1.582654416561126709e-01 -5.483573302626609802e-02
5.701550245285034180e-01 -1.815350055694580078e-01 -4.097771048545837402e-01
7.695983648300170898e-01 -5.298320055007934570e-01 -1.201145872473716736e-01
9.343263506889343262e-02 -2.189855277538299561e-02 3.031517267227172852e-01
-7.740334272384643555e-01 -2.776134312152862549e-01 -2.649763822555541992e-01
3.662467002868652344e-02 1.133381500840187073e-01 -1.038572415709495544e-01
-5.378587841987609863e-01 1.355293393135070801e-01 1.566803902387619019e-01
6.428138017654418945e-01 -1.649750471115112305e-01 -1.726745516061782837e-01
3.611630499362945557e-01 -2.262334525585174561e-01 -3.253261148929595947e-01
-1.964158192276954651e-02 4.943292587995529175e-02 -2.192055583000183105e-01
-6.659843921661376953e-01 -1.649453639984130859e-01 -2.841453254222869873e-01
-2.264908552169799805e-01 -1.668128073215484619e-01 -3.176536858081817627e-01
-3.593703508377075195e-01 -2.769783437252044678e-01 -3.271644413471221924e-01
3.791103065013885498e-01 3.022623658180236816e-01 -5.600681155920028687e-02
-4.180659353733062744e-01 -3.727639317512512207e-01 -3.492160439491271973e-01
-1.737243533134460449e-01 -1.668128073215484619e-01 1.999603360891342163e-01
1.895083338022232056e-01 6.124095320701599121e-01 3.049900829792022705e-01
3.032528460025787354e-01 -1.649453639984130859e-01 -1.156834289431571960e-01
2.017621099948883057e-01 3.155322968959808350e-01 3.049900829792022705e-01
-7.740334272384643555e-01 -2.353767603635787964e-01 4.238652810454368591e-02
-3.749954402446746826e-01 4.922627806663513184e-01 -5.151534825563430786e-02
1.166576072573661804e-01 1.904184743762016296e-02 -1.360480040311813354e-01
7.458325475454330444e-02 -1.649750471115112305e-01 -1.534425765275955200e-01
-1.232228502631187439e-01 3.422476053237915039e-01 -2.794532291591167450e-02
-4.830542206764221191e-01 2.740916609764099121e-01 9.996571391820907593e-02
7.916508913040161133e-01 -1.956232488155364990e-01 2.327090129256248474e-02
-6.814765930175781250e-01 -3.601242601871490479e-01 3.049900829792022705e-01
-1.071899291127920151e-02 1.841488778591156006e-01 3.049900829792022705e-01
1.655625761486589909e-03 2.644422352313995361e-01 3.049900829792022705e-01
-8.243244886398315430e-02 1.239775344729423523e-01 3.049900829792022705e-01
5.435724854469299316e-01 -3.307153582572937012e-01 3.031517267227172852e-01
-4.398120641708374023e-01 3.238281607627868652e-01 -5.292543023824691772e-02
3.566689416766166687e-02 3.495981395244598389e-01 1.192539259791374207e-01
5.551204681396484375e-01 -1.647631675004959106e-01 -3.444834053516387939e-01
3.856657445430755615e-01 -1.649750471115112305e-01 -2.216120958328247070e-01
9.512089937925338745e-02 2.656299769878387451e-01 -6.228069216012954712e-02
-1.032084152102470398e-01 -1.649750471115112305e-01 7.785015553236007690e-02
1.896925568580627441e-01 3.495981395244598389e-01 5.211566388607025146e-02
4.626857638359069824e-01 -1.668128073215484619e-01 2.993567287921905518e-01
2.581141889095306396e-01 1.070280000567436218e-01 -8.789689093828201294e-02
4.006770551204681396e-01 5.005635619163513184e-01 -5.151534825563430786e-02
-3.824594020843505859e-01 -1.649750471115112305e-01 -2.447069585323333740e-01
-3.179093450307846069e-02 5.705590546131134033e-02 -1.360480040311813354e-01
-3.782231733202934265e-02 -1.668128073215484619e-01 -2.238441258668899536e-01
-1.957051455974578857e-01 2.179790884256362915e-01 -7.248377799987792969e-02
4.542279541492462158e-01 1.832500547170639038e-01 -8.145962655544281006e-02
8.055685758590698242e-01 -2.351159304380416870e-01 -8.393801748752593994e-02
2.393951267004013062e-01 3.422476053237915039e-01 -3.332355618476867676e-02
2.182889133691787720e-01 5.544208288192749023e-01 3.049900829792022705e-01
7.916508913040161133e-01 -2.760678827762603760e-01 -1.501129865646362305e-01
4.633131027221679688e-01 1.860221326351165771e-01 3.049900829792022705e-01
5.765252709388732910e-01 8.324377238750457764e-02 1.988588571548461914e-01
3.907571136951446533e-01 -1.890454888343811035e-01 3.049900829792022705e-01
-2.464810460805892944e-01 -1.649453639984130859e-01 -1.451534926891326904e-01
1.269838213920593262e-01 5.358571186661720276e-02 -2.109300494194030762e-01
-1.935836672782897949e-01 1.070280000567436218e-01 1.258684992790222168e-01
-4.111410677433013916e-01 -1.830650120973587036e-01 -3.253261148929595947e-01
-1.350005716085433960e-01 -8.404228836297988892e-02 3.031517267227172852e-01
-8.227227926254272461e-01 -2.218479514122009277e-01 3.015732169151306152e-01
5.784819126129150391e-01 6.609351933002471924e-02 -1.009541749954223633e-01
-7.519450187683105469e-01 -5.562291294336318970e-02 6.448531150817871094e-02
-3.546842932701110840e-01 2.610951960086822510e-01 -6.315013021230697632e-02
3.693222105503082275e-01 3.363669812679290771e-01 3.049900829792022705e-01
-2.484638690948486328e-01 -4.249321818351745605e-01 -3.271644413471221924e-01
6.349348425865173340e-01 -2.298723608255386353e-01 -3.492160439491271973e-01
4.831132590770721436e-01 -2.578094005584716797e-01 3.031517267227172852e-01
3.062256276607513428e-01 1.070280000567436218e-01 -1.046745181083679199e-01
6.887998580932617188e-01 -1.649453639984130859e-01 -2.802242934703826904e-01
-9.480313397943973541e-03 3.422476053237915039e-01 1.474798768758773804e-01
7.322553396224975586e-01 -1.647631675004959106e-01 -3.842970132827758789e-01
4.149456620216369629e-01 3.495981395244598389e-01 1.333596110343933105e-01
3.817476034164428711e-01 -1.262369751930236816e-01 3.031517267227172852e-01
1.210721880197525024e-01 -4.176970422267913818e-01 -3.492160439491271973e-01
5.398997068405151367e-01 1.233647614717483521e-01 2.656341195106506348e-01
3.004681468009948730e-01 -2.980961501598358154e-01 -3.492160439491271973e-01
-8.535045385360717773e-02 -1.632074266672134399e-02 -2.878802418708801270e-01
-2.263909876346588135e-01 7.024289369583129883e-01 -4.081748053431510925e-02
7.130029797554016113e-01 7.986300624907016754e-03 1.324559599161148071e-01
5.389310717582702637e-01 7.027540355920791626e-02 -7.535707950592041016e-02
-4.128726944327354431e-02 -4.832978919148445129e-02 -1.360480040311813354e-01
-7.009432315826416016e-01 -1.649453639984130859e-01 7.500340789556503296e-02
1.812493056058883667e-01 -3.197492361068725586e-01 3.049900829792022705e-01
4.643650949001312256e-01 4.618262052536010742e-01 2.733065485954284668e-01
-7.920398712158203125e-01 -3.783158361911773682e-01 -3.492160439491271973e-01
1.314585208892822266e-01 -2.488105446100234985e-01 3.031517267227172852e-01
-2.413179427385330200e-01 -2.229853123426437378e-01 -3.271644413471221924e-01
7.916508913040161133e-01 -4.277828037738800049e-01 -2.876019775867462158e-01
-4.688011109828948975e-01 5.207844972610473633e-01 2.566168606281280518e-01
-2.803044915199279785e-01 -1.649750471115112305e-01 -1.150992512702941895e-01
5.986166372895240784e-02 1.070280000567436218e-01 4.568328615278005600e-03
-7.740334272384643555e-01 -3.016041815280914307e-01 1.389459893107414246e-02
-7.960859537124633789e-01 -4.306266307830810547e-01 -1.663566529750823975e-01
7.695983648300170898e-01 -3.327292501926422119e-01 9.514293074607849121e-02
-5.060336589813232422e-01 -1.649453639984130859e-01 -3.079286217689514160e-01
-7.855968475341796875e-01 -2.502125799655914307e-01 -1.267941594123840332e-01
-4.150611460208892822e-01 2.723473608493804932e-01 -6.103020533919334412e-02
3.553047478199005127e-01 7.024289369583129883e-01 2.724848315119743347e-02
-6.683501601219177246e-01 -3.679760396480560303e-01 -3.253261148929595947e-01
4.734327793121337891e-01 -3.125140964984893799e-01 -3.271644413471221924e-01
-4.116123020648956299e-01 -1.649453639984130859e-01 6.581512093544006348e-02
5.366127490997314453e-01 2.386268973350524902e-02 3.049900829792022705e-01
-2.068400084972381592e-01 -1.668128073215484619e-01 -2.743436694145202637e-01
6.385068297386169434e-01 -3.388056755065917969e-01 3.049900829792022705e-01
7.695983648300170898e-01 -3.567413091659545898e-01 2.959573268890380859e-01
-8.383352309465408325e-02 6.166864037513732910e-01 3.049900829792022705e-01
-1.943923085927963257e-01 4.494628310203552246e-01 -5.151534825563430786e-02
-5.221716165542602539e-01 1.675736010074615479e-01 2.634786963462829590e-01
6.153653860092163086e-01 -1.649453639984130859e-01 2.702464759349822998e-01
-3.839457929134368896e-01 3.116763755679130554e-02 3.049900829792022705e-01
1.508485376834869385e-01 -1.649453639984130859e-01 -1.374878585338592529e-01
2.039340138435363770e-01 7.024289369583129883e-01 -3.151234984397888184e-02
-4.839122891426086426e-01 -2.048431634902954102e-01 3.031517267227172852e-01
7.695983648300170898e-01 -3.157971501350402832e-01 -2.961181337013840675e-03
-4.065771698951721191e-01 -2.940665185451507568e-01 -3.271644413471221924e-01
-6.129977703094482422e-01 -1.649750471115112305e-01 1.716325581073760986e-01
2.648897171020507812e-01 -1.649750471115112305e-01 -3.189044594764709473e-01
-2.170256227254867554e-01 -1.649750471115112305e-01 6.868503242731094360e-02
5.784819126129150391e-01 -8.615601807832717896e-02 -8.551836758852005005e-02
-6.117576360702514648e-01 5.605139955878257751e-02 3.049900829792022705e-01
-6.676607728004455566e-01 -2.855815589427947998e-01 -3.271644413471221924e-01
-4.631793871521949768e-02 3.760468363761901855e-01 3.049900829792022705e-01
-6.701496988534927368e-02 -1.649750471115112305e-01 1.637148261070251465e-01
2.690270356833934784e-02 7.024289369583129883e-01 -2.089124405756592751e-03
3.213503658771514893e-01 -4.703604616224765778e-03 -1.360480040311813354e-01
5.784819126129150391e-01 -1.562803536653518677e-01 5.242264270782470703e-02
-8.133631944656372070e-02 3.495981395244598389e-01 -4.649517941288650036e-04
-4.747738540172576904e-01 -1.649453639984130859e-01 1.215305253863334656e-01
6.954319477081298828e-01 -2.133319973945617676e-01 -3.271644413471221924e-01
-7.721960544586181641e-01 -1.983895003795623779e-01 1.599392145872116089e-01
2.835845351219177246e-01 -2.684516906738281250e-01 3.031517267227172852e-01
8.623307943344116211e-02 5.368672013282775879e-01 3.049900829792022705e-01
7.829381525516510010e-02 3.495981395244598389e-01 1.978417634963989258e-01
-4.461697041988372803e-01 -1.813488155603408813e-01 3.049900829792022705e-01
-1.698081642389297485e-01 -2.726798877120018005e-02 -2.938393652439117432e-01
5.204417705535888672e-01 -8.818786591291427612e-02 3.049900829792022705e-01
2.992580831050872803e-01 -4.236755669116973877e-01 -3.492160439491271973e-01
-2.566288709640502930e-01 3.267437517642974854e-01 3.049900829792022705e-01
3.877174258232116699e-01 6.311072707176208496e-01 3.049900829792022705e-01
-3.178259730339050293e-01 -1.668128073215484619e-01 -6.650047749280929565e-02
-7.960859537124633789e-01 -4.464785754680633545e-01 -1.222040727734565735e-01
7.677610516548156738e-01 -3.317256867885589600e-01 3.867761790752410889e-02
-3.237957507371902466e-02 -1.393755227327346802e-01 -1.360480040311813354e-01
3.297665119171142578e-01 -1.649750471115112305e-01 1.425775885581970215e-01
7.276545464992523193e-02 -4.213532060384750366e-02 -3.004297316074371338e-01
4.041288197040557861e-01 -3.094714879989624023e-01 -3.253261148929595947e-01
6.726405024528503418e-01 4.303260520100593567e-02 -1.693827807903289795e-01
-3.386771976947784424e-01 -1.668128073215484619e-01 2.518091164529323578e-02
2.699481248855590820e-01 -1.649750471115112305e-01 -1.907750219106674194e-01
-4.688011109828948975e-01 3.457430303096771240e-01 1.625406444072723389e-01
3.795058727264404297e-01 -1.647631675004959106e-01 -3.596857190132141113e-01
7.695983648300170898e-01 -2.135918289422988892e-01 -4.247927665710449219e-02
4.665175974369049072e-01 3.239794075489044189e-01 1.946440190076828003e-01
6.537876725196838379e-01 -1.668128073215484619e-01 5.552448332309722900e-02
-2.347421199083328247e-01 -1.649453639984130859e-01 -2.191988006234169006e-02
-7.960859537124633789e-01 -4.307536482810974121e-01 -3.026317059993743896e-01
-3.447866439819335938e-01 6.928609609603881836e-01 3.049900829792022705e-01
-8.622406721115112305e-01 -1.696538329124450684e-01 -2.478203326463699341e-01
-2.735095620155334473e-01 1.223049908876419067e-01 3.049900829792022705e-01
1.963944286108016968e-01 -1.668128073215484619e-01 -1.473409086465835571e-01
2.225658148527145386e-01 -1.649453639984130859e-01 -2.900046110153198242e-01
3.174118697643280029e-01 7.024289369583129883e-01 1.660874336957931519e-01
-5.829179883003234863e-01 -7.794070243835449219e-02 1.835091710090637207e-01
-4.665807485580444336e-01 3.451767563819885254e-01 3.049900829792022705e-01
-2.361305803060531616e-01 -2.948489785194396973e-01 3.031517267227172852e-01
7.253633737564086914e-01 -2.000067979097366333e-01 -3.492160439491271973e-01
-8.042529225349426270e-01 -2.401413768529891968e-01 1.293193101882934570e-01
-7.740334272384643555e-01 -5.035859942436218262e-01 5.289037153124809265e-02
-1.208783686161041260e-01 7.024289369583129883e-01 1.215179264545440674e-01
4.685101509094238281e-01 7.027540355920791626e-02 -1.262986809015274048e-01
4.264897108078002930e-01 2.198436558246612549e-01 -7.203921675682067871e-02
3.887917399406433105e-01 8.931054174900054932e-02 3.049900829792022705e-01
2.422767728567123413e-01 3.422476053237915039e-01 2.143404483795166016e-01
2.250441014766693115e-01 7.027540355920791626e-02 -8.836432546377182007e-02
6.695368289947509766e-01 4.494562372565269470e-02 2.139249816536903381e-02
-1.384969204664230347e-01 -1.787821054458618164e-01 -3.253261148929595947e-01
-7.628810405731201172e-02 -1.649453639984130859e-01 -1.964054703712463379e-01
-4.121300578117370605e-01 1.070280000567436218e-01 4.683087393641471863e-02
3.275693655014038086e-01 1.070280000567436218e-01 -5.241988226771354675e-02
-9.351405315101146698e-03 1.070280000567436218e-01 -8.607142418622970581e-02
-4.344434142112731934e-01 1.070280000567436218e-01 -9.363070130348205566e-02
2.114435434341430664e-01 -1.896689534187316895e-01 -3.271644413471221924e-01
-2.349350750446319580e-01 3.709479048848152161e-02 3.031517267227172852e-01
-5.690924525260925293e-01 -3.793639838695526123e-01 -3.492160439491271973e-01
2.463801056146621704e-01 1.070280000567436218e-01 2.571133077144622803e-01
-7.704188227653503418e-01 -2.343033999204635620e-01 -3.492160439491271973e-01
-4.175995588302612305e-01 -3.720762953162193298e-02 3.031517267227172852e-01
-2.217643894255161285e-03 2.946830093860626221e-01 2.657427191734313965e-01
2.550192177295684814e-01 -1.649750471115112305e-01 2.760699093341827393e-01
2.634760923683643341e-02 3.495981395244598389e-01 6.268951296806335449e-02
-4.349534213542938232e-01 -2.996068000793457031e-01 3.049900829792022705e-01
-3.868962824344635010e-01 7.024289369583129883e-01 2.091565169394016266e-02
-1.695783585309982300e-01 7.961262017488479614e-02 -8.183525502681732178e-02
5.149344801902770996e-01 -1.668128073215484619e-01 2.930189855396747589e-02
-1.762084662914276123e-01 -3.787288963794708252e-01 -3.271644413471221924e-01
-8.199264407157897949e-01 -2.239355146884918213e-01 -2.023171037435531616e-01
-1.992626041173934937e-01 1.196048315614461899e-02 3.031517267227172852e-01
-6.717854738235473633e-01 -1.649750471115112305e-01 -2.421724200248718262e-01
3.460392653942108154e-01 5.898654460906982422e-01 -5.151534825563430786e-02
-5.645498633384704590e-01 -1.649453639984130859e-01 2.010695636272430420e-01
3.202518224716186523e-01 -1.967062950134277344e-01 -4.002439975738525391e-01
-1.854400187730789185e-01 -1.647631675004959106e-01 -3.902503848075866699e-01
-3.869098424911499023e-01 -1.649750471115112305e-01 -4.664951562881469727e-02
-7.677543163299560547e-01 -1.821700781583786011e-01 -3.253261148929595947e-01
3.920108079910278320e-01 -1.649750471115112305e-01 -1.439414918422698975e-01
-7.740334272384643555e-01 -4.536254703998565674e-01 -2.587544620037078857e-01
-5.054237842559814453e-01 1.070280000567436218e-01 -5.829234793782234192e-02
-6.273012757301330566e-01 6.458870321512222290e-02 4.134886339306831360e-02
-4.981120228767395020e-01 -1.649750471115112305e-01 -7.674264162778854370e-02
1.537709087133407593e-01 6.866429448127746582e-01 3.049900829792022705e-01
-3.017355203628540039e-01 7.278103381395339966e-03 3.049900829792022705e-01
9.837583452463150024e-02 -1.668128073215484619e-01 2.381600998342037201e-02
-6.047552227973937988e-01 -1.649750471115112305e-01 -6.928581278771162033e-03
-2.216981202363967896e-01 5.111360549926757812e-01 3.049900829792022705e-01
4.643650949001312256e-01 3.468483686447143555e-01 6.907170265913009644e-02
-2.880709767341613770e-01 -1.591620892286300659e-01 -3.124634027481079102e-01
6.122859716415405273e-01 4.040306061506271362e-02 -2.342430502176284790e-01
3.941099643707275391e-01 3.495981395244598389e-01 4.790365695953369141e-03
2.802346274256706238e-02 -1.649750471115112305e-01 -1.302465703338384628e-02
8.318165540695190430e-01 -1.647631675004959106e-01 2.589012384414672852e-01
1.849066317081451416e-01 -2.320811003446578979e-01 -3.253261148929595947e-01
-4.051440954208374023e-01 -1.649750471115112305e-01 -2.055672109127044678e-01
-5.678164958953857422e-01 7.027540355920791626e-02 2.737351059913635254e-01
7.487753033638000488e-01 -1.752832084894180298e-01 3.031517267227172852e-01
4.724815785884857178e-01 5.236595496535301208e-02 3.031517267227172852e-01
4.470752477645874023e-01 1.070280000567436218e-01 -8.256215602159500122e-02
-1.142616011202335358e-02 -5.302041396498680115e-02 3.031517267227172852e-01
-5.798811316490173340e-01 -2.415705472230911255e-01 -3.492160439491271973e-01
5.797531455755233765e-02 -2.012226730585098267e-01 -3.968136012554168701e-01
-5.832320451736450195e-01 7.877682894468307495e-02 -3.944036364555358887e-02
-7.814382910728454590e-01 -3.391179144382476807e-01 -3.345692753791809082e-01
1.470583677291870117e-01 -2.971670962870121002e-02 -1.360480040311813354e-01
-5.497809648513793945e-01 1.135572716593742371e-01 -1.969888433814048767e-02
7.695983648300170898e-01 -2.173936218023300171e-01 6.487189233303070068e-02
5.352184772491455078e-01 -1.649750471115112305e-01 -6.784657388925552368e-02
-7.740334272384643555e-01 -2.882392406463623047e-01 1.916789859533309937e-01
5.063661336898803711e-01 -1.649453639984130859e-01 -1.685217618942260742e-01
-7.834569811820983887e-01 -2.502125799655914307e-01 -4.606155306100845337e-02
-2.896756827831268311e-01 3.422476053237915039e-01 -4.696066305041313171e-02
-4.688011109828948975e-01 3.378398418426513672e-01 7.003480195999145508e-02
1.335644721984863281e-01 3.495981395244598389e-01 1.165884882211685181e-01
-1.265224069356918335e-01 -3.995723426342010498e-01 -3.271644413471221924e-01
3.451704978942871094e-01 6.825961172580718994e-02 -1.625732779502868652e-01
-4.927307367324829102e-02 -2.170213013887405396e-01 -3.817256689071655273e-01
-6.943528652191162109e-01 -1.668128073215484619e-01 -1.696746349334716797e-01
-5.829179883003234863e-01 -6.988143175840377808e-02 -1.198188662528991699e-01
4.248578548431396484e-01 3.495981395244598389e-01 3.951613232493400574e-02
-1.323562697507441044e-03 3.422476053237915039e-01 2.732420898973941803e-02
9.109017997980117798e-02 3.230971097946166992e-01 3.049900829792022705e-01
4.706209599971771240e-01 -1.107902154326438904e-01 3.031517267227172852e-01
-3.037377297878265381e-01 -1.649453639984130859e-01 -1.493227630853652954e-01
4.490406215190887451e-01 -1.649453639984130859e-01 -1.862760782241821289e-01
-3.239935934543609619e-01 2.824263274669647217e-01 3.049900829792022705e-01
-6.028538346290588379e-01 6.913418322801589966e-02 1.863908171653747559e-01
-8.462074398994445801e-01 -1.979463994503021240e-01 -1.102980896830558777e-01
1.131893545389175415e-01 1.070280000567436218e-01 -7.182899862527847290e-02
2.420139908790588379e-01 -1.239672452211380005e-01 3.049900829792022705e-01
7.885608077049255371e-01 -2.502125799655914307e-01 1.784648559987545013e-02
-3.077024519443511963e-01 6.556817293167114258e-01 3.049900829792022705e-01
6.229137182235717773e-01 -1.649453639984130859e-01 2.261297851800918579e-01
-7.220882177352905273e-01 -2.289995364844799042e-02 -2.915763258934020996e-01
3.593751788139343262e-02 5.145829916000366211e-01 3.049900829792022705e-01
-2.736259102821350098e-01 -1.649750471115112305e-01 1.906609237194061279e-01
7.695983648300170898e-01 -4.733577668666839600e-01 -2.277826219797134399e-01
-7.228832840919494629e-01 -1.668128073215484619e-01 4.007277637720108032e-02
-7.558718919754028320e-01 -1.668128073215484619e-01 1.144524663686752319e-01
4.890811443328857422e-01 1.070280000567436218e-01 1.050318628549575806e-01
-1.162863522768020630e-01 5.350773334503173828e-01 -5.151534825563430786e-02
7.677610516548156738e-01 -3.188591301441192627e-01 -1.494953483343124390e-01
-4.746400415897369385e-01 -1.248462870717048645e-01 3.031517267227172852e-01
7.916508913040161133e-01 -3.888844549655914307e-01 9.818455576896667480e-02
-4.522365331649780273e-01 1.070280000567436218e-01 -1.377486437559127808e-02
-5.286156535148620605e-01 1.539226174354553223e-01 -8.525412529706954956e-03
-2.994114160537719727e-01 -2.473949193954467773e-01 3.049900829792022705e-01
-5.593402385711669922e-01 1.009321436285972595e-01 1.951142847537994385e-01
7.548973560333251953e-01 -1.178871914744377136e-01 -2.973017990589141846e-01
-1.654197573661804199e-01 3.495981395244598389e-01 1.357787698507308960e-01
4.869732260704040527e-01 2.464416623115539551e-01 1.578245162963867188e-01
1.674567759037017822e-01 3.422476053237915039e-01 2.916755974292755127e-01
-3.001754581928253174e-01 3.495981395244598389e-01 7.719664275646209717e-02
-9.158235043287277222e-02 -8.770933747291564941e-02 3.031517267227172852e-01
8.441760390996932983e-02 -1.649750471115112305e-01 -1.127436086535453796e-01
3.137652277946472168e-01 -1.649750471115112305e-01 -3.507842868566513062e-02
-3.025315701961517334e-01 -1.647631675004959106e-01 -3.821697533130645752e-01
1.504422724246978760e-01 -2.889228165149688721e-01 3.031517267227172852e-01
-3.253588080406188965e-01 -7.717090100049972534e-02 -3.100607395172119141e-01
2.995421886444091797e-01 6.748293638229370117e-01 3.049900829792022705e-01
3.091925978660583496e-01 1.500277221202850342e-01 3.049900829792022705e-01
-4.391537308692932129e-01 6.961607187986373901e-02 -1.511262208223342896e-01
1.296589523553848267e-01 4.925042390823364258e-01 3.049900829792022705e-01
3.736960589885711670e-01 3.824703991413116455e-01 -5.151534825563430786e-02
-3.938492536544799805e-01 1.070280000567436218e-01 1.037044823169708252e-01
4.711668938398361206e-02 -2.392949163913726807e-01 -3.271644413471221924e-01
-6.363815665245056152e-01 -1.649453639984130859e-01 -1.026632860302925110e-01
7.916508913040161133e-01 -3.427907526493072510e-01 -1.965761184692382812e-01
3.421065807342529297e-01 -3.536434471607208252e-01 -3.271644413471221924e-01
-4.087529480457305908e-01 2.145486772060394287e-01 -7.330977916717529297e-02
-4.435915648937225342e-01 1.325635146349668503e-02 -1.360480040311813354e-01
7.200713157653808594e-01 -4.906697571277618408e-02 3.049900829792022705e-01
5.222306847572326660e-01 -1.668128073215484619e-01 -1.294518113136291504e-01
1.822538077831268311e-01 -1.649750471115112305e-01 2.206117808818817139e-01
-7.339696884155273438e-01 -1.503157150000333786e-02 1.195292770862579346e-01
-4.688011109828948975e-01 6.379012465476989746e-01 1.416564732789993286e-01
5.645410716533660889e-02 4.964379072189331055e-01 -5.151534825563430786e-02
-6.857990622520446777e-01 -1.994744986295700073e-01 -3.981806933879852295e-01
1.120946705341339111e-01 -2.124796956777572632e-01 3.049900829792022705e-01
6.000719666481018066e-01 -1.649750471115112305e-01 -1.270986050367355347e-01
-2.730393111705780029e-01 -7.950082421302795410e-02 3.031517267227172852e-01
-7.921561598777770996e-02 -1.668582856655120850e-01 -3.492160439491271973e-01
2.923254668712615967e-01 4.492970108985900879e-01 -5.151534825563430786e-02
-8.920770883560180664e-02 1.070280000567436218e-01 -9.111886471509933472e-02
7.695983648300170898e-01 -5.163487792015075684e-01 -2.833531796932220459e-01
-3.834871947765350342e-01 3.422476053237915039e-01 1.293246913701295853e-02
-8.909668773412704468e-02 -2.175768762826919556e-01 3.049900829792022705e-01
-6.329210400581359863e-01 -3.059896826744079590e-01 -3.271644413471221924e-01
5.678377151489257812e-01 -1.649750471115112305e-01 -1.951139718294143677e-01
3.267811238765716553e-01 4.969615042209625244e-01 3.049900829792022705e-01
7.695983648300170898e-01 -4.224228560924530029e-01 1.979794502258300781e-01
4.367218613624572754e-01 1.009418442845344543e-01 3.049900829792022705e-01
7.532839179039001465e-01 -8.242909610271453857e-02 2.910516597330570221e-02
4.193573817610740662e-02 7.027540355920791626e-02 -8.786489069461822510e-02
-2.947553433477878571e-02 4.514378905296325684e-01 -5.151534825563430786e-02
7.695983648300170898e-01 -3.882900774478912354e-01 -2.182764373719692230e-02
7.515958547592163086e-01 -7.217840850353240967e-02 -1.554060280323028564e-01
1.350906342267990112e-01 -2.088475823402404785e-01 -3.902067542076110840e-01
6.291530728340148926e-01 -1.106976270675659180e-01 -3.124634027481079102e-01
1.437956839799880981e-01 -1.649750471115112305e-01 2.681550681591033936e-01
-7.165411114692687988e-01 -3.626209497451782227e-01 -3.253261148929595947e-01
-1.733287572860717773e-01 3.422476053237915039e-01 -4.598786309361457825e-02
3.222879767417907715e-01 5.914546251296997070e-01 3.049900829792022705e-01
6.637774705886840820e-01 -1.698177009820938110e-01 -3.271644413471221924e-01
3.015870749950408936e-01 3.389802575111389160e-02 3.049900829792022705e-01
-7.067287713289260864e-02 3.422476053237915039e-01 1.422750651836395264e-01
4.182258248329162598e-01 -1.649750471115112305e-01 1.505108326673507690e-01
-4.394552707672119141e-01 -1.649750471115112305e-01 -1.913955509662628174e-01
2.572551071643829346e-01 1.070280000567436218e-01 1.538898795843124390e-01
7.093039155006408691e-01 -1.668128073215484619e-01 1.420850306749343872e-01
2.008788138628005981e-01 3.422476053237915039e-01 -4.414824768900871277e-02
7.916508913040161133e-01 -3.063755929470062256e-01 1.290885508060455322e-01
4.593251347541809082e-01 1.070280000567436218e-01 6.655617803335189819e-02
-3.481288254261016846e-02 -1.515445411205291748e-01 3.031517267227172852e-01
7.916508913040161133e-01 -1.840316951274871826e-01 -1.813388764858245850e-01
-1.913215965032577515e-01 3.495981395244598389e-01 1.003816723823547363e-01
-2.118576765060424805e-01 1.278443187475204468e-01 -9.870159626007080078e-02
2.871933877468109131e-01 3.887400031089782715e-02 -2.365051209926605225e-01
5.006930232048034668e-01 -1.649750471115112305e-01 -3.134998977184295654e-01
-5.125813484191894531e-01 -1.370278298854827881e-01 3.049900829792022705e-01
-4.660280644893646240e-01 -1.649453639984130859e-01 1.314160972833633423e-02
-1.637171357870101929e-01 2.449765801429748535e-01 -6.641321629285812378e-02
5.900181531906127930e-01 3.276069089770317078e-02 3.049900829792022705e-01
7.695983648300170898e-01 -2.023493647575378418e-01 -3.120387196540832520e-01
4.060079157352447510e-01 -1.649750471115112305e-01 -1.578165031969547272e-02
-8.021159172058105469e-01 -2.470129132270812988e-01 6.484988331794738770e-02
-6.822984199970960617e-03 -3.031768500804901123e-01 3.049900829792022705e-01
3.556091785430908203e-01 3.422476053237915039e-01 2.047045826911926270e-01
6.402782797813415527e-01 2.158801257610321045e-02 -2.577150762081146240e-01
-4.223476946353912354e-01 3.780163079500198364e-02 -2.380205988883972168e-01
1.222444251179695129e-01 7.024289369583129883e-01 2.638044953346252441e-01
-6.856420040130615234e-01 -2.059106826782226562e-01 -3.271644413471221924e-01
-5.465754866600036621e-01 -1.649453639984130859e-01 3.243650868535041809e-02
1.437539756298065186e-01 -1.649750471115112305e-01 -2.925721108913421631e-01
-4.299173355102539062e-01 7.024289369583129883e-01 2.196635305881500244e-01
-8.954571932554244995e-02 -1.649453639984130859e-01 3.444134816527366638e-02
3.180111050605773926e-01 -1.649453639984130859e-01 -1.587123572826385498e-01
8.115189522504806519e-02 6.658508777618408203e-01 3.049900829792022705e-01
-7.408150434494018555e-01 -1.649750471115112305e-01 -2.137564271688461304e-01
5.859943851828575134e-02 6.338156014680862427e-02 -1.848400980234146118e-01
-2.752383351325988770e-01 1.474031899124383926e-02 -2.645264863967895508e-01
4.317865967750549316e-01 -1.649750471115112305e-01 -2.244210243225097656e-01
-4.337860345840454102e-01 3.422476053237915039e-01 2.035352289676666260e-01
-2.098936587572097778e-03 3.422476053237915039e-01 2.722584307193756104e-01
-2.633927762508392334e-01 -3.365754336118698120e-02 3.049900829792022705e-01
7.695983648300170898e-01 -3.972753584384918213e-01 -1.796420961618423462e-01
3.283421397209167480e-01 -2.436365745961666107e-02 -2.923607528209686279e-01
5.002964735031127930e-01 -1.649750471115112305e-01 2.880008220672607422e-01
-2.986250519752502441e-01 7.817374914884567261e-02 -1.366539895534515381e-01
-1.886542290449142456e-01 -2.232112288475036621e-01 -3.740474283695220947e-01
-3.804959654808044434e-01 1.994995176792144775e-01 3.049900829792022705e-01
-4.790051579475402832e-01 -2.675392925739288330e-01 -3.271644413471221924e-01
-2.159930020570755005e-01 3.422476053237915039e-01 -8.935067802667617798e-03
3.423984348773956299e-01 3.495981395244598389e-01 -1.198736112564802170e-02
-4.425007700920104980e-01 3.495981395244598389e-01 2.499120980501174927e-01
6.174888610839843750e-01 -2.551391124725341797e-01 -3.253261148929595947e-01
-3.754433989524841309e-01 -3.427083194255828857e-01 -3.271644413471221924e-01
3.995824158191680908e-01 -5.427759513258934021e-02 -1.360480040311813354e-01
-6.045128107070922852e-01 -1.821332424879074097e-01 -4.093912243843078613e-01
2.011260688304901123e-01 5.191875696182250977e-01 3.049900829792022705e-01
3.119491636753082275e-01 7.024289369583129883e-01 2.248857766389846802e-01
5.784819126129150391e-01 -5.514674633741378784e-02 2.824925184249877930e-01
2.667038440704345703e-01 -1.976215839385986328e-01 3.049900829792022705e-01
7.677610516548156738e-01 -3.344638645648956299e-01 -3.110972642898559570e-01
-1.298943767324090004e-03 2.315100468695163727e-02 3.049900829792022705e-01
7.503150105476379395e-01 -1.649453639984130859e-01 2.043244987726211548e-01
8.463779091835021973e-02 -3.372495174407958984e-01 3.031517267227172852e-01
1.548723727464675903e-01 -1.649750471115112305e-01 -2.351680546998977661e-01
-4.778978228569030762e-02 -1.649750471115112305e-01 -1.610374450683593750e-01
-1.305714249610900879e-01 -1.649750471115112305e-01 1.134314835071563721e-01
4.772772490978240967e-01 2.789416015148162842e-01 1.901747100055217743e-02
-7.495346069335937500e-01 -1.649750471115112305e-01 -1.068327501416206360e-01
5.161949992179870605e-01 7.027540355920791626e-02 -1.069411486387252808e-01
-6.908690929412841797e-01 3.337734937667846680e-02 -8.964730054140090942e-02
4.987072944641113281e-01 -1.668128073215484619e-01 -2.370005995035171509e-01
4.373976886272430420e-01 6.065784096717834473e-01 -5.151534825563430786e-02
7.192888855934143066e-01 1.269340864382684231e-04 -1.570805162191390991e-01
-3.433913886547088623e-01 -2.177213579416275024e-01 -3.271644413471221924e-01
4.277976751327514648e-01 3.684075549244880676e-02 -2.393770813941955566e-01
-4.434984922409057617e-01 1.560567021369934082e-01 3.049900829792022705e-01
7.492174506187438965e-01 -6.178392842411994934e-02 1.319963634014129639e-01
7.492009401321411133e-01 -6.172197684645652771e-02 -3.057324588298797607e-01
-1.946870237588882446e-02 3.422476053237915039e-01 -2.294893376529216766e-02
-7.721960544586181641e-01 -1.977301687002182007e-01 -2.264707684516906738e-01
-1.749799847602844238e-01 6.598965525627136230e-01 3.049900829792022705e-01
3.826910257339477539e-01 -1.649750471115112305e-01 -6.041577085852622986e-02
5.784819126129150391e-01 3.644903749227523804e-02 1.025254428386688232e-01
-8.636882156133651733e-02 -2.870970666408538818e-01 3.049900829792022705e-01
-3.555045723915100098e-01 -2.467792183160781860e-01 -3.553661704063415527e-01
4.338111281394958496e-01 7.024289369583129883e-01 2.629240751266479492e-01
4.643650949001312256e-01 6.296936273574829102e-01 1.382735371589660645e-01
-2.863266766071319580e-01 1.070280000567436218e-01 1.297726202756166458e-02
-8.800414949655532837e-02 4.484283924102783203e-02 -1.360480040311813354e-01
7.677610516548156738e-01 -2.495319098234176636e-01 -1.037967428565025330e-01
2.781596481800079346e-01 7.024289369583129883e-01 1.891634054481983185e-02
1.520110815763473511e-01 4.479774534702301025e-01 3.049900829792022705e-01
-2.427529171109199524e-02 -1.649750471115112305e-01 8.456074446439743042e-02
7.778767943382263184e-01 -4.613822698593139648e-01 3.049900829792022705e-01
2.416513711214065552e-01 7.024289369583129883e-01 9.800712019205093384e-02
4.370738267898559570e-01 -1.649750471115112305e-01 1.476384233683347702e-02
-7.960859537124633789e-01 -4.751040041446685791e-01 2.161681354045867920e-01
4.077357351779937744e-01 2.787197567522525787e-02 3.049900829792022705e-01
-7.870541214942932129e-01 -1.649750471115112305e-01 2.803574800491333008e-01
5.600062012672424316e-01 -1.202591229230165482e-02 -2.852487266063690186e-01
-1.163590699434280396e-01 -1.889843940734863281e-01 -4.053935706615447998e-01
-2.735551297664642334e-01 -1.649750471115112305e-01 2.489638328552246094e-01
-3.777219355106353760e-01 4.683440178632736206e-02 -2.238916307687759399e-01
2.744936048984527588e-01 -2.372015565633773804e-01 -3.253261148929595947e-01
4.871409237384796143e-01 2.459248453378677368e-01 2.815209627151489258e-01
7.526362538337707520e-01 -3.195301294326782227e-01 3.049900829792022705e-01
-2.542319893836975098e-01 6.574543565511703491e-02 -1.757123172283172607e-01
-7.747732400894165039e-01 -5.324770808219909668e-01 -1.384496986865997314e-01
3.571363538503646851e-02 -1.649750471115112305e-01 -3.128076195716857910e-01
3.879200816154479980e-01 4.071699678897857666e-01 3.049900829792022705e-01
2.916632592678070068e-01 -3.479063510894775391e-01 -3.253261148929595947e-01
7.916508913040161133e-01 -4.929358959197998047e-01 1.019495129585266113e-01
3.896682262420654297e-01 6.638215184211730957e-01 -5.151534825563430786e-02
-1.340619921684265137e-01 -2.145662754774093628e-01 -3.271644413471221924e-01
3.987310826778411865e-02 -2.308080196380615234e-01 3.049900829792022705e-01
4.105107486248016357e-01 1.070280000567436218e-01 -9.309160709381103516e-02
-7.740334272384643555e-01 -3.325343430042266846e-01 -2.612395584583282471e-01
1.271942630410194397e-02 1.333642303943634033e-01 3.049900829792022705e-01
3.399424254894256592e-01 -2.216065227985382080e-01 3.031517267227172852e-01
-8.593726158142089844e-02 3.493227660655975342e-01 3.049900829792022705e-01
7.695983648300170898e-01 -4.943641424179077148e-01 2.740783393383026123e-01
1.551467478275299072e-01 -1.783502548933029175e-01 -3.492160439491271973e-01
-3.324068188667297363e-01 5.568622350692749023e-01 -5.151534825563430786e-02
-1.050651967525482178e-01 -3.382646739482879639e-01 -3.253261148929595947e-01
4.643650949001312256e-01 5.798388123512268066e-01 2.169399261474609375e-01
8.937719464302062988e-02 2.077354863286018372e-02 3.031517267227172852e-01
-7.855784296989440918e-01 -1.647631675004959106e-01 -1.040091812610626221e-01
-1.994070224463939667e-02 -1.649750471115112305e-01 2.339272797107696533e-01
-1.768513023853302002e-01 1.070280000567436218e-01 2.329208403825759888e-01
-7.221211791038513184e-01 -1.649750471115112305e-01 2.128947675228118896e-01
-8.053126335144042969e-01 -2.390243858098983765e-01 2.725396156311035156e-01
2.386785894632339478e-01 1.474486142396926880e-01 3.049900829792022705e-01
-5.663582086563110352e-01 9.589896351099014282e-02 8.982662111520767212e-02
-2.548903822898864746e-01 3.422476053237915039e-01 1.098013073205947876e-01
5.509870648384094238e-01 1.024350300431251526e-01 -1.459566690027713776e-02
4.520715773105621338e-01 6.571506857872009277e-01 3.049900829792022705e-01
2.770775556564331055e-01 1.070280000567436218e-01 1.861716806888580322e-01
2.367947064340114594e-02 -4.030551314353942871e-01 -3.492160439491271973e-01
-5.023482441902160645e-01 9.488863497972488403e-02 -1.216465607285499573e-01
3.305848538875579834e-01 2.029823362827301025e-01 -7.619383931159973145e-02
-7.960859537124633789e-01 -4.429017305374145508e-01 6.439736485481262207e-02
-2.369789779186248779e-01 6.030917167663574219e-01 3.049900829792022705e-01
-7.633106708526611328e-01 -1.668128073215484619e-01 -2.741953134536743164e-01
-1.639983206987380981e-01 3.495981395244598389e-01 2.872527763247489929e-02
-1.521517783403396606e-01 2.494444996118545532e-01 3.049900829792022705e-01
-3.585074245929718018e-01 -1.668128073215484619e-01 -2.135915905237197876e-01
5.272067189216613770e-01 1.477569341659545898e-01 2.914496660232543945e-01
-6.969135403633117676e-01 -1.649750471115112305e-01 -1.160399541258811951e-01
3.634667992591857910e-01 -2.687484025955200195e-01 3.049900829792022705e-01
5.554016232490539551e-01 9.982098639011383057e-02 2.973806858062744141e-01
-2.779144346714019775e-01 7.024289369583129883e-01 1.044830605387687683e-01
-2.684104442596435547e-01 3.737500309944152832e-02 -1.360480040311813354e-01
5.663047432899475098e-01 -3.906791806221008301e-01 -3.492160439491271973e-01
4.584031179547309875e-02 1.837125420570373535e-01 -8.133057504892349243e-02
2.137095034122467041e-01 -1.649750471115112305e-01 -2.729438431560993195e-02
1.831642538309097290e-01 -2.051291763782501221e-01 -3.935663998126983643e-01
4.489149432629346848e-03 1.070280000567436218e-01 -2.884276397526264191e-02
1.059949398040771484e-01 -2.436294918879866600e-03 -2.787630856037139893e-01
-5.053151845932006836e-01 1.070280000567436218e-01 1.100422814488410950e-02
1.648931652307510376e-01 4.289083182811737061e-01 -5.151534825563430786e-02
7.695983648300170898e-01 -3.558318316936492920e-01 -1.430698186159133911e-01
-7.463310360908508301e-01 -1.649453639984130859e-01 2.794528305530548096e-01
-4.025562703609466553e-01 4.258764088153839111e-01 -5.151534825563430786e-02
7.916508913040161133e-01 -3.289313018321990967e-01 -2.797966897487640381e-01
-3.306450545787811279e-01 1.070280000567436218e-01 1.995220780372619629e-01
4.643650949001312256e-01 5.567381978034973145e-01 1.045014858245849609e-01
7.695983648300170898e-01 -3.759820163249969482e-01 1.412841528654098511e-01
3.921707570552825928e-01 -1.649453639984130859e-01 8.641364425420761108e-02
-3.933479785919189453e-01 1.070280000567436218e-01 2.862390279769897461e-01
5.338251963257789612e-02 -3.575276732444763184e-01 -3.253261148929595947e-01
-6.665554642677307129e-01 -4.837770462036132812e-01 -3.271644413471221924e-01
-2.845048010349273682e-01 7.024289369583129883e-01 1.473577022552490234e-01
4.501246213912963867e-01 -3.371602892875671387e-01 3.049900829792022705e-01
-3.512461185455322266e-01 1.070280000567436218e-01 -9.367462247610092163e-02
2.291154414415359497e-01 2.224014401435852051e-01 3.049900829792022705e-01
7.989287376403808594e-01 -2.440459281206130981e-01 2.093382775783538818e-01
-3.508078455924987793e-01 -1.649750471115112305e-01 1.764989793300628662e-01
-3.897818028926849365e-01 -1.647631675004959106e-01 -3.482318818569183350e-01
-1.326531618833541870e-01 -1.649750471115112305e-01 -1.554661244153976440e-01
-5.937066674232482910e-01 -1.894158869981765747e-01 3.049900829792022705e-01
7.562392950057983398e-01 -5.271627306938171387e-01 -3.271644413471221924e-01
3.639487028121948242e-01 -1.977728605270385742e-01 -3.492160439491271973e-01
-4.422457814216613770e-01 -3.905773758888244629e-01 -3.271644413471221924e-01
4.592184722423553467e-01 -1.649750471115112305e-01 1.422799229621887207e-01
8.691411465406417847e-02 3.495981395244598389e-01 -1.960242912173271179e-02
7.677610516548156738e-01 -2.569037675857543945e-01 -3.268193006515502930e-01
7.916508913040161133e-01 -4.935661256313323975e-01 -1.674028635025024414e-01
-2.091534584760665894e-01 -1.668128073215484619e-01 -1.293781250715255737e-01
-7.432312965393066406e-01 -2.247238010168075562e-01 3.049900829792022705e-01
2.740388512611389160e-01 3.495981395244598389e-01 1.285445988178253174e-01
6.097010374069213867e-01 -1.649750471115112305e-01 -1.630230434238910675e-02
2.388298511505126953e-01 -2.636502087116241455e-01 -3.271644413471221924e-01
-2.861826913431286812e-03 -3.764765262603759766e-01 -3.271644413471221924e-01
5.110473632812500000e-01 1.070280000567436218e-01 2.034392505884170532e-01
1.586809456348419189e-01 3.495981395244598389e-01 1.438526064157485962e-01
3.490731120109558105e-01 6.691397428512573242e-01 -5.151534825563430786e-02
5.242697596549987793e-01 9.989564865827560425e-02 4.332170635461807251e-02
-4.688011109828948975e-01 6.921687126159667969e-01 6.088770925998687744e-02
-4.401359260082244873e-01 -1.647631675004959106e-01 -3.327939510345458984e-01
-7.224585413932800293e-01 -1.649750471115112305e-01 -3.469898402690887451e-01
-7.558612823486328125e-01 -4.866296350955963135e-01 -3.492160439491271973e-01
-3.406057357788085938e-01 -3.910794481635093689e-02 3.031517267227172852e-01
-3.801944255828857422e-01 3.495981395244598389e-01 2.791716456413269043e-01
5.784819126129150391e-01 2.857978269457817078e-02 -2.991047501564025879e-02
6.267000436782836914e-01 -3.310518264770507812e-01 -3.253261148929595947e-01
2.870266139507293701e-01 3.754543960094451904e-01 3.049900829792022705e-01
3.903227448463439941e-01 -1.649750471115112305e-01 2.061405479907989502e-01
-4.124151170253753662e-01 -1.649750471115112305e-01 2.994284927845001221e-01
-3.417372331023216248e-02 -1.144253388047218323e-01 -3.124634027481079102e-01
-1.951728463172912598e-01 -2.693359553813934326e-01 -3.492160439491271973e-01
-3.449911996722221375e-02 6.194275021553039551e-01 3.049900829792022705e-01
1.025509238243103027e-01 -2.852567434310913086e-01 -3.253261148929595947e-01
-3.243649601936340332e-01 -1.668128073215484619e-01 -3.051497340202331543e-01
-4.000226855278015137e-01 -2.347571849822998047e-01 -3.271644413471221924e-01
-8.855145424604415894e-03 1.070280000567436218e-01 4.779203608632087708e-02
2.674019634723663330e-01 -1.649453639984130859e-01 -7.193595170974731445e-02
4.023758172988891602e-01 -3.062524199485778809e-01 3.049900829792022705e-01
8.762454986572265625e-02 -7.436570525169372559e-02 -3.095643222332000732e-01
2.261455655097961426e-01 3.495981395244598389e-01 4.862229898571968079e-02
-1.616790443658828735e-01 -3.613254055380821228e-02 -1.360480040311813354e-01
1.055915802717208862e-01 4.379158616065979004e-01 -5.151534825563430786e-02
3.436162173748016357e-01 -1.668128073215484619e-01 3.569465130567550659e-02
8.138354122638702393e-02 -1.649750471115112305e-01 2.219401448965072632e-01
-6.429758071899414062e-01 -1.649750471115112305e-01 -1.633693277835845947e-01
5.914056897163391113e-01 -1.649453639984130859e-01 -2.394003421068191528e-01
3.940877020359039307e-01 -2.418449521064758301e-01 -3.271644413471221924e-01
3.681111931800842285e-01 -3.445524871349334717e-01 3.031517267227172852e-01
2.095150202512741089e-01 -1.668128073215484619e-01 1.708762794733047485e-01
6.005635261535644531e-01 -1.760894358158111572e-01 -3.492160439491271973e-01
7.530037164688110352e-01 -8.039458096027374268e-02 2.588091194629669189e-01
-2.386719137430191040e-01 -1.649750471115112305e-01 1.101794540882110596e-01
-4.006480574607849121e-01 -1.649750471115112305e-01 -7.063064258545637131e-03
1.656281054019927979e-01 2.486891746520996094e-01 3.049900829792022705e-01
-3.371549248695373535e-01 3.422476053237915039e-01 2.558547556400299072e-01
5.647068619728088379e-01 -4.550168514251708984e-01 -3.271644413471221924e-01
-2.813507020473480225e-01 -1.649750471115112305e-01 1.152155399322509766e-01
8.411450386047363281e-01 -1.987792849540710449e-01 -3.487884402275085449e-01
-1.376756876707077026e-01 -1.668128073215484619e-01 -2.332996279001235962e-01
-3.251144587993621826e-01 -7.111301273107528687e-02 -1.360480040311813354e-01
7.916508913040161133e-01 -3.593049347400665283e-01 -7.894003391265869141e-02
-2.466419935226440430e-01 1.070280000567436218e-01 -7.791526615619659424e-02
-6.343657970428466797e-01 -1.649750471115112305e-01 2.745277993381023407e-02
-2.076117992401123047e-01 3.495981395244598389e-01 2.997533082962036133e-01
-5.678988695144653320e-01 -8.653305470943450928e-02 3.049900829792022705e-01
-7.040682435035705566e-01 -2.734460830688476562e-01 -3.253261148929595947e-01
-5.829179883003234863e-01 1.391267217695713043e-02 2.374052256345748901e-01
-7.593324184417724609e-01 -1.165213137865066528e-01 9.863638877868652344e-02
3.952356874942779541e-01 5.454985499382019043e-01 3.049900829792022705e-01
7.916508913040161133e-01 -3.189783990383148193e-01 2.169409096240997314e-01
-3.619417250156402588e-01 -1.668128073215484619e-01 -1.380521506071090698e-01
-5.482897162437438965e-01 1.162100955843925476e-01 2.353070080280303955e-01
3.058339059352874756e-01 -1.158833280205726624e-01 3.031517267227172852e-01
-5.774009227752685547e-01 -1.649750471115112305e-01 7.796455919742584229e-02
7.916508913040161133e-01 -4.039248824119567871e-01 -2.604900598526000977e-01
-4.852406382560729980e-01 4.415928572416305542e-02 -2.284021973609924316e-01
7.695983648300170898e-01 -3.492075502872467041e-01 -2.243977636098861694e-01
-1.228592470288276672e-01 -1.649750471115112305e-01 -1.089127212762832642e-01
-4.688011109828948975e-01 4.024770855903625488e-01 2.766342163085937500e-01
-7.960859537124633789e-01 -4.103096723556518555e-01 -6.701873242855072021e-02
4.643650949001312256e-01 4.205562174320220947e-01 3.036113381385803223e-01
7.560851424932479858e-02 7.024289369583129883e-01 1.873066462576389313e-02
4.565637111663818359e-01 -1.649750471115112305e-01 2.218635380268096924e-01
7.695983648300170898e-01 -4.987893700599670410e-01 7.410246133804321289e-02
-4.688011109828948975e-01 6.080783605575561523e-01 6.858370453119277954e-02
3.973125815391540527e-01 7.024289369583129883e-01 1.615623235702514648e-01
5.234300494194030762e-01 -1.649750471115112305e-01 -2.060083597898483276e-01
-7.960859537124633789e-01 -3.824444115161895752e-01 -4.012256860733032227e-02
-3.719828724861145020e-01 7.024289369583129883e-01 -1.178481243550777435e-02
