-2.322067171335220337e-01 -1.491739451885223389e-01 3.104520440101623535e-01
-3.715064525604248047e-01 -4.857281744480133057e-01 3.172616064548492432e-01
2.115018963813781738e-01 -4.383642077445983887e-01 -5.904522538185119629e-01
2.672466635704040527e-01 4.864780902862548828e-01 -2.759449183940887451e-01
3.489747643470764160e-01 3.924048244953155518e-01 3.130274713039398193e-01
7.678876817226409912e-02 -3.448894321918487549e-01 -5.904522538185119629e-01
2.084258198738098145e-01 -4.141250848770141602e-01 -1.822544932365417480e-01
-3.106345534324645996e-01 -5.245211720466613770e-01 -5.502579212188720703e-01
1.702379994094371796e-02 -4.141250848770141602e-01 -5.060233473777770996e-01
3.028534352779388428e-01 3.388944268226623535e-01 4.805591702461242676e-01
-1.656224876642227173e-01 1.078641042113304138e-01 -5.216450095176696777e-01
-8.201340585947036743e-02 1.729853451251983643e-01 5.414614677429199219e-01
-3.446282148361206055e-01 4.864780902862548828e-01 -3.508720099925994873e-01
-2.125950157642364502e-01 3.125728964805603027e-01 5.891066193580627441e-01
4.795735701918601990e-02 3.388944268226623535e-01 -5.164200663566589355e-01
-2.039557546377182007e-01 -1.259333491325378418e-01 -5.472123026847839355e-01
-3.754394054412841797e-01 -3.449853658676147461e-01 3.368885219097137451e-01
3.726334571838378906e-01 2.065496444702148438e-01 -4.293150305747985840e-01
4.660076275467872620e-02 4.864780902862548828e-01 3.124574720859527588e-01
3.489747643470764160e-01 -2.222915738821029663e-01 -1.521937847137451172e-01
1.690048128366470337e-01 -4.141250848770141602e-01 3.537148237228393555e-01
2.406373172998428345e-01 6.813435256481170654e-02 5.450097322463989258e-01
3.562480583786964417e-02 1.250732690095901489e-01 1.842394620180130005e-01
3.726334571838378906e-01 2.474326938390731812e-01 2.943695783615112305e-01
3.675671219825744629e-01 3.699383735656738281e-01 -3.246036767959594727e-01
-6.217075884342193604e-02 3.156518340110778809e-01 2.856951653957366943e-01
-3.574416786432266235e-02 -2.280361950397491455e-01 -5.904522538185119629e-01
3.302788734436035156e-01 -3.619589507579803467e-01 -5.427463650703430176e-01
-8.541704714298248291e-02 4.864780902862548828e-01 2.482026368379592896e-01
-3.672561943531036377e-01 -4.710649549961090088e-01 -1.698389463126659393e-02
1.876579672098159790e-01 4.574253559112548828e-01 -5.599507689476013184e-01
-2.180641293525695801e-01 1.250732690095901489e-01 3.592855930328369141e-01
7.593187689781188965e-02 1.018316373229026794e-01 2.673108577728271484e-01
-3.860024213790893555e-01 -5.596777200698852539e-01 -5.688550472259521484e-01
-2.410492748022079468e-01 4.592341482639312744e-01 -5.904522538185119629e-01
1.814402490854263306e-01 -4.710649549961090088e-01 5.343868732452392578e-01
-3.436164855957031250e-01 -3.090479969978332520e-01 -5.236609578132629395e-01
1.602040529251098633e-01 -1.491739451885223389e-01 -2.188150584697723389e-01
-9.348737075924873352e-03 4.864780902862548828e-01 1.378597319126129150e-01
3.633358478546142578e-01 -2.489037811756134033e-01 4.439644142985343933e-02
3.675671219825744629e-01 -3.275007009506225586e-01 -4.599704146385192871e-01
-2.599475681781768799e-01 -4.695411622524261475e-01 1.179810836911201477e-01
-3.436164855957031250e-01 -3.278887271881103516e-02 -1.034314781427383423e-01
-7.902747392654418945e-02 7.510732859373092651e-02 -5.633546113967895508e-01
2.889645099639892578e-01 8.317657560110092163e-02 3.794388175010681152e-01
3.633358478546142578e-01 1.496439427137374878e-01 -6.593544781208038330e-02
-3.436164855957031250e-01 -8.009408414363861084e-02 -1.889690011739730835e-02
3.489747643470764160e-01 2.280907630920410156e-01 -1.071317121386528015e-01
-3.529121875762939453e-01 3.366819024085998535e-01 5.251196622848510742e-01
-3.953171074390411377e-01 4.864780902862548828e-01 -1.696604043245315552e-01
1.932354643940925598e-02 3.156518340110778809e-01 2.830465734004974365e-01
-3.334847092628479004e-02 -4.141250848770141602e-01 -1.096634417772293091e-01
-5.967608653008937836e-03 -4.693582653999328613e-02 5.414614677429199219e-01
3.744821250438690186e-01 4.556773602962493896e-01 5.891066193580627441e-01
7.020938396453857422e-02 3.587331771850585938e-01 5.891066193580627441e-01
-2.495726346969604492e-01 4.864780902862548828e-01 5.981572270393371582e-01
1.105924546718597412e-01 -2.613230645656585693e-01 -5.904522538185119629e-01
-9.114372543990612030e-03 -1.491739451885223389e-01 -3.661850094795227051e-01
3.091139197349548340e-01 4.864780902862548828e-01 3.184643089771270752e-01
3.633358478546142578e-01 7.971480488777160645e-02 -2.592411637306213379e-01
3.085809946060180664e-01 3.098445236682891846e-01 4.322689771652221680e-01
3.726334571838378906e-01 -2.966581583023071289e-01 5.262919664382934570e-01
-3.155269473791122437e-02 -5.174551010131835938e-01 -4.881909787654876709e-01
3.048911690711975098e-01 -4.141250848770141602e-01 -1.273409575223922729e-01
-2.110218107700347900e-01 -4.231661856174468994e-01 -5.613387227058410645e-01
2.879318594932556152e-01 3.156518340110778809e-01 -4.807600677013397217e-01
7.704432308673858643e-02 -1.259333491325378418e-01 3.674565255641937256e-01
-3.462584316730499268e-01 -5.245211720466613770e-01 -1.004589423537254333e-01
-2.737186849117279053e-01 5.166927576065063477e-01 2.541344165802001953e-01
-3.011118173599243164e-01 -1.828725486993789673e-01 -2.505885958671569824e-01
3.036514520645141602e-01 1.250732690095901489e-01 2.927232086658477783e-01
-1.049127578735351562e-01 -1.685059815645217896e-01 -5.904522538185119629e-01
-2.114873230457305908e-01 5.098251104354858398e-01 -6.149441003799438477e-01
1.199670061469078064e-01 -7.783090323209762573e-02 -5.904522538185119629e-01
2.237691879272460938e-01 -1.259333491325378418e-01 4.835070371627807617e-01
-1.723066568374633789e-01 7.250243425369262695e-02 5.612166523933410645e-01
6.612487882375717163e-02 3.388944268226623535e-01 -1.599638015031814575e-01
2.798189222812652588e-01 -8.756778389215469360e-02 5.612166523933410645e-01
1.362261772155761719e-01 -5.245211720466613770e-01 4.878152310848236084e-01
2.889645099639892578e-01 -1.669881641864776611e-01 4.525903463363647461e-01
-2.599475681781768799e-01 -4.628750383853912354e-01 -1.978073036298155785e-03
3.320610523223876953e-01 4.864780902862548828e-01 -3.705483078956604004e-01
3.477274179458618164e-01 -5.524111390113830566e-01 -4.470153450965881348e-01
-3.715064525604248047e-01 9.832046180963516235e-02 -5.338125824928283691e-01
3.675671219825744629e-01 -1.004723235964775085e-01 4.804214239120483398e-01
-3.529121875762939453e-01 3.324639201164245605e-01 3.446404635906219482e-01
-3.314308822154998779e-01 4.795060753822326660e-01 5.633807778358459473e-01
-2.329439222812652588e-01 5.166927576065063477e-01 -1.603123918175697327e-02
3.047895431518554688e-01 4.864780902862548828e-01 -1.642454415559768677e-01
-3.436164855957031250e-01 -3.357086777687072754e-01 -2.060090750455856323e-02
-3.248179852962493896e-01 -4.431749880313873291e-01 4.058705270290374756e-01
-2.592730522155761719e-01 -1.795326918363571167e-02 -5.904522538185119629e-01
-3.655860722064971924e-01 4.864780902862548828e-01 4.043296277523040771e-01
1.701543033123016357e-01 -3.349847495555877686e-01 5.612166523933410645e-01
-3.510226309299468994e-01 -1.259333491325378418e-01 -3.091672062873840332e-01
-2.978837192058563232e-01 -5.245211720466613770e-01 4.060738086700439453e-01
-3.451355397701263428e-01 -5.245211720466613770e-01 -2.351036816835403442e-01
3.108381628990173340e-01 4.540623426437377930e-01 -5.904522538185119629e-01
2.483294159173965454e-01 4.501445591449737549e-01 5.414614677429199219e-01
-1.445391774177551270e-02 -1.259333491325378418e-01 -2.397121042013168335e-01
2.288630753755569458e-01 -4.141250848770141602e-01 -3.337198495864868164e-01
3.259430825710296631e-01 4.864780902862548828e-01 5.760137438774108887e-01
-2.594706416130065918e-02 -5.035604834556579590e-01 5.612166523933410645e-01
-3.665569722652435303e-01 3.110044598579406738e-01 1.220309138298034668e-01
-2.615007758140563965e-01 -2.487878799438476562e-01 5.414614677429199219e-01
3.414992392063140869e-01 -6.242165565490722656e-01 6.212668418884277344e-01
4.377746488898992538e-03 4.664540886878967285e-01 -5.765073299407958984e-01
-1.945470124483108521e-01 -5.574475228786468506e-02 5.612166523933410645e-01
1.206842511892318726e-01 3.098445236682891846e-01 5.406435728073120117e-01
1.689525544643402100e-01 3.550035059452056885e-01 5.612166523933410645e-01
4.334276169538497925e-02 6.696966290473937988e-02 5.523360967636108398e-01
-2.732379734516143799e-01 3.382085263729095459e-01 -5.520430207252502441e-01
-2.930254340171813965e-01 -1.828725486993789673e-01 -5.230776071548461914e-01
3.489747643470764160e-01 -8.382163010537624359e-03 1.171317845582962036e-01
-3.715064525604248047e-01 9.594546258449554443e-02 -3.392906188964843750e-01
3.255802094936370850e-01 -1.259333491325378418e-01 2.957793772220611572e-01
-2.116602212190628052e-01 -2.318361699581146240e-01 5.600548386573791504e-01
3.633358478546142578e-01 -3.210293352603912354e-01 -2.317406982183456421e-01
2.852063477039337158e-01 3.398985862731933594e-01 5.891066193580627441e-01
-1.826682537794113159e-01 4.864780902862548828e-01 -4.579041898250579834e-01
-3.715064525604248047e-01 -2.533602118492126465e-01 -8.755316585302352905e-02
-1.484399288892745972e-01 4.123423695564270020e-01 5.414614677429199219e-01
-3.909224569797515869e-01 -5.310209989547729492e-01 6.175475716590881348e-01
-1.379871219396591187e-01 -4.373648166656494141e-01 -4.798604249954223633e-01
-3.436164855957031250e-01 2.025225907564163208e-01 5.084158778190612793e-01
6.240051984786987305e-02 1.403605937957763672e-01 5.414614677429199219e-01
-3.436164855957031250e-01 4.485200941562652588e-01 4.964288175106048584e-01
-3.608722090721130371e-01 2.807898521423339844e-01 -1.408707946538925171e-01
1.767852753400802612e-01 -3.325537443161010742e-01 -5.625622868537902832e-01
1.529631912708282471e-01 3.388944268226623535e-01 4.040009379386901855e-01
-4.603850841522216797e-02 1.018316373229026794e-01 5.435790494084358215e-02
8.543087542057037354e-02 3.156518340110778809e-01 -4.173393845558166504e-01
3.075454533100128174e-01 -1.326528489589691162e-01 5.507590770721435547e-01
9.312774240970611572e-02 4.333377256989479065e-02 5.612166523933410645e-01
-2.599475681781768799e-01 8.300938457250595093e-02 8.992017246782779694e-03
-2.619567811489105225e-01 2.819545567035675049e-01 -4.539987444877624512e-01
-3.611904382705688477e-01 4.012088850140571594e-02 5.891066193580627441e-01
3.153040707111358643e-01 4.195248335599899292e-02 5.414614677429199219e-01
3.633358478546142578e-01 -1.742607504129409790e-01 -1.279147062450647354e-02
3.675671219825744629e-01 1.358137000352144241e-03 5.148834586143493652e-01
-3.715064525604248047e-01 3.394549190998077393e-01 -3.697455823421478271e-01
3.633358478546142578e-01 -9.840009361505508423e-02 5.482919886708259583e-02
-3.210331797599792480e-01 2.139225304126739502e-01 5.891066193580627441e-01
1.415841430425643921e-01 -4.141250848770141602e-01 2.102636247873306274e-01
-1.430239975452423096e-01 -4.827366173267364502e-01 5.780172944068908691e-01
1.115899458527565002e-01 -1.549828946590423584e-01 5.110939145088195801e-01
-4.004840552806854248e-02 -2.750690095126628876e-02 -5.427463650703430176e-01
2.393443584442138672e-01 3.170198500156402588e-01 5.612166523933410645e-01
-3.439366221427917480e-01 -4.420140683650970459e-01 -3.043421804904937744e-01
1.907255053520202637e-01 3.388944268226623535e-01 -1.491870582103729248e-01
-3.071157634258270264e-01 -4.306189119815826416e-01 5.600548386573791504e-01
3.675671219825744629e-01 -3.477840423583984375e-01 7.768095284700393677e-02
3.545521795749664307e-01 -8.482643961906433105e-02 -5.904522538185119629e-01
-3.436164855957031250e-01 1.308359503746032715e-01 9.734813123941421509e-02
1.357188820838928223e-01 -4.141250848770141602e-01 -2.741152346134185791e-01
-3.067272305488586426e-01 -4.141250848770141602e-01 -1.265923678874969482e-01
-1.868700981140136719e-01 1.674297749996185303e-01 -5.904522538185119629e-01
-1.188608855009078979e-01 2.889275252819061279e-01 5.648313760757446289e-01
-3.537652790546417236e-01 5.166927576065063477e-01 3.290472328662872314e-01
3.288481831550598145e-01 -4.309675395488739014e-01 4.037729501724243164e-01
2.785677611827850342e-01 3.291531801223754883e-01 5.365614295005798340e-01
3.726334571838378906e-01 -9.110848605632781982e-02 -4.267415106296539307e-01
-2.599475681781768799e-01 4.834542572498321533e-01 -4.554759860038757324e-01
-6.033432483673095703e-02 4.631813764572143555e-01 5.891066193580627441e-01
3.633358478546142578e-01 1.863479912281036377e-01 -3.686758875846862793e-01
-1.006446182727813721e-01 1.031264811754226685e-01 5.891066193580627441e-01
1.787907183170318604e-01 -2.784115970134735107e-01 -5.904522538185119629e-01
-2.249211966991424561e-01 5.166927576065063477e-01 2.133701145648956299e-01
3.347979784011840820e-01 -5.524111390113830566e-01 4.701690375804901123e-01
2.137001901865005493e-01 -2.370231449604034424e-01 5.891066193580627441e-01
2.193251103162765503e-01 4.094391763210296631e-01 -5.427463650703430176e-01
-1.696941852569580078e-01 -1.259333491325378418e-01 -1.090668514370918274e-01
-3.715064525604248047e-01 -5.785953626036643982e-02 1.927466690540313721e-01
-2.599475681781768799e-01 -4.529257416725158691e-01 -1.118047386407852173e-01
-3.111855387687683105e-01 -4.431749880313873291e-01 -4.007334709167480469e-01
-3.715064525604248047e-01 3.975300490856170654e-01 3.313395678997039795e-01
3.386501967906951904e-01 4.585891067981719971e-01 2.300795912742614746e-01
5.070522055029869080e-02 4.864780902862548828e-01 2.298981398344039917e-01
-3.353876471519470215e-01 1.126910299062728882e-01 -4.302745163440704346e-01
3.144738078117370605e-01 6.813435256481170654e-02 4.743196070194244385e-01
2.358768731355667114e-01 -3.729137778282165527e-02 -5.625622868537902832e-01
-2.159332931041717529e-01 -1.491739451885223389e-01 -4.232388436794281006e-01
3.489747643470764160e-01 2.415208518505096436e-01 1.837763411458581686e-04
2.851198613643646240e-01 -2.617116272449493408e-01 5.414614677429199219e-01
1.232008635997772217e-02 3.156518340110778809e-01 -2.494077682495117188e-01
-3.428251445293426514e-01 -5.245211720466613770e-01 -1.826335489749908447e-01
1.301898956298828125e-01 5.166927576065063477e-01 -5.811318755149841309e-01
2.007594332098960876e-02 3.156518340110778809e-01 1.394129842519760132e-01
-3.436164855957031250e-01 -3.423871099948883057e-01 -1.245147287845611572e-01
-2.866975069046020508e-01 -1.828725486993789673e-01 -6.387462466955184937e-02
2.280061841011047363e-01 -2.436598241329193115e-01 -5.427463650703430176e-01
1.099103614687919617e-01 1.018316373229026794e-01 -4.300484359264373779e-01
2.107675522565841675e-01 3.098445236682891846e-01 -5.359092354774475098e-01
3.675671219825744629e-01 -3.433447182178497314e-01 -4.893261566758155823e-02
-1.393836140632629395e-01 3.098445236682891846e-01 -5.381978154182434082e-01
3.633358478546142578e-01 2.298644036054611206e-01 4.075178205966949463e-01
-3.990780562162399292e-02 4.864780902862548828e-01 -3.193559348583221436e-01
-2.957224547863006592e-01 -1.491739451885223389e-01 -1.535684317350387573e-01
-2.955932617187500000e-01 5.166927576065063477e-01 5.208181142807006836e-01
-9.928764402866363525e-02 3.468240499496459961e-01 5.891066193580627441e-01
3.726334571838378906e-01 -2.999783754348754883e-01 1.622432619333267212e-01
-1.453391462564468384e-01 -3.913812339305877686e-01 -5.625622868537902832e-01
-6.131034716963768005e-02 -1.491739451885223389e-01 -3.404324948787689209e-01
-5.432075634598731995e-02 -3.162043094635009766e-01 -5.904522538185119629e-01
-1.072945818305015564e-01 5.166927576065063477e-01 4.995277523994445801e-01
-3.709886968135833740e-01 4.864780902862548828e-01 2.355221211910247803e-01
-3.715064525604248047e-01 2.432356029748916626e-01 -3.522779941558837891e-01
3.096554279327392578e-01 -1.828725486993789673e-01 2.163835018873214722e-01
-2.487432807683944702e-01 -4.623858034610748291e-01 -5.765073299407958984e-01
-3.436164855957031250e-01 -1.109557300806045532e-01 2.450790554285049438e-01
6.050308234989643097e-03 -3.326981365680694580e-01 5.891066193580627441e-01
3.633358478546142578e-01 -4.443586766719818115e-01 5.533288419246673584e-02
-3.300914168357849121e-01 3.245248198509216309e-01 -1.240815296769142151e-01
2.796697318553924561e-01 3.988476991653442383e-01 5.414614677429199219e-01
7.865931093692779541e-02 -4.373648166656494141e-01 4.521695077419281006e-01
-3.366957604885101318e-01 -1.840360313653945923e-01 -5.510160923004150391e-01
3.200303316116333008e-01 6.813435256481170654e-02 -3.822997808456420898e-01
-3.478335142135620117e-01 -4.234207868576049805e-01 -2.315401844680309296e-02
3.563980162143707275e-01 -5.245211720466613770e-01 -7.036489248275756836e-02
-3.860024213790893555e-01 -6.202274560928344727e-01 -5.895696878433227539e-01
5.985576659440994263e-02 2.404198199510574341e-01 -5.904522538185119629e-01
-2.882146537303924561e-01 3.959416151046752930e-01 5.891066193580627441e-01
-3.173053860664367676e-01 4.864780902862548828e-01 -5.283909440040588379e-01
-8.679767698049545288e-02 3.877184987068176270e-01 -5.427463650703430176e-01
-1.179909706115722656e-02 -1.491739451885223389e-01 4.037397354841232300e-02
-1.981759816408157349e-01 3.388944268226623535e-01 2.072920501232147217e-01
3.633358478546142578e-01 2.947842478752136230e-01 4.660033285617828369e-01
2.889645099639892578e-01 -1.739140152931213379e-01 1.700151860713958740e-01
-2.885623574256896973e-01 -1.491739451885223389e-01 -4.324547648429870605e-01
3.049358427524566650e-01 9.602431207895278931e-02 -2.632777094841003418e-01
-3.638181388378143311e-01 3.098445236682891846e-01 -4.330342710018157959e-01
3.615964055061340332e-01 -2.297860831022262573e-01 5.612166523933410645e-01
3.763137161731719971e-01 -4.407848119735717773e-01 5.794669985771179199e-01
-3.131377696990966797e-01 -5.524111390113830566e-01 5.841543078422546387e-01
7.015333324670791626e-02 -4.141250848770141602e-01 -1.199861019849777222e-01
-5.827691406011581421e-02 3.388944268226623535e-01 1.605114340782165527e-01
3.675671219825744629e-01 -4.929380863904953003e-02 -6.536127626895904541e-02
3.726334571838378906e-01 -4.413519501686096191e-01 3.462279140949249268e-01
-8.479537069797515869e-02 3.388944268226623535e-01 4.240895509719848633e-01
-3.715064525604248047e-01 -1.790301501750946045e-02 -6.266385316848754883e-02
7.092073559761047363e-02 -4.141250848770141602e-01 -3.625360429286956787e-01
-3.778571486473083496e-01 2.270448356866836548e-01 3.461357653141021729e-01
-1.841420866549015045e-02 1.018316373229026794e-01 -2.672505676746368408e-01
3.489747643470764160e-01 4.117159172892570496e-02 1.042992472648620605e-01
8.307686075568199158e-03 5.166927576065063477e-01 -4.868590533733367920e-01
-4.716939292848110199e-03 -1.259333491325378418e-01 3.072980344295501709e-01
3.726334571838378906e-01 2.499102503061294556e-01 -5.485137701034545898e-01
-2.936486303806304932e-01 2.642703950405120850e-01 -5.904522538185119629e-01
-3.436164855957031250e-01 -2.768583595752716064e-01 4.422904849052429199e-01
-3.715064525604248047e-01 3.862688243389129639e-01 -5.449513196945190430e-01
-2.514270544052124023e-01 -1.259333491325378418e-01 5.002526044845581055e-01
3.357308804988861084e-01 -5.524111390113830566e-01 5.689713954925537109e-01
-3.357523977756500244e-01 -1.259333491325378418e-01 5.319235324859619141e-01
3.633358478546142578e-01 4.788410961627960205e-01 5.207667946815490723e-01
7.997599989175796509e-02 5.166927576065063477e-01 -2.632130980491638184e-01
2.797419726848602295e-01 3.156518340110778809e-01 1.770869493484497070e-01
-3.112890720367431641e-01 1.036537364125251770e-01 3.492859601974487305e-01
3.173256814479827881e-01 -3.489373326301574707e-01 5.891066193580627441e-01
3.726334571838378906e-01 3.646934628486633301e-01 3.461975157260894775e-01
3.633358478546142578e-01 8.319557458162307739e-02 3.342133164405822754e-01
-2.731429934501647949e-01 -1.259333491325378418e-01 2.471995167434215546e-02
3.566811382770538330e-01 1.157766208052635193e-01 1.379034370183944702e-01
3.675671219825744629e-01 -3.904758989810943604e-01 -1.563899219036102295e-01
3.675671219825744629e-01 -2.776867449283599854e-01 -1.050426661968231201e-01
-2.384301275014877319e-01 1.018316373229026794e-01 4.502201080322265625e-01
-1.477825343608856201e-01 2.459744215011596680e-01 -5.904522538185119629e-01
-1.114840656518936157e-01 -2.016348689794540405e-01 5.891066193580627441e-01
-2.226744592189788818e-01 -2.745099663734436035e-01 -5.625622868537902832e-01
2.945429086685180664e-01 5.166927576065063477e-01 1.271038800477981567e-01
4.984994232654571533e-02 -4.141250848770141602e-01 2.727058827877044678e-01
2.533320784568786621e-01 3.388944268226623535e-01 4.463678896427154541e-01
-3.183256983757019043e-01 4.864780902862548828e-01 4.364907741546630859e-01
1.602943092584609985e-01 1.018316373229026794e-01 -8.385255187749862671e-02
-3.180928900837898254e-02 -3.659935891628265381e-01 -5.625622868537902832e-01
2.889645099639892578e-01 -4.781290888786315918e-01 4.171517193317413330e-01
2.294882573187351227e-02 1.138832792639732361e-01 5.612166523933410645e-01
-1.420873105525970459e-01 -1.491739451885223389e-01 3.949247002601623535e-01
-5.369110964238643646e-03 -2.917438447475433350e-01 -5.427463650703430176e-01
-2.619738876819610596e-01 4.864780902862548828e-01 4.975071176886558533e-02
3.487268090248107910e-01 1.250732690095901489e-01 -4.383190870285034180e-01
-2.200515270233154297e-01 -2.254322618246078491e-01 -5.427463650703430176e-01
2.889645099639892578e-01 -1.824918836355209351e-01 -9.043349884450435638e-03
-3.715064525604248047e-01 3.181550800800323486e-01 2.267336994409561157e-01
-1.981408298015594482e-01 3.316440880298614502e-01 -5.520430207252502441e-01
3.633358478546142578e-01 3.674075901508331299e-01 5.776354074478149414e-01
-1.161419898271560669e-01 -1.927138771861791611e-03 -5.904522538185119629e-01
-7.241484522819519043e-02 -1.001122891902923584e-01 5.891066193580627441e-01
1.434214413166046143e-01 2.045546323060989380e-01 5.600548386573791504e-01
2.997935116291046143e-01 -1.828725486993789673e-01 -2.894700169563293457e-01
-2.650670707225799561e-01 -1.259333491325378418e-01 -8.823440223932266235e-02
3.489747643470764160e-01 -2.821863815188407898e-02 -1.680102199316024780e-02
4.541165754199028015e-02 4.864780902862548828e-01 -2.021616548299789429e-01
3.726334571838378906e-01 2.527341805398464203e-02 4.116588532924652100e-01
3.322415351867675781e-01 -4.710649549961090088e-01 -3.459880948066711426e-01
-3.715064525604248047e-01 -7.556422054767608643e-02 -4.660513401031494141e-01
7.345341145992279053e-03 3.388944268226623535e-01 1.845349073410034180e-01
2.751877009868621826e-01 -2.427174299955368042e-01 5.891066193580627441e-01
-2.647155523300170898e-01 -4.075283110141754150e-01 -5.613387227058410645e-01
-2.675341963768005371e-01 -2.768483385443687439e-02 -5.427463650703430176e-01
2.889645099639892578e-01 -4.445885717868804932e-01 -1.636298298835754395e-01
2.796716690063476562e-01 -4.141250848770141602e-01 3.330277502536773682e-01
2.743355333805084229e-01 1.022876352071762085e-01 5.600548386573791504e-01
-1.362942308187484741e-01 1.250732690095901489e-01 -4.032917320728302002e-02
-2.611455023288726807e-01 4.864780902862548828e-01 -3.778062760829925537e-01
2.938959300518035889e-01 -8.504415303468704224e-02 -5.904522538185119629e-01
3.305676579475402832e-01 1.959258168935775757e-01 5.612166523933410645e-01
2.054228931665420532e-01 -1.828725486993789673e-01 -5.250688195228576660e-01
-1.209850683808326721e-01 6.813435256481170654e-02 -5.419436097145080566e-01
-2.996031939983367920e-01 -4.141250848770141602e-01 2.419687658548355103e-01
3.274279236793518066e-01 -4.710649549961090088e-01 3.148486316204071045e-01
-2.590706944465637207e-01 -3.346455991268157959e-01 5.891066193580627441e-01
7.848451286554336548e-02 1.018316373229026794e-01 2.107567340135574341e-02
-1.808129251003265381e-01 -4.431749880313873291e-01 5.066270828247070312e-01
-6.783729046583175659e-02 5.166927576065063477e-01 -1.807753592729568481e-01
3.232365548610687256e-01 1.250732690095901489e-01 2.470417618751525879e-01
3.343495726585388184e-01 6.813435256481170654e-02 3.592248633503913879e-02
-3.233587741851806641e-01 4.864780902862548828e-01 -9.354420751333236694e-02
-3.529121875762939453e-01 1.163057759404182434e-01 -1.261914670467376709e-01
-3.641107380390167236e-01 -1.840360313653945923e-01 6.381159275770187378e-02
9.901106357574462891e-02 4.864780902862548828e-01 -5.376078486442565918e-01
3.054554760456085205e-01 -1.259333491325378418e-01 4.201318621635437012e-01
-1.669363379478454590e-01 -4.141250848770141602e-01 2.817470394074916840e-02
-9.824046492576599121e-02 4.864780902862548828e-01 1.340416967868804932e-01
-9.777316451072692871e-02 4.864780902862548828e-01 -3.766492009162902832e-01
-7.808612287044525146e-02 -4.141250848770141602e-01 3.991835117340087891e-01
1.627481430768966675e-01 -3.922419548034667969e-01 5.414614677429199219e-01
-1.701948195695877075e-01 1.250732690095901489e-01 -1.803782433271408081e-01
7.267566770315170288e-02 -3.571073114871978760e-01 -5.427463650703430176e-01
-3.436164855957031250e-01 -2.373518496751785278e-01 -3.886742293834686279e-01
-9.130246192216873169e-02 -1.259333491325378418e-01 9.219080209732055664e-02
-2.032632082700729370e-01 3.388944268226623535e-01 9.535694867372512817e-02
2.176674455404281616e-02 3.562622368335723877e-01 5.612166523933410645e-01
-3.436164855957031250e-01 2.705560624599456787e-02 4.055399298667907715e-01
3.368699252605438232e-01 -1.828725486993789673e-01 5.413817167282104492e-01
1.148389279842376709e-01 2.634505629539489746e-01 -5.427463650703430176e-01
1.212039068341255188e-01 -1.117576211690902710e-01 -5.427463650703430176e-01
-1.935267150402069092e-01 2.745816409587860107e-01 -5.904522538185119629e-01
-3.715064525604248047e-01 -5.033258199691772461e-01 5.200153589248657227e-01
-3.003565371036529541e-01 3.388944268226623535e-01 -4.426330029964447021e-01
8.410848677158355713e-02 -6.543622165918350220e-02 5.891066193580627441e-01
-3.715064525604248047e-01 1.662403643131256104e-01 -5.303812026977539062e-01
-3.977804780006408691e-01 5.073542594909667969e-01 1.707828231155872345e-02
1.596350222826004028e-01 -4.925376772880554199e-01 5.891066193580627441e-01
3.702214062213897705e-01 -5.245211720466613770e-01 6.098507046699523926e-01
1.123651489615440369e-01 -1.259333491325378418e-01 -2.442464530467987061e-01
-1.206715628504753113e-01 1.250732690095901489e-01 5.407898426055908203e-01
-3.715064525604248047e-01 -2.380804717540740967e-01 -4.589720070362091064e-01
-3.715064525604248047e-01 4.802214801311492920e-01 -4.916014373302459717e-01
-2.252973914146423340e-01 -5.245211720466613770e-01 -5.269545316696166992e-01
3.489747643470764160e-01 2.096798568964004517e-01 -3.095918595790863037e-01
3.356710374355316162e-01 1.107881888747215271e-01 4.630431532859802246e-01
-8.659162372350692749e-02 -4.768808186054229736e-01 -4.881909787654876709e-01
2.069590389728546143e-01 5.166927576065063477e-01 5.458822939544916153e-03
-2.599475681781768799e-01 4.599399864673614502e-01 -5.060613155364990234e-01
1.767786964774131775e-02 5.166927576065063477e-01 -5.840293765068054199e-01
1.388187110424041748e-01 -4.141250848770141602e-01 9.820027649402618408e-02
-3.436164855957031250e-01 -3.260581195354461670e-02 5.109210610389709473e-01
-8.624895662069320679e-02 4.864780902862548828e-01 -1.143792197108268738e-01
-3.085882663726806641e-01 -4.710649549961090088e-01 1.219834163784980774e-01
-3.715064525604248047e-01 -2.391853332519531250e-01 5.562300682067871094e-01
-3.715064525604248047e-01 -2.144902050495147705e-01 -2.337052822113037109e-01
1.725160032510757446e-01 -1.757122427225112915e-01 -5.904522538185119629e-01
3.633358478546142578e-01 -1.738795191049575806e-01 -2.108484059572219849e-01
-7.936234772205352783e-02 3.235054612159729004e-01 -5.265014171600341797e-01
-2.797444760799407959e-01 7.510732859373092651e-02 5.441613793373107910e-01
3.202868103981018066e-01 -6.379962563514709473e-01 -6.049472689628601074e-01
-2.038920968770980835e-01 -3.767398893833160400e-01 5.414614677429199219e-01
3.131713569164276123e-01 -1.549828946590423584e-01 -4.803772568702697754e-01
-2.010079175233840942e-01 -1.491739451885223389e-01 2.547424137592315674e-01
2.450680732727050781e-01 -1.801162511110305786e-01 -5.904522538185119629e-01
-3.436164855957031250e-01 5.737185478210449219e-02 -4.486013203859329224e-04
-2.476631551980972290e-01 3.752455860376358032e-02 -5.904522538185119629e-01
3.675671219825744629e-01 -2.189964614808559418e-02 1.900980770587921143e-01
3.549559414386749268e-01 4.105668365955352783e-01 5.891066193580627441e-01
3.675671219825744629e-01 5.850140750408172607e-02 5.354318618774414062e-01
3.228650987148284912e-01 3.687950968742370605e-02 5.891066193580627441e-01
-1.549369394779205322e-01 4.864780902862548828e-01 -4.034380912780761719e-01
5.480454489588737488e-02 1.018316373229026794e-01 -1.882584542036056519e-01
3.518941104412078857e-01 3.388944268226623535e-01 -6.048570200800895691e-02
3.633358478546142578e-01 1.976823508739471436e-01 1.831811666488647461e-01
-2.838636636734008789e-01 1.250732690095901489e-01 5.850496701896190643e-03
-3.715064525604248047e-01 -4.281692951917648315e-02 -4.216204863041639328e-03
-3.715064525604248047e-01 -1.994983255863189697e-01 -8.640766143798828125e-02
2.282152324914932251e-02 6.553801894187927246e-02 -5.427463650703430176e-01
1.241365373134613037e-01 -1.388415992259979248e-01 -5.904522538185119629e-01
3.675671219825744629e-01 3.630585074424743652e-01 4.096496105194091797e-01
-1.170728076249361038e-02 1.340972781181335449e-01 5.891066193580627441e-01
2.020713873207569122e-02 -1.491739451885223389e-01 -6.487201899290084839e-02
3.184808492660522461e-01 -1.466641575098037720e-01 8.922909945249557495e-02
-3.715064525604248047e-01 3.618126362562179565e-02 1.076432392001152039e-01
-2.763064801692962646e-01 2.385507524013519287e-02 5.891066193580627441e-01
1.190607100725173950e-01 -2.855137884616851807e-01 5.891066193580627441e-01
-5.116943269968032837e-02 -4.801963269710540771e-01 -5.904522538185119629e-01
1.546332985162734985e-01 4.864780902862548828e-01 4.426229894161224365e-01
-3.436164855957031250e-01 -3.876487016677856445e-01 4.083709120750427246e-01
-1.940900534391403198e-01 3.156518340110778809e-01 3.827637732028961182e-01
1.647982299327850342e-01 1.836765706539154053e-01 -5.613387227058410645e-01
3.408570587635040283e-01 -2.013147175312042236e-01 -5.613387227058410645e-01
-5.665129516273736954e-03 -4.219910502433776855e-01 -5.904522538185119629e-01
-1.856029964983463287e-02 3.388944268226623535e-01 -4.115073010325431824e-02
-3.778571486473083496e-01 -8.569595403969287872e-03 -3.765048086643218994e-01
2.975980639457702637e-01 -4.710649549961090088e-01 2.010467797517776489e-01
3.368300199508666992e-01 4.864780902862548828e-01 -2.756077051162719727e-01
-3.436164855957031250e-01 -3.411321938037872314e-01 5.400412678718566895e-01
-3.701554238796234131e-02 1.250732690095901489e-01 -5.026527047157287598e-01
-2.208590209484100342e-01 -4.373648166656494141e-01 1.475458890199661255e-01
3.675671219825744629e-01 3.128199279308319092e-01 -8.702197112143039703e-03
2.606679499149322510e-01 1.018316373229026794e-01 -3.064245879650115967e-01
3.152909129858016968e-02 5.166927576065063477e-01 -5.351606607437133789e-01
-3.481964170932769775e-01 4.864780902862548828e-01 1.035459116101264954e-01
1.949985921382904053e-01 -1.491739451885223389e-01 4.376164972782135010e-01
1.908509135246276855e-01 -4.898473620414733887e-01 -6.098929643630981445e-01
3.633358478546142578e-01 -2.708928287029266357e-02 4.023327529430389404e-01
-2.228910624980926514e-01 -3.359285369515419006e-02 -5.613387227058410645e-01
-3.715064525604248047e-01 -3.677672147750854492e-01 1.372327357530593872e-01
2.116510570049285889e-01 4.181867539882659912e-01 -5.904522538185119629e-01
1.704773008823394775e-01 -4.304991960525512695e-01 -5.220088958740234375e-01
-5.456804111599922180e-02 -1.316677182912826538e-01 -5.904522538185119629e-01
6.004642695188522339e-02 -2.292008846998214722e-01 5.414614677429199219e-01
3.397445976734161377e-01 3.799005225300788879e-02 -5.904522538185119629e-01
3.633358478546142578e-01 4.638016819953918457e-01 -1.520294398069381714e-01
3.126403093338012695e-01 -3.892722427845001221e-01 5.414614677429199219e-01
2.936679422855377197e-01 2.819545567035675049e-01 -7.459346670657396317e-03
6.776038557291030884e-02 4.150023460388183594e-01 -5.904522538185119629e-01
-2.571621537208557129e-01 -4.373648166656494141e-01 -3.025704324245452881e-01
-3.436164855957031250e-01 -2.431895583868026733e-01 4.085096120834350586e-01
-2.488373368978500366e-01 -1.930725574493408203e-01 -5.625622868537902832e-01
-3.436164855957031250e-01 -3.672722578048706055e-01 2.283135354518890381e-01
-6.905147433280944824e-02 -4.373648166656494141e-01 2.983224987983703613e-01
-3.715064525604248047e-01 9.224333614110946655e-02 3.265164494514465332e-01
3.633358478546142578e-01 -1.726858615875244141e-01 4.886388778686523438e-01
-3.042363226413726807e-01 3.388944268226623535e-01 3.961302042007446289e-01
2.434796690940856934e-01 -4.141250848770141602e-01 -4.655212461948394775e-01
2.874606549739837646e-01 4.369244277477264404e-01 5.891066193580627441e-01
-2.813138961791992188e-01 6.813435256481170654e-02 -1.248880699276924133e-01
-8.310827612876892090e-02 5.166927576065063477e-01 4.419294893741607666e-01
-1.181474253535270691e-01 -1.259333491325378418e-01 -1.576021164655685425e-01
-4.073344916105270386e-02 -4.141250848770141602e-01 -2.082387655973434448e-01
3.489747643470764160e-01 2.404511570930480957e-01 -4.564183950424194336e-01
-3.436164855957031250e-01 4.024586081504821777e-01 -5.374728888273239136e-02
-1.663815379142761230e-01 5.499687045812606812e-02 -5.904522538185119629e-01
1.743931919336318970e-01 1.018316373229026794e-01 4.965257644653320312e-01
-2.156634926795959473e-01 -1.369431316852569580e-01 5.414614677429199219e-01
3.041948378086090088e-01 3.259431421756744385e-01 -5.904522538185119629e-01
-3.738291859626770020e-01 4.372455477714538574e-01 9.478129446506500244e-03
-3.278342187404632568e-01 1.250732690095901489e-01 4.684429615736007690e-02
3.633358478546142578e-01 4.639309048652648926e-01 -4.000732302665710449e-01
-3.481014072895050049e-01 1.157766208052635193e-01 -1.868876218795776367e-01
-2.617040872573852539e-01 -6.066145002841949463e-02 5.891066193580627441e-01
-8.116676658391952515e-02 -4.750891327857971191e-01 -5.625622868537902832e-01
4.993743449449539185e-02 1.018316373229026794e-01 4.103041291236877441e-01
-3.529121875762939453e-01 3.374922573566436768e-01 -5.455089211463928223e-01
4.320081789046525955e-03 -4.141250848770141602e-01 -4.491812735795974731e-02
-2.387749999761581421e-01 1.046122834086418152e-01 5.079713463783264160e-01
2.234500050544738770e-01 -5.259072184562683105e-01 5.456538200378417969e-01
-8.928343653678894043e-02 -1.259333491325378418e-01 5.431106686592102051e-01
-1.583398282527923584e-01 2.819545567035675049e-01 5.212541818618774414e-01
1.597462594509124756e-02 2.330136299133300781e-01 5.891066193580627441e-01
2.110079079866409302e-01 -4.141250848770141602e-01 4.362266659736633301e-01
2.334638983011245728e-01 1.018316373229026794e-01 4.936463236808776855e-01
3.633358478546142578e-01 -1.248756274580955505e-01 1.912228763103485107e-01
1.182332634925842285e-01 3.179926276206970215e-01 -5.625622868537902832e-01
3.633358478546142578e-01 -1.580730229616165161e-01 -4.118180274963378906e-01
-1.218448206782341003e-01 4.795060753822326660e-01 -5.734169483184814453e-01
-2.500087022781372070e-01 -1.352291554212570190e-01 -5.465605258941650391e-01
3.633358478546142578e-01 3.893268406391143799e-01 -3.960424065589904785e-01
-1.406680047512054443e-01 -4.779286384582519531e-01 -5.904522538185119629e-01
-1.222970038652420044e-01 -1.259333491325378418e-01 -5.111067891120910645e-01
-2.803572416305541992e-01 -5.298126339912414551e-01 -6.251631975173950195e-01
3.321636617183685303e-01 3.232926726341247559e-01 3.022013306617736816e-01
3.726334571838378906e-01 -2.639298439025878906e-01 -2.205022573471069336e-01
1.485162675380706787e-01 -3.642845153808593750e-01 -5.427463650703430176e-01
3.364965915679931641e-01 -4.280995130538940430e-01 1.751841008663177490e-01
3.721100091934204102e-01 4.864780902862548828e-01 2.642281055450439453e-01
2.385463565587997437e-01 -4.141250848770141602e-01 9.804733097553253174e-02
-3.494446873664855957e-01 -1.352291554212570190e-01 -4.444769620895385742e-01
-3.436164855957031250e-01 -4.295206964015960693e-01 -4.318363070487976074e-01
3.489747643470764160e-01 -3.321642279624938965e-01 -3.447008430957794189e-01
-2.972282171249389648e-01 9.602431207895278931e-02 4.991496205329895020e-01
-1.483990699052810669e-01 -4.381076991558074951e-01 -5.625622868537902832e-01
-1.997292190790176392e-01 3.156518340110778809e-01 -7.701025810092687607e-03
-3.626999855041503906e-01 -5.245211720466613770e-01 -4.102419614791870117e-01
-3.306300640106201172e-01 1.109069436788558960e-01 -2.802892625331878662e-01
-3.420556485652923584e-01 -1.549828946590423584e-01 3.851938843727111816e-01
-3.084096610546112061e-01 -4.431749880313873291e-01 -3.347240090370178223e-01
-3.409916460514068604e-01 6.813435256481170654e-02 5.863925069570541382e-02
-1.141338869929313660e-01 3.156518340110778809e-01 -2.542213797569274902e-01
3.131409585475921631e-01 -4.710649549961090088e-01 7.072100043296813965e-02
3.829989954829216003e-02 -1.259333491325378418e-01 1.574315428733825684e-01
1.322865486145019531e-01 4.096776247024536133e-01 5.891066193580627441e-01
-2.332422137260437012e-01 3.156518340110778809e-01 -2.863834798336029053e-01
-1.247793510556221008e-01 1.250732690095901489e-01 1.031041517853736877e-01
-2.040355503559112549e-01 4.864780902862548828e-01 8.983086794614791870e-03
-3.133401274681091309e-01 8.273958414793014526e-02 5.891066193580627441e-01
-2.971341609954833984e-01 -4.783390462398529053e-01 -1.848641186952590942e-01
2.580649852752685547e-01 3.156518340110778809e-01 2.844060063362121582e-01
3.352226316928863525e-01 -1.259333491325378418e-01 -3.381173610687255859e-01
3.279323577880859375e-01 -4.710649549961090088e-01 -2.415265515446662903e-02
-2.920003831386566162e-01 6.813435256481170654e-02 -2.594102621078491211e-01
-1.088424101471900940e-01 -4.141250848770141602e-01 3.536017835140228271e-01
1.804104596376419067e-01 5.166927576065063477e-01 2.495725452899932861e-01
2.920491397380828857e-01 3.098445236682891846e-01 -2.997385263442993164e-01
2.026450932025909424e-01 9.602431207895278931e-02 -5.188169479370117188e-01
1.980433166027069092e-01 4.864780902862548828e-01 6.407777965068817139e-02
-3.414210677146911621e-01 6.813435256481170654e-02 1.561376601457595825e-01
-4.644947499036788940e-02 4.864780902862548828e-01 2.231303751468658447e-01
3.763137161731719971e-01 -5.007076263427734375e-01 -2.801125645637512207e-01
2.889645099639892578e-01 6.895229965448379517e-02 -1.872742772102355957e-01
1.180015318095684052e-02 -1.549828946590423584e-01 5.494908690452575684e-01
-3.779360055923461914e-01 -3.254705369472503662e-01 3.981584608554840088e-01
1.537944376468658447e-01 3.388944268226623535e-01 -3.144871890544891357e-01
-3.564680218696594238e-01 6.813435256481170654e-02 -4.727573692798614502e-01
-3.327684998512268066e-01 -4.141250848770141602e-01 2.142736129462718964e-02
-2.858140170574188232e-01 4.585891067981719971e-01 3.288425505161285400e-03
2.937041409313678741e-02 -4.403876960277557373e-01 -5.625622868537902832e-01
3.246967867016792297e-02 3.691574931144714355e-01 -5.625622868537902832e-01
-3.436164855957031250e-01 -1.503242999315261841e-01 -2.183258235454559326e-01
-2.371343523263931274e-01 -4.941869080066680908e-01 -4.881909787654876709e-01
3.489747643470764160e-01 2.434432134032249451e-02 1.609978228807449341e-01
-1.627791523933410645e-01 -1.796141564846038818e-01 -5.625622868537902832e-01
-1.759546399116516113e-01 4.864780902862548828e-01 5.375788211822509766e-01
3.489747643470764160e-01 -9.186540544033050537e-02 3.837508261203765869e-01
-3.436164855957031250e-01 -3.149712085723876953e-01 8.505975455045700073e-02
-3.715064525604248047e-01 -7.728693634271621704e-02 -3.165885806083679199e-01
1.185591146349906921e-01 4.864780902862548828e-01 3.936032354831695557e-01
1.257819235324859619e-01 1.250732690095901489e-01 1.738227605819702148e-01
1.525166928768157959e-01 1.672578155994415283e-01 5.891066193580627441e-01
7.315085828304290771e-02 2.044121325016021729e-01 -5.625622868537902832e-01
3.489747643470764160e-01 1.598754078149795532e-01 1.281004399061203003e-01
-9.769869968295097351e-03 9.602431207895278931e-02 5.421910881996154785e-01
-2.599475681781768799e-01 -1.562725901603698730e-01 -2.352699339389801025e-01
-3.436164855957031250e-01 -2.794399671256542206e-02 4.395031929016113281e-01
3.127504885196685791e-01 1.250732690095901489e-01 1.018758118152618408e-01
-3.158414661884307861e-01 1.088635101914405823e-01 -5.613387227058410645e-01
-3.164618015289306641e-01 -1.549828946590423584e-01 -3.943153023719787598e-01
-9.736751765012741089e-02 -3.436857759952545166e-01 5.891066193580627441e-01
9.414613246917724609e-02 3.388944268226623535e-01 -4.676891267299652100e-01
-8.960186690092086792e-02 3.388944268226623535e-01 -4.337857067584991455e-01
3.633358478546142578e-01 1.677119135856628418e-01 -2.396607995033264160e-01
-3.448818922042846680e-01 1.250732690095901489e-01 2.475480884313583374e-01
-3.492794036865234375e-01 -3.895990550518035889e-01 5.414614677429199219e-01
-3.448989987373352051e-01 -1.352291554212570190e-01 1.478954851627349854e-01
-3.537149429321289062e-01 1.675228774547576904e-01 5.891066193580627441e-01
-3.738291859626770020e-01 -2.478359937667846680e-01 -3.184714168310165405e-02
4.999567195773124695e-02 1.250732690095901489e-01 -2.393302023410797119e-01
-1.326280273497104645e-02 -1.259333491325378418e-01 2.520814836025238037e-01
3.090208172798156738e-01 2.449189722537994385e-01 5.891066193580627441e-01
-2.796846330165863037e-01 -5.080995559692382812e-01 -5.793629884719848633e-01
3.675671219825744629e-01 -4.058677256107330322e-01 4.682415127754211426e-01
-2.366773933172225952e-01 4.864780902862548828e-01 -1.454336196184158325e-01
7.901746034622192383e-02 4.598712176084518433e-02 -5.904522538185119629e-01
3.298171460628509521e-01 1.250732690095901489e-01 -4.025127887725830078e-01
7.948675006628036499e-02 4.508836865425109863e-01 -5.613387227058410645e-01
2.413811534643173218e-01 4.864780902862548828e-01 -1.303543448448181152e-01
3.489747643470764160e-01 -3.693156838417053223e-01 2.086810022592544556e-02
-3.436164855957031250e-01 -3.641838133335113525e-01 -4.711281061172485352e-01
-4.220888763666152954e-02 1.018316373229026794e-01 4.181938767433166504e-01
1.598658561706542969e-01 -1.491739451885223389e-01 9.731493890285491943e-03
8.749426901340484619e-02 3.900678455829620361e-01 5.612166523933410645e-01
-1.137427762150764465e-01 -4.373648166656494141e-01 2.760033011436462402e-01
2.834897674620151520e-02 3.156518340110778809e-01 -1.380654573440551758e-01
-3.687334358692169189e-01 4.786748290061950684e-01 5.891066193580627441e-01
-3.038126230239868164e-01 -4.431749880313873291e-01 -9.193653613328933716e-02
-3.369275629520416260e-01 -1.828725486993789673e-01 2.501244843006134033e-01
-3.222738802433013916e-01 -4.710649549961090088e-01 2.403005957603454590e-01
3.489747643470764160e-01 1.076152175664901733e-01 -7.464129477739334106e-02
1.884018182754516602e-01 1.250732690095901489e-01 5.449213385581970215e-01
-3.436164855957031250e-01 -3.340518772602081299e-01 1.865764558315277100e-01
-1.941351965069770813e-02 3.388944268226623535e-01 4.802533090114593506e-01
-7.152736186981201172e-02 3.156518340110778809e-01 -3.194385766983032227e-01
8.321928977966308594e-02 -1.491739451885223389e-01 3.284715712070465088e-01
-2.929323315620422363e-01 -2.003229260444641113e-01 -5.904522538185119629e-01
-3.436164855957031250e-01 4.497104287147521973e-01 4.294883310794830322e-01
2.946635186672210693e-01 -1.828725486993789673e-01 3.727812170982360840e-01
-2.542570531368255615e-01 2.951518893241882324e-01 5.891066193580627441e-01
-2.117324173450469971e-01 -4.710649549961090088e-01 -5.272167921066284180e-01
2.544977366924285889e-01 4.864780902862548828e-01 5.133017301559448242e-01
1.301415357738733292e-02 -5.043788626790046692e-02 -5.613387227058410645e-01
-1.609342694282531738e-01 -3.282113075256347656e-01 5.891066193580627441e-01
3.109303116798400879e-01 6.813435256481170654e-02 2.066261023283004761e-01
-1.295065283775329590e-01 1.908585578203201294e-01 -5.625622868537902832e-01
-5.618986859917640686e-02 -4.373648166656494141e-01 -2.657894790172576904e-01
-3.436164855957031250e-01 1.821546852588653564e-01 -4.630436599254608154e-01
-3.578436076641082764e-01 4.864780902862548828e-01 5.275374054908752441e-01
3.656937181949615479e-01 -4.710649549961090088e-01 1.116056665778160095e-01
-3.087013065814971924e-01 -4.141250848770141602e-01 -2.329367399215698242e-01
-2.732047438621520996e-01 2.819545567035675049e-01 4.403173327445983887e-01
3.726334571838378906e-01 4.230041801929473877e-01 -5.284280180931091309e-01
2.761376798152923584e-01 1.630261167883872986e-02 -5.904522538185119629e-01
3.295198082923889160e-01 -1.259333491325378418e-01 -2.009608447551727295e-01
7.703956216573715210e-02 4.864780902862548828e-01 -8.091259747743606567e-02
-3.715064525604248047e-01 4.500315487384796143e-01 -4.202026128768920898e-02
3.489747643470764160e-01 2.669456005096435547e-01 8.151513338088989258e-02
3.521762490272521973e-01 3.295968174934387207e-01 -4.944951236248016357e-01
2.829643487930297852e-01 3.295968174934387207e-01 -5.510122179985046387e-01
3.129234015941619873e-01 3.388944268226623535e-01 1.576357930898666382e-01
3.012422621250152588e-01 -4.141250848770141602e-01 -5.455155372619628906e-01
2.520571947097778320e-01 1.735334992408752441e-01 5.612166523933410645e-01
3.726334571838378906e-01 4.292456209659576416e-01 2.304956912994384766e-01
3.456906378269195557e-01 -2.862215507775545120e-03 -5.613387227058410645e-01
3.610473275184631348e-01 4.574253559112548828e-01 3.341420888900756836e-01
-3.515252172946929932e-01 9.718425571918487549e-02 -3.794659376144409180e-01
-2.703974843025207520e-01 -5.003765597939491272e-02 5.414614677429199219e-01
7.519372552633285522e-02 -1.491739451885223389e-01 -3.579371273517608643e-01
-3.815307915210723877e-01 -5.245211720466613770e-01 -3.165686428546905518e-01
3.489747643470764160e-01 1.557396538555622101e-02 -5.057183504104614258e-01
-9.180576354265213013e-02 3.409697487950325012e-02 -5.427463650703430176e-01
-3.881912231445312500e-01 3.868321776390075684e-01 -3.091292083263397217e-01
-6.921820342540740967e-02 3.388944268226623535e-01 3.233700692653656006e-01
-1.993615776300430298e-01 4.864780902862548828e-01 1.778735369443893433e-01
3.928551450371742249e-02 -4.710649549961090088e-01 -5.356270670890808105e-01
2.278703451156616211e-01 4.864780902862548828e-01 3.150205612182617188e-01
3.726334571838378906e-01 2.048215866088867188e-01 5.486415624618530273e-01
2.889645099639892578e-01 4.855812788009643555e-01 -3.825173079967498779e-01
2.964105904102325439e-01 3.388944268226623535e-01 9.768253564834594727e-02
-3.576669096946716309e-01 -2.122121304273605347e-01 5.891066193580627441e-01
3.059618175029754639e-01 3.156518340110778809e-01 -6.141622737050056458e-02
-2.599475681781768799e-01 2.851997315883636475e-01 3.613765239715576172e-01
-1.515416502952575684e-01 -4.420140683650970459e-01 5.537905693054199219e-01
3.280549347400665283e-01 -1.828725486993789673e-01 -1.542913764715194702e-01
3.310293555259704590e-01 -1.458046883344650269e-01 -5.904522538185119629e-01
-4.817523807287216187e-02 -4.141250848770141602e-01 4.860035777091979980e-01
1.498130708932876587e-02 -1.259333491325378418e-01 7.242544088512659073e-03
2.311231195926666260e-01 -1.296927630901336670e-01 5.891066193580627441e-01
3.694604383781552315e-03 -4.373648166656494141e-01 -8.806920051574707031e-02
3.726334571838378906e-01 -1.890825778245925903e-01 3.432573378086090088e-02
3.633358478546142578e-01 1.165841221809387207e-01 -1.774722188711166382e-01
