-7.224299013614654541e-02 2.876629531383514404e-01 4.007665812969207764e-01
-3.914449214935302734e-01 4.681308940052986145e-02 2.034717500209808350e-01
3.931435346603393555e-01 -2.226912528276443481e-01 3.035929799079895020e-01
-2.126301825046539307e-01 5.824093818664550781e-01 9.266717731952667236e-02
1.727476119995117188e-01 1.012238953262567520e-02 -3.675043284893035889e-01
1.208643540740013123e-01 2.876629531383514404e-01 -2.148857116699218750e-01
3.274030089378356934e-01 1.012238953262567520e-02 4.183630645275115967e-01
1.114665344357490540e-01 1.698106154799461365e-02 5.003225803375244141e-01
3.931435346603393555e-01 2.458723634481430054e-01 1.453899443149566650e-01
2.900221049785614014e-01 5.824093818664550781e-01 1.396430879831314087e-01
-1.291260421276092529e-01 -2.697319388389587402e-01 5.003225803375244141e-01
4.143486917018890381e-01 -3.573819100856781006e-01 -5.027921795845031738e-01
-3.380573093891143799e-01 5.506016016006469727e-01 -2.729769051074981689e-01
-3.936028182506561279e-01 3.545002937316894531e-01 -1.389689147472381592e-01
2.712799906730651855e-01 2.876629531383514404e-01 -3.502806723117828369e-01
1.971267014741897583e-01 5.824093818664550781e-01 1.789320856332778931e-01
9.327235817909240723e-02 -2.630845606327056885e-01 -1.079292893409729004e-01
1.146498471498489380e-01 -5.420637130737304688e-01 -1.494766622781753540e-01
-4.688144254032522440e-04 2.876629531383514404e-01 -3.227774202823638916e-01
-3.914449214935302734e-01 -5.227018594741821289e-01 4.944441914558410645e-01
4.586770012974739075e-02 1.518473327159881592e-01 5.003225803375244141e-01
-3.914449214935302734e-01 -2.695798277854919434e-01 -6.391847133636474609e-02
3.028999567031860352e-01 -6.514709591865539551e-01 -5.175217986106872559e-01
3.931435346603393555e-01 2.479354441165924072e-01 -4.240311086177825928e-01
2.133061736822128296e-01 -2.630845606327056885e-01 -6.039269641041755676e-02
-2.681099474430084229e-01 2.234042286872863770e-01 -4.751114845275878906e-01
-3.914449214935302734e-01 -5.881813764572143555e-01 -2.907837331295013428e-01
-3.914449214935302734e-01 -1.088686436414718628e-01 -4.073943197727203369e-01
2.058089673519134521e-01 5.506016016006469727e-01 -3.548706471920013428e-01
-1.004001721739768982e-01 2.876629531383514404e-01 -7.371930778026580811e-02
-3.914449214935302734e-01 4.698600769042968750e-01 -4.979730844497680664e-01
1.654335111379623413e-01 5.824093818664550781e-01 -1.667610742151737213e-02
3.590398430824279785e-01 1.012238953262567520e-02 -2.681099176406860352e-01
-3.914449214935302734e-01 -6.464518904685974121e-01 -4.982303678989410400e-01
-3.235117495059967041e-01 -2.630845606327056885e-01 2.299345284700393677e-01
3.931435346603393555e-01 -3.765165209770202637e-01 -1.680478453636169434e-01
3.931435346603393555e-01 -1.903069317340850830e-01 -3.237183094024658203e-01
-6.056014448404312134e-02 -5.524953603744506836e-01 -5.175217986106872559e-01
-2.460380345582962036e-01 -3.548953533172607422e-01 4.579121768474578857e-01
-3.914449214935302734e-01 2.528865635395050049e-02 -1.860715895891189575e-01
-8.103944361209869385e-02 -4.248361885547637939e-01 -4.857140779495239258e-01
-3.914449214935302734e-01 2.362088263034820557e-01 1.114440187811851501e-01
-4.570871125906705856e-03 1.012238953262567520e-02 4.166587293148040771e-01
-2.109718620777130127e-01 1.012238953262567520e-02 -2.084899842739105225e-01
-2.169393897056579590e-01 5.506016016006469727e-01 -3.512096032500267029e-02
1.553483307361602783e-01 2.171305418014526367e-01 -5.175217986106872559e-01
-8.003223687410354614e-02 1.012238953262567520e-02 2.758887708187103271e-01
1.464791893959045410e-01 1.012238953262567520e-02 -1.641630828380584717e-01
4.124114811420440674e-01 -5.279839038848876953e-01 5.003225803375244141e-01
-1.386722028255462646e-01 1.012238953262567520e-02 1.176697909832000732e-01
-3.936028182506561279e-01 5.361630916595458984e-01 2.654655575752258301e-01
-1.427231878042221069e-01 -5.420637130737304688e-01 -3.983235731720924377e-02
2.511401660740375519e-02 3.692862391471862793e-01 -5.175217986106872559e-01
3.023431003093719482e-01 3.300254046916961670e-01 -5.175217986106872559e-01
-4.769553616642951965e-02 -5.420637130737304688e-01 -2.679859697818756104e-01
1.890407204627990723e-01 -6.580892801284790039e-01 -5.115120410919189453e-01
-8.309479057788848877e-02 -3.403526246547698975e-01 5.003225803375244141e-01
-3.257489949464797974e-02 5.280179381370544434e-01 5.003225803375244141e-01
2.509875595569610596e-01 -5.420637130737304688e-01 -3.095953166484832764e-01
4.139181599020957947e-02 -5.420637130737304688e-01 -1.016361936926841736e-01
1.552535872906446457e-02 -2.630845606327056885e-01 -2.783941924571990967e-01
4.143486917018890381e-01 4.031729996204376221e-01 -5.146042704582214355e-01
5.523020029067993164e-02 -2.630845606327056885e-01 -4.441545307636260986e-01
3.825409412384033203e-01 5.677745938301086426e-01 -8.691295981407165527e-02
-3.914449214935302734e-01 1.265817880630493164e-01 -2.267900481820106506e-02
2.362504452466964722e-01 5.824093818664550781e-01 -2.690404951572418213e-01
-1.151157021522521973e-01 3.802616298198699951e-01 4.651117622852325439e-01
1.663340479135513306e-01 5.067949295043945312e-01 -5.175217986106872559e-01
2.126920521259307861e-01 2.876629531383514404e-01 -4.256321489810943604e-01
9.323348850011825562e-02 2.170479297637939453e-01 4.685147702693939209e-01
-3.914449214935302734e-01 1.964033395051956177e-01 4.714057594537734985e-02
-2.349246442317962646e-01 -1.616825908422470093e-01 -4.751114845275878906e-01
3.931435346603393555e-01 -1.531602293252944946e-01 -1.227330937981605530e-01
-2.286913394927978516e-01 -5.420637130737304688e-01 1.821351051330566406e-01
-2.760798204690217972e-03 4.567690789699554443e-01 4.651117622852325439e-01
4.001796841621398926e-01 9.888417273759841919e-02 -5.175217986106872559e-01
2.509631812572479248e-01 1.012238953262567520e-02 1.330801993608474731e-01
4.088751077651977539e-01 5.824093818664550781e-01 1.617769449949264526e-01
-9.559748694300651550e-03 5.506016016006469727e-01 -3.703789412975311279e-02
-1.357246041297912598e-01 4.908273741602897644e-02 5.003225803375244141e-01
-5.954214558005332947e-02 5.506016016006469727e-01 -1.016273722052574158e-01
-3.075717389583587646e-01 5.824093818664550781e-01 4.516514390707015991e-02
-1.283701062202453613e-01 -2.583076953887939453e-01 -5.175217986106872559e-01
-1.056718826293945312e-01 5.801941752433776855e-01 5.003225803375244141e-01
-3.914449214935302734e-01 8.034114539623260498e-02 -1.063348203897476196e-01
3.909847140312194824e-01 3.710872828960418701e-01 -1.756584830582141876e-02
2.597313746809959412e-02 -2.630845606327056885e-01 8.375390619039535522e-02
1.852604746818542480e-02 -2.630845606327056885e-01 4.210843741893768311e-01
-1.561287641525268555e-01 -1.359275281429290771e-01 4.685147702693939209e-01
-3.914449214935302734e-01 -2.961299717426300049e-01 3.143549337983131409e-02
-1.715532690286636353e-01 5.506016016006469727e-01 -4.892269670963287354e-01
-2.655811309814453125e-01 -5.746987462043762207e-01 5.003225803375244141e-01
-3.914449214935302734e-01 1.499500963836908340e-02 -2.961671948432922363e-01
3.244037330150604248e-01 5.824093818664550781e-01 3.590013682842254639e-01
8.255164325237274170e-02 3.508315086364746094e-01 5.003225803375244141e-01
-7.802300155162811279e-02 -5.420637130737304688e-01 -8.525234647095203400e-03
3.500993549823760986e-01 2.396287769079208374e-01 5.003225803375244141e-01
-3.936028182506561279e-01 3.739635348320007324e-01 -1.148277521133422852e-02
-1.345771104097366333e-01 1.012238953262567520e-02 -6.671743839979171753e-02
3.296519815921783447e-01 -8.127535134553909302e-02 -4.751114845275878906e-01
1.346004754304885864e-01 -1.455223560333251953e-01 -5.175217986106872559e-01
-2.004913538694381714e-01 5.506016016006469727e-01 -4.068844318389892578e-01
-2.039094120264053345e-01 1.215598583221435547e-01 -5.175217986106872559e-01
3.478409647941589355e-01 -2.065690457820892334e-01 -4.751114845275878906e-01
2.936786711215972900e-01 1.144683137536048889e-01 4.685147702693939209e-01
3.931435346603393555e-01 2.047973275184631348e-01 -2.857047691941261292e-02
-1.130582913756370544e-01 1.012238953262567520e-02 -3.202579915523529053e-01
-3.113597631454467773e-01 -2.946622371673583984e-01 5.003225803375244141e-01
3.909847140312194824e-01 4.637601375579833984e-01 4.372817277908325195e-01
1.736827008426189423e-02 8.490201830863952637e-02 -5.175217986106872559e-01
1.130168661475181580e-01 2.876629531383514404e-01 -1.324689537286758423e-01
4.143486917018890381e-01 3.552233576774597168e-01 4.911021888256072998e-01
1.284056901931762695e-01 5.778532028198242188e-01 -5.175217986106872559e-01
-3.596371710300445557e-01 -6.827285289764404297e-01 4.760673940181732178e-01
4.012191593647003174e-01 -6.262815594673156738e-01 2.089275121688842773e-01
1.913770288228988647e-01 -5.420637130737304688e-01 3.745883107185363770e-01
3.931435346603393555e-01 -7.751218229532241821e-02 2.619761228561401367e-01
-3.392771184444427490e-01 2.876629531383514404e-01 3.715571463108062744e-01
3.931435346603393555e-01 -5.746925249695777893e-02 1.618858873844146729e-01
-3.914449214935302734e-01 -8.208582550287246704e-02 -1.492625623941421509e-01
-1.961018517613410950e-02 8.737072348594665527e-02 4.685147702693939209e-01
3.931435346603393555e-01 -7.590062916278839111e-02 -3.147149085998535156e-01
1.812176555395126343e-01 2.876629531383514404e-01 -2.973776161670684814e-01
1.670411378145217896e-01 1.012238953262567520e-02 2.421391010284423828e-01
3.931435346603393555e-01 -4.894949495792388916e-01 -2.007814794778823853e-01
-2.428894788026809692e-01 3.070313930511474609e-01 5.003225803375244141e-01
1.154376938939094543e-01 -2.630845606327056885e-01 -2.349640429019927979e-01
-3.936028182506561279e-01 4.706432223320007324e-01 -7.398317754268646240e-02
-2.712265849113464355e-01 2.876629531383514404e-01 -3.693279325962066650e-01
2.600689232349395752e-01 1.012238953262567520e-02 -8.661387860774993896e-02
-3.936028182506561279e-01 5.077714920043945312e-01 1.721785813570022583e-01
-1.343160420656204224e-01 -4.611691236495971680e-01 4.579121768474578857e-01
-1.373913735151290894e-01 -2.630845606327056885e-01 -5.179277807474136353e-02
1.156433373689651489e-01 -3.258014321327209473e-01 4.579121768474578857e-01
-3.936028182506561279e-01 3.956842422485351562e-01 4.339960515499114990e-01
-3.936028182506561279e-01 4.647949934005737305e-01 -3.850632607936859131e-01
-1.918710619211196899e-01 -5.420637130737304688e-01 -3.287505805492401123e-01
-1.410695463418960571e-01 3.066459670662879944e-02 -5.175217986106872559e-01
-3.914449214935302734e-01 -1.915633529424667358e-01 -4.872353076934814453e-01
-3.611912429332733154e-01 -5.950728654861450195e-01 -4.509352445602416992e-01
-1.773010790348052979e-01 3.878198862075805664e-01 5.003225803375244141e-01
4.143486917018890381e-01 1.429453343152999878e-01 4.973524212837219238e-01
-3.914449214935302734e-01 2.050142735242843628e-01 -1.669717282056808472e-01
-3.312672078609466553e-01 -4.087130427360534668e-01 5.003225803375244141e-01
1.328660845756530762e-01 -4.216106235980987549e-01 4.579121768474578857e-01
2.141283266246318817e-02 3.457804322242736816e-01 4.685147702693939209e-01
-2.885732650756835938e-01 5.824093818664550781e-01 -1.879064589738845825e-01
1.580283194780349731e-01 -2.630845606327056885e-01 -3.847599327564239502e-01
3.825409412384033203e-01 -6.500953435897827148e-01 -3.787708282470703125e-01
3.771246075630187988e-01 1.012238953262567520e-02 -3.513445854187011719e-01
9.549016505479812622e-02 -2.630845606327056885e-01 2.640598118305206299e-01
-8.659267425537109375e-02 1.707077473402023315e-01 5.003225803375244141e-01
3.909847140312194824e-01 3.898557126522064209e-01 -4.407082796096801758e-01
3.991110622882843018e-01 1.079097855836153030e-02 5.003225803375244141e-01
-9.428051859140396118e-02 2.420007735490798950e-01 4.685147702693939209e-01
-3.914449214935302734e-01 -5.166958570480346680e-01 4.253541529178619385e-01
3.908363282680511475e-01 2.625702023506164551e-01 -5.175217986106872559e-01
-1.518228370696306229e-02 1.012238953262567520e-02 -3.691157102584838867e-01
1.509010940790176392e-01 1.012238953262567520e-02 3.244741559028625488e-01
-3.936028182506561279e-01 4.675416350364685059e-01 3.170952796936035156e-01
-2.256648540496826172e-01 -5.099010467529296875e-01 -5.175217986106872559e-01
3.150388002395629883e-01 5.824093818664550781e-01 -1.896586865186691284e-01
2.636672854423522949e-01 2.876629531383514404e-01 1.307063400745391846e-01
-3.125852048397064209e-01 9.965416789054870605e-02 -4.751114845275878906e-01
1.908258050680160522e-01 -5.452304705977439880e-02 5.003225803375244141e-01
-1.919011026620864868e-01 1.828287541866302490e-01 5.003225803375244141e-01
-1.186624318361282349e-01 2.876629531383514404e-01 -2.206306904554367065e-01
3.931435346603393555e-01 -1.657878309488296509e-01 -5.421416088938713074e-02
-3.878930583596229553e-02 1.012238953262567520e-02 -4.569891691207885742e-01
-3.831908404827117920e-01 -2.736871540546417236e-01 4.426520168781280518e-01
2.350053042173385620e-01 -5.420637130737304688e-01 -7.749880850315093994e-02
2.673990130424499512e-01 -5.420637130737304688e-01 -1.453590095043182373e-01
-9.352365881204605103e-02 -6.502371430397033691e-01 -5.175217986106872559e-01
-3.183855712413787842e-01 5.824093818664550781e-01 -4.308296740055084229e-01
2.479901760816574097e-01 4.789160788059234619e-01 4.651117622852325439e-01
-1.805726587772369385e-01 -2.630845606327056885e-01 -2.727562487125396729e-01
-3.227431699633598328e-02 -5.420637130737304688e-01 2.960694432258605957e-01
-2.088158428668975830e-01 2.876629531383514404e-01 -8.992358297109603882e-02
2.221734374761581421e-01 2.830654680728912354e-01 4.685147702693939209e-01
1.711953878402709961e-01 1.012238953262567520e-02 5.019806325435638428e-02
-1.559747606515884399e-01 -2.630845606327056885e-01 4.141702950000762939e-01
-2.840011417865753174e-01 -7.404951006174087524e-02 5.003225803375244141e-01
-1.129643917083740234e-01 -2.630845606327056885e-01 -4.095616042613983154e-01
2.904662489891052246e-01 5.824093818664550781e-01 3.037526309490203857e-01
-2.200015783309936523e-01 -3.587914109230041504e-01 -5.175217986106872559e-01
3.931435346603393555e-01 2.363816201686859131e-01 -9.744229912757873535e-02
8.473658934235572815e-03 -1.547848433256149292e-01 4.685147702693939209e-01
-2.084050141274929047e-02 1.012238953262567520e-02 8.731069974601268768e-03
-3.235333561897277832e-01 -2.617383562028408051e-02 -4.751114845275878906e-01
-5.549783259630203247e-02 5.506016016006469727e-01 1.924475431442260742e-01
-3.690471947193145752e-01 -1.333852112293243408e-01 4.685147702693939209e-01
2.619282305240631104e-01 1.012238953262567520e-02 4.214477837085723877e-01
3.931435346603393555e-01 -2.562061548233032227e-01 7.370272278785705566e-02
-1.021993532776832581e-01 -2.630845606327056885e-01 -3.078618645668029785e-01
-3.680076897144317627e-01 -8.623184636235237122e-03 -4.329781830310821533e-01
-3.448934853076934814e-01 4.649470448493957520e-01 4.651117622852325439e-01
-1.696362346410751343e-02 -8.128708600997924805e-02 -5.175217986106872559e-01
2.396356612443923950e-01 2.876629531383514404e-01 -5.734854936599731445e-02
1.835858970880508423e-01 2.876629531383514404e-01 1.094126421958208084e-02
-3.605499267578125000e-01 2.645834982395172119e-01 -3.144191205501556396e-01
-3.283806443214416504e-01 -4.936097860336303711e-01 5.003225803375244141e-01
-3.596371710300445557e-01 -5.857680439949035645e-01 4.490937590599060059e-01
-3.576614558696746826e-01 -5.420637130737304688e-01 1.911554336547851562e-01
-2.369266599416732788e-01 -2.630845606327056885e-01 5.974752455949783325e-02
7.689737528562545776e-02 1.012238953262567520e-02 -2.473357766866683960e-01
3.931435346603393555e-01 -4.996402263641357422e-01 3.282537758350372314e-01
-1.932242065668106079e-01 -2.630845606327056885e-01 3.082402348518371582e-01
3.931435346603393555e-01 8.992677181959152222e-02 -4.123467504978179932e-01
-3.436116874217987061e-01 3.298854827880859375e-01 4.651117622852325439e-01
3.825409412384033203e-01 -6.685012578964233398e-01 -5.131525397300720215e-01
-3.914449214935302734e-01 -5.350735783576965332e-01 1.124008893966674805e-01
3.813821673393249512e-01 5.824093818664550781e-01 -3.007139861583709717e-01
2.867383062839508057e-01 5.506016016006469727e-01 3.576930239796638489e-02
7.594162970781326294e-02 -5.420637130737304688e-01 -2.529717981815338135e-01
-1.346578598022460938e-01 2.876629531383514404e-01 -4.548500776290893555e-01
3.931435346603393555e-01 1.338714659214019775e-01 1.517114937305450439e-01
-3.449141383171081543e-01 -7.761463522911071777e-02 -5.175217986106872559e-01
-3.410941362380981445e-01 2.842232882976531982e-01 5.003225803375244141e-01
4.046212732791900635e-01 -6.580892801284790039e-01 -2.161646783351898193e-01
2.558949291706085205e-01 -5.836063623428344727e-01 4.685147702693939209e-01
-3.967466652393341064e-01 9.540130198001861572e-02 2.487949579954147339e-01
-2.493180781602859497e-01 5.307739973068237305e-01 -5.175217986106872559e-01
3.931435346603393555e-01 -3.839724063873291016e-01 9.031490981578826904e-02
-2.881018817424774170e-01 4.009446799755096436e-01 -4.785126447677612305e-01
3.931435346603393555e-01 -1.567312628030776978e-01 3.422722592949867249e-02
-2.665755748748779297e-01 -5.039625763893127441e-01 5.003225803375244141e-01
2.993466854095458984e-01 -2.790536880493164062e-01 5.003225803375244141e-01
-2.427176386117935181e-01 5.001578927040100098e-01 4.685147702693939209e-01
2.283175140619277954e-01 5.506016016006469727e-01 -4.459771811962127686e-01
-3.481566011905670166e-01 -4.461615383625030518e-01 4.579121768474578857e-01
3.931435346603393555e-01 2.243545204401016235e-01 2.095575928688049316e-01
-9.775680303573608398e-02 -5.323391556739807129e-01 5.003225803375244141e-01
1.916981637477874756e-01 -3.724570870399475098e-01 -4.857140779495239258e-01
-7.842490077018737793e-02 5.506016016006469727e-01 -3.434285521507263184e-01
4.096930027008056641e-01 4.894745051860809326e-01 -5.175217986106872559e-01
3.931435346603393555e-01 -4.249300956726074219e-01 2.518984675407409668e-01
3.931435346603393555e-01 4.421573504805564880e-02 -4.673619568347930908e-02
-1.746652126312255859e-01 -6.580892801284790039e-01 -5.118077993392944336e-01
-1.398966908454895020e-01 2.876629531383514404e-01 3.333020210266113281e-01
-1.223964616656303406e-02 4.955791532993316650e-01 -5.175217986106872559e-01
-3.914449214935302734e-01 -3.488151431083679199e-01 -3.068270385265350342e-01
-3.084863424301147461e-01 2.876629531383514404e-01 -8.262610435485839844e-02
-1.926560848951339722e-01 5.824093818664550781e-01 2.824300527572631836e-01
8.909142762422561646e-02 5.506016016006469727e-01 1.064887568354606628e-01
-8.571843802928924561e-02 -1.395552903413772583e-01 5.003225803375244141e-01
-1.937885582447052002e-01 1.012238953262567520e-02 -2.931106686592102051e-01
-2.365820109844207764e-01 -2.313800901174545288e-01 5.003225803375244141e-01
3.267597556114196777e-01 -4.031840264797210693e-01 4.685147702693939209e-01
5.463795736432075500e-02 2.110287547111511230e-01 -4.751114845275878906e-01
3.909847140312194824e-01 5.045074820518493652e-01 -1.012050881981849670e-01
-2.040643543004989624e-01 5.824093818664550781e-01 -2.099389135837554932e-01
2.399521172046661377e-01 -3.074461817741394043e-01 4.685147702693939209e-01
2.514467537403106689e-01 1.880253404378890991e-01 -4.751114845275878906e-01
-1.503931730985641479e-01 2.719802260398864746e-01 4.685147702693939209e-01
-1.273352950811386108e-01 2.876629531383514404e-01 2.628334462642669678e-01
2.791500091552734375e-01 -2.630845606327056885e-01 -3.287731902673840523e-03
-1.050859317183494568e-01 2.876629531383514404e-01 -4.360300954431295395e-03
3.931435346603393555e-01 -4.873690307140350342e-01 4.365426898002624512e-01
1.568639278411865234e-01 5.161448717117309570e-01 5.003225803375244141e-01
3.339518010616302490e-01 4.576179385185241699e-01 4.685147702693939209e-01
3.909847140312194824e-01 5.080419778823852539e-01 2.710236907005310059e-01
-9.707694500684738159e-02 -3.598177731037139893e-01 -5.175217986106872559e-01
2.718265354633331299e-01 -5.420637130737304688e-01 6.867947429418563843e-02
-3.967466652393341064e-01 -4.199860990047454834e-01 3.317216336727142334e-01
1.380175948143005371e-01 -2.630845606327056885e-01 1.772671937942504883e-01
-3.710435628890991211e-01 5.506016016006469727e-01 -3.425195813179016113e-01
-3.065800964832305908e-01 -5.420637130737304688e-01 -4.159920811653137207e-01
2.890530228614807129e-01 6.915543228387832642e-02 -5.175217986106872559e-01
-3.914449214935302734e-01 -3.433349728584289551e-01 -3.947211802005767822e-01
-3.403372764587402344e-01 1.258371472358703613e-01 5.003225803375244141e-01
2.299049496650695801e-02 1.012238953262567520e-02 -8.691530674695968628e-02
-2.922134101390838623e-02 -6.580892801284790039e-01 4.976557195186614990e-01
-3.148379325866699219e-01 -2.630845606327056885e-01 -6.223826110363006592e-02
1.300469413399696350e-02 -5.605532526969909668e-01 -5.175217986106872559e-01
3.016857802867889404e-01 -5.543565750122070312e-01 4.685147702693939209e-01
3.909847140312194824e-01 4.937846958637237549e-01 2.080861479043960571e-01
1.191892568022012711e-02 -6.029682755470275879e-01 4.685147702693939209e-01
1.140066087245941162e-01 5.671979784965515137e-01 5.003225803375244141e-01
-3.936028182506561279e-01 5.294255614280700684e-01 -1.308369189500808716e-01
-2.084026783704757690e-01 -5.420637130737304688e-01 -4.270829558372497559e-01
3.400526642799377441e-01 -4.975418746471405029e-02 5.003225803375244141e-01
-3.914449214935302734e-01 -3.854157030582427979e-01 6.935463845729827881e-02
3.931435346603393555e-01 -3.191859722137451172e-01 1.822806596755981445e-01
-3.614100515842437744e-01 -5.632651448249816895e-01 3.847993314266204834e-01
-2.130508720874786377e-01 -2.770586125552654266e-02 -5.175217986106872559e-01
-1.441847719252109528e-02 -2.630845606327056885e-01 2.573523521423339844e-01
2.262854576110839844e-01 -4.782585203647613525e-01 -5.175217986106872559e-01
3.931435346603393555e-01 3.027677722275257111e-02 3.733196854591369629e-01
2.757582366466522217e-01 -1.530464291572570801e-01 4.685147702693939209e-01
-2.902456820011138916e-01 1.012238953262567520e-02 -3.701392710208892822e-01
-6.722097098827362061e-02 -2.630845606327056885e-01 3.456943929195404053e-01
-2.206955105066299438e-01 5.809116363525390625e-01 5.003225803375244141e-01
1.949829012155532837e-01 -5.420637130737304688e-01 1.422695517539978027e-01
3.187479674816131592e-01 3.469213843345642090e-01 4.651117622852325439e-01
4.143486917018890381e-01 -2.725049257278442383e-01 -5.062900781631469727e-01
-4.307428747415542603e-02 2.797948122024536133e-01 -5.175217986106872559e-01
1.330613940954208374e-01 -1.431446373462677002e-01 5.003225803375244141e-01
6.328914314508438110e-02 4.857277870178222656e-01 -5.175217986106872559e-01
-1.654345542192459106e-01 1.012238953262567520e-02 2.233106344938278198e-01
-3.914449214935302734e-01 1.802736371755599976e-01 -1.011474281549453735e-01
-3.936028182506561279e-01 5.303749442100524902e-01 -2.211828380823135376e-01
4.833180829882621765e-02 -2.229015827178955078e-01 4.685147702693939209e-01
-3.347040414810180664e-01 5.453110933303833008e-01 4.685147702693939209e-01
-3.914449214935302734e-01 -5.013980865478515625e-01 1.864724904298782349e-01
3.267456889152526855e-01 1.276363283395767212e-01 -5.175217986106872559e-01
-3.914449214935302734e-01 -2.900196909904479980e-01 1.053919717669487000e-01
-3.330288231372833252e-01 5.824093818664550781e-01 3.093783259391784668e-01
1.672308146953582764e-01 5.824093818664550781e-01 2.701728940010070801e-01
-1.342878788709640503e-01 -5.904256105422973633e-01 5.003225803375244141e-01
-1.928758174180984497e-01 -3.022918701171875000e-01 4.579121768474578857e-01
2.276639491319656372e-01 -1.002793163061141968e-01 4.685147702693939209e-01
3.843063116073608398e-01 5.824093818664550781e-01 -4.523616433143615723e-01
-2.789660692214965820e-01 1.012238953262567520e-02 4.141740500926971436e-01
-2.226721793413162231e-01 2.876629531383514404e-01 -3.124809563159942627e-01
-2.621602416038513184e-01 1.253084838390350342e-01 -4.751114845275878906e-01
-2.847551703453063965e-01 1.101540680974721909e-02 5.003225803375244141e-01
3.825409412384033203e-01 -6.308405399322509766e-01 3.573881089687347412e-01
-1.580415815114974976e-01 1.277490258216857910e-01 -4.751114845275878906e-01
3.931435346603393555e-01 -2.049905359745025635e-01 2.276696115732192993e-01
1.994423419237136841e-01 8.676505088806152344e-02 -5.175217986106872559e-01
2.274986803531646729e-01 4.872969388961791992e-01 -4.785126447677612305e-01
-1.454867422580718994e-01 5.506016016006469727e-01 -2.095980346202850342e-01
7.649058103561401367e-02 4.219573736190795898e-01 -5.175217986106872559e-01
3.931435346603393555e-01 -4.085318148136138916e-01 4.578708708286285400e-01
5.706525593996047974e-02 3.227784857153892517e-02 -5.175217986106872559e-01
3.730257451534271240e-01 2.876629531383514404e-01 -3.825187683105468750e-02
-3.301845192909240723e-01 -1.676335036754608154e-01 -5.175217986106872559e-01
3.663980960845947266e-01 -5.420637130737304688e-01 1.055497303605079651e-01
-3.641867637634277344e-01 -2.876016795635223389e-01 2.619629800319671631e-01
1.386888232082128525e-02 5.824093818664550781e-01 -4.845149219036102295e-01
3.633171319961547852e-01 5.009072422981262207e-01 5.003225803375244141e-01
1.579466164112091064e-01 -5.420637130737304688e-01 -4.519390761852264404e-01
-3.563430607318878174e-01 2.876629531383514404e-01 2.279532104730606079e-01
3.892324566841125488e-01 5.506016016006469727e-01 3.197236359119415283e-01
2.789105772972106934e-01 5.824093818664550781e-01 4.966321289539337158e-01
-2.888967655599117279e-02 -5.420637130737304688e-01 4.405598640441894531e-01
1.061685234308242798e-01 -6.299117803573608398e-01 5.003225803375244141e-01
-3.914449214935302734e-01 -6.846763938665390015e-02 -3.216975331306457520e-01
-3.179264068603515625e-01 -4.625119268894195557e-01 -5.175217986106872559e-01
-1.036346424371004105e-02 1.890413761138916016e-01 5.003225803375244141e-01
-2.728581428527832031e-02 5.824093818664550781e-01 -1.558752059936523438e-01
-2.638988569378852844e-02 -4.059761390089988708e-02 4.685147702693939209e-01
5.907656252384185791e-02 2.876629531383514404e-01 -3.527296185493469238e-01
6.006827577948570251e-02 5.506016016006469727e-01 -2.713404595851898193e-02
-3.588493168354034424e-01 -3.730862438678741455e-01 4.579121768474578857e-01
3.909847140312194824e-01 3.209487497806549072e-01 -4.459602832794189453e-01
3.742436766624450684e-01 -5.988656282424926758e-01 -5.175217986106872559e-01
4.143486917018890381e-01 -6.445634961128234863e-01 6.958723813295364380e-02
-4.973538964986801147e-02 -5.420637130737304688e-01 1.720442920923233032e-01
3.931435346603393555e-01 -3.292758166790008545e-01 -1.185675561428070068e-01
7.308575510978698730e-02 4.432817995548248291e-01 4.685147702693939209e-01
-1.122375875711441040e-01 1.444083452224731445e-01 4.685147702693939209e-01
8.647500723600387573e-02 1.012238953262567520e-02 1.115106940269470215e-01
-7.937745004892349243e-02 4.240561127662658691e-01 4.685147702693939209e-01
-4.476406797766685486e-02 5.506016016006469727e-01 -4.990755319595336914e-01
-2.948178052902221680e-01 -2.082020193338394165e-01 5.003225803375244141e-01
-1.926936507225036621e-01 5.824093818664550781e-01 2.365600503981113434e-02
2.178473323583602905e-01 -2.630845606327056885e-01 -2.186653167009353638e-01
-2.027121633291244507e-01 -9.596507251262664795e-02 -5.175217986106872559e-01
1.999813616275787354e-01 8.440715074539184570e-02 4.685147702693939209e-01
3.931435346603393555e-01 -6.636111438274383545e-02 3.349838256835937500e-01
7.512260973453521729e-02 -5.420637130737304688e-01 3.713514804840087891e-01
-1.026031300425529480e-01 -4.028976261615753174e-01 4.685147702693939209e-01
3.931435346603393555e-01 1.659722179174423218e-01 -2.654365003108978271e-01
2.858960032463073730e-01 5.824093818664550781e-01 2.106140106916427612e-01
2.062988234683871269e-03 1.012238953262567520e-02 2.269268482923507690e-01
-3.609593212604522705e-01 2.876629531383514404e-01 -1.702958941459655762e-01
-2.151411622762680054e-01 -5.420637130737304688e-01 9.708812832832336426e-02
-1.224683150649070740e-01 4.849972724914550781e-01 5.003225803375244141e-01
-2.117615938186645508e-01 -1.325795203447341919e-01 5.003225803375244141e-01
-1.912404969334602356e-02 -4.583858251571655273e-01 4.579121768474578857e-01
3.909847140312194824e-01 3.185993134975433350e-01 -2.705542147159576416e-01
1.849437206983566284e-01 -1.402681022882461548e-01 -4.751114845275878906e-01
1.965520232915878296e-01 -1.585706472396850586e-01 5.003225803375244141e-01
1.913864165544509888e-01 3.377104103565216064e-01 5.003225803375244141e-01
3.931435346603393555e-01 -8.397637307643890381e-02 -4.475087225437164307e-01
1.131276786327362061e-01 -6.780017912387847900e-02 -5.175217986106872559e-01
3.323878347873687744e-02 -2.630845606327056885e-01 -7.089518010616302490e-02
3.931435346603393555e-01 -2.500470578670501709e-01 -2.747948765754699707e-01
2.756530642509460449e-01 2.876629531383514404e-01 2.384168207645416260e-01
4.143486917018890381e-01 -4.702410697937011719e-01 4.912318289279937744e-01
3.931435346603393555e-01 -2.148315906524658203e-01 -1.489808559417724609e-01
2.154030352830886841e-01 -3.786058723926544189e-01 4.579121768474578857e-01
-3.406152725219726562e-01 2.219027131795883179e-01 4.685147702693939209e-01
-3.914449214935302734e-01 5.192235857248306274e-02 -4.464729726314544678e-01
-3.895499706268310547e-01 -2.736871540546417236e-01 -3.893893659114837646e-01
6.894256919622421265e-02 2.876629531383514404e-01 -4.265317320823669434e-01
-3.914449214935302734e-01 -1.228279769420623779e-01 3.182904049754142761e-02
-3.500168025493621826e-01 1.012238953262567520e-02 2.984170615673065186e-01
-1.744614392518997192e-01 1.012238953262567520e-02 4.530254602432250977e-01
1.943349689245223999e-01 2.229666262865066528e-01 4.685147702693939209e-01
2.945688962936401367e-01 2.912274897098541260e-01 5.003225803375244141e-01
2.309054881334304810e-01 -2.539449632167816162e-01 4.685147702693939209e-01
-6.091838330030441284e-02 -2.383260875940322876e-01 4.685147702693939209e-01
-3.331772089004516602e-01 1.012238953262567520e-02 2.948926202952861786e-02
3.909847140312194824e-01 3.579934537410736084e-01 -9.974762052297592163e-02
-3.596371710300445557e-01 -2.909023761749267578e-01 1.961022317409515381e-01
3.639256060123443604e-01 2.876629531383514404e-01 2.976977527141571045e-01
3.909847140312194824e-01 4.211591780185699463e-01 -3.684039413928985596e-01
-3.936028182506561279e-01 5.135681629180908203e-01 7.692781835794448853e-02
-3.596371710300445557e-01 2.572787702083587646e-01 4.372103214263916016e-01
3.931435346603393555e-01 2.693007513880729675e-02 -1.515199840068817139e-01
3.931435346603393555e-01 3.693262487649917603e-02 -2.200015485286712646e-01
-3.914449214935302734e-01 5.610352158546447754e-01 4.464532136917114258e-01
-2.245740732178092003e-03 3.201383650302886963e-01 -4.785126447677612305e-01
3.909847140312194824e-01 3.504709005355834961e-01 8.065219968557357788e-02
8.965785056352615356e-02 5.824093818664550781e-01 2.590350806713104248e-01
1.501592546701431274e-01 4.090729653835296631e-01 4.651117622852325439e-01
-2.404940277338027954e-01 1.730966269969940186e-01 4.685147702693939209e-01
-1.120385080575942993e-01 1.012238953262567520e-02 3.478898406028747559e-01
2.282114028930664062e-01 -5.420637130737304688e-01 3.152209818363189697e-01
2.086889743804931641e-01 1.812943816184997559e-01 5.003225803375244141e-01
-3.467912375926971436e-01 3.183654844760894775e-01 -5.175217986106872559e-01
-1.048121973872184753e-02 5.654937028884887695e-01 4.685147702693939209e-01
1.123971119523048401e-01 2.876629531383514404e-01 3.722163438796997070e-01
4.143486917018890381e-01 -7.019554823637008667e-02 4.785248339176177979e-01
3.527117073535919189e-01 3.714751303195953369e-01 5.003225803375244141e-01
4.029108583927154541e-02 -4.859088063240051270e-01 -5.175217986106872559e-01
-3.830016404390335083e-02 1.012238953262567520e-02 1.645686924457550049e-01
-3.914449214935302734e-01 -9.722630679607391357e-02 4.100742340087890625e-01
1.568564176559448242e-01 2.876629531383514404e-01 -4.608964622020721436e-01
1.424526274204254150e-01 -3.146695718169212341e-02 4.685147702693939209e-01
1.454556435346603394e-01 -5.420637130737304688e-01 -1.367631182074546814e-02
-3.989026844501495361e-01 3.699003458023071289e-01 -3.307732641696929932e-01
-3.342627286911010742e-01 -3.092444539070129395e-01 -4.857140779495239258e-01
-6.409662216901779175e-02 -2.759032547473907471e-01 5.003225803375244141e-01
-7.927576452493667603e-02 4.785028994083404541e-01 -4.785126447677612305e-01
4.141665399074554443e-01 -6.896885633468627930e-01 4.685147702693939209e-01
-3.866746425628662109e-01 5.824093818664550781e-01 -2.475733458995819092e-01
3.997016847133636475e-01 4.195361584424972534e-02 -5.175217986106872559e-01
-3.349275290966033936e-01 -1.106115803122520447e-01 -4.751114845275878906e-01
3.809112682938575745e-02 -2.984164953231811523e-01 4.685147702693939209e-01
-3.305037617683410645e-01 -5.420637130737304688e-01 -2.169778794050216675e-01
-3.711299598217010498e-01 -2.115960419178009033e-02 5.003225803375244141e-01
-2.109286636114120483e-01 3.638436198234558105e-01 4.685147702693939209e-01
5.847783759236335754e-02 -3.650960326194763184e-01 -5.175217986106872559e-01
3.348053693771362305e-01 -2.630845606327056885e-01 -1.007218658924102783e-01
2.888229489326477051e-01 -2.630845606327056885e-01 -2.720895409584045410e-01
2.325299978256225586e-01 -6.580376029014587402e-01 5.003225803375244141e-01
-2.350589185953140259e-01 -6.184931993484497070e-01 4.685147702693939209e-01
2.988640069961547852e-01 -5.420637130737304688e-01 2.595083713531494141e-01
-3.915857672691345215e-01 2.957123219966888428e-01 4.651117622852325439e-01
-6.408460438251495361e-02 -5.420637130737304688e-01 -4.170428514480590820e-01
1.868790835142135620e-01 2.876629531383514404e-01 -2.121240198612213135e-01
2.808834612369537354e-01 -6.839692592620849609e-02 -5.175217986106872559e-01
-2.441581040620803833e-01 5.506016016006469727e-01 3.636617660522460938e-01
3.695560395717620850e-01 1.889061480760574341e-01 4.685147702693939209e-01
-3.596371710300445557e-01 5.591064095497131348e-01 1.954918801784515381e-01
3.299721777439117432e-01 6.716281175613403320e-02 5.003225803375244141e-01
3.860848546028137207e-01 -6.580892801284790039e-01 -6.075074523687362671e-02
-3.150632977485656738e-01 2.876629531383514404e-01 1.458275318145751953e-01
-2.742554061114788055e-02 -4.204603135585784912e-01 5.003225803375244141e-01
-2.646519429981708527e-02 -5.420637130737304688e-01 -1.418601870536804199e-01
3.323535621166229248e-01 -5.420637130737304688e-01 4.320529103279113770e-02
-1.940289437770843506e-01 -3.368209302425384521e-01 5.003225803375244141e-01
3.931435346603393555e-01 1.570148020982742310e-01 -4.222573041915893555e-01
-2.126921713352203369e-01 2.323268800973892212e-01 5.003225803375244141e-01
-2.529868781566619873e-01 7.832693308591842651e-02 -5.175217986106872559e-01
4.464855790138244629e-02 2.876629531383514404e-01 -1.158631518483161926e-01
3.401925563812255859e-01 5.506016016006469727e-01 -1.383162885904312134e-01
3.241558372974395752e-01 1.012238953262567520e-02 2.622691094875335693e-01
1.808148175477981567e-01 5.506016016006469727e-01 -2.828883826732635498e-01
1.489441543817520142e-01 2.876629531383514404e-01 2.364204227924346924e-01
3.869947791099548340e-01 -1.595921069383621216e-01 -4.751114845275878906e-01
-2.391587048768997192e-01 -3.276610746979713440e-02 4.685147702693939209e-01
-3.475452661514282227e-01 2.080783247947692871e-01 -4.751114845275878906e-01
1.485046930611133575e-02 -2.630845606327056885e-01 1.480201631784439087e-01
2.770437598228454590e-01 -2.667045295238494873e-01 -5.175217986106872559e-01
1.651301980018615723e-01 -5.420637130737304688e-01 2.975465655326843262e-01
-3.232863843441009521e-01 -3.422560393810272217e-01 4.579121768474578857e-01
-1.294161826372146606e-01 -7.922460138797760010e-02 5.003225803375244141e-01
3.931435346603393555e-01 1.531722992658615112e-01 3.689024746417999268e-01
1.300461869686841965e-02 -1.469880789518356323e-01 -5.175217986106872559e-01
1.738857179880142212e-01 -2.630845606327056885e-01 3.018491864204406738e-01
2.368533015251159668e-01 5.506016016006469727e-01 -8.520420640707015991e-02
1.326034497469663620e-02 -5.420637130737304688e-01 1.563437283039093018e-01
-3.914449214935302734e-01 -3.773428797721862793e-01 -4.499511420726776123e-01
-2.164769172668457031e-02 -1.003047525882720947e-01 4.685147702693939209e-01
3.931435346603393555e-01 -2.544576823711395264e-01 3.553964197635650635e-01
-3.914449214935302734e-01 -5.808907151222229004e-01 -1.668224185705184937e-01
3.458802998065948486e-01 5.824093818664550781e-01 -3.534508049488067627e-01
-3.914449214935302734e-01 1.553132981061935425e-01 -4.218131005764007568e-01
3.909847140312194824e-01 4.067769944667816162e-01 -2.956685721874237061e-01
-3.967466652393341064e-01 -2.147517502307891846e-01 -2.082552313804626465e-01
-5.559925362467765808e-02 2.166253626346588135e-01 -4.751114845275878906e-01
-7.289392501115798950e-02 -3.234125077724456787e-01 -4.857140779495239258e-01
3.931435346603393555e-01 -4.202706217765808105e-01 -3.750118911266326904e-01
2.318332344293594360e-01 -2.406195551156997681e-02 4.685147702693939209e-01
-5.436490103602409363e-02 2.876629531383514404e-01 -2.185066193342208862e-01
-1.128873899579048157e-01 -6.658864021301269531e-02 -5.175217986106872559e-01
8.850068598985671997e-02 -5.420637130737304688e-01 1.722274124622344971e-01
-3.914449214935302734e-01 -1.143070310354232788e-01 1.148226559162139893e-01
-2.236534655094146729e-01 2.876629531383514404e-01 3.558490276336669922e-01
-1.502100676298141479e-01 -5.420637130737304688e-01 5.668149143457412720e-02
3.081566393375396729e-01 1.012238953262567520e-02 -1.461252719163894653e-01
-3.989026844501495361e-01 4.072756469249725342e-01 2.213189452886581421e-01
-2.305046170949935913e-01 -2.260839641094207764e-01 -4.751114845275878906e-01
5.799085646867752075e-02 5.506016016006469727e-01 -3.217022418975830078e-01
2.103923857212066650e-01 1.012238953262567520e-02 -1.692084968090057373e-01
3.909847140312194824e-01 5.047018527984619141e-01 7.091804873198270798e-03
-3.219492137432098389e-01 1.012238953262567520e-02 -3.141730725765228271e-01
-5.150733888149261475e-02 2.876629531383514404e-01 -2.828939855098724365e-01
-2.379511147737503052e-01 3.934221267700195312e-01 -5.175217986106872559e-01
3.931435346603393555e-01 -2.558812797069549561e-01 -6.742480397224426270e-02
4.073848724365234375e-01 -6.075422167778015137e-01 4.685147702693939209e-01
2.703447341918945312e-01 2.611485123634338379e-01 -5.175217986106872559e-01
3.931435346603393555e-01 9.225086122751235962e-02 2.482559531927108765e-01
-1.964103281497955322e-01 6.551856547594070435e-02 4.685147702693939209e-01
-4.363272339105606079e-02 -3.597247898578643799e-01 4.579121768474578857e-01
-7.257691025733947754e-02 1.012238953262567520e-02 -1.148624066263437271e-02
2.094186097383499146e-01 3.756650984287261963e-01 -5.175217986106872559e-01
-3.936028182506561279e-01 3.137848973274230957e-01 -2.138058245182037354e-01
-3.936028182506561279e-01 4.375921785831451416e-01 -1.098809484392404556e-02
8.397634327411651611e-02 1.124446988105773926e-01 4.685147702693939209e-01
-3.914449214935302734e-01 1.027557924389839172e-01 4.086335375905036926e-02
-3.914449214935302734e-01 -5.248794555664062500e-01 2.443232983350753784e-01
2.751816809177398682e-01 1.680427640676498413e-01 5.003225803375244141e-01
-2.243671119213104248e-01 2.876629531383514404e-01 6.456014513969421387e-02
1.544747501611709595e-02 4.915225207805633545e-01 5.003225803375244141e-01
-3.914449214935302734e-01 -3.883952498435974121e-01 -7.243865728378295898e-02
-1.353302001953125000e-01 1.091890856623649597e-01 -5.175217986106872559e-01
-3.596371710300445557e-01 -5.710130333900451660e-01 -3.384160101413726807e-01
2.043224871158599854e-01 -5.420637130737304688e-01 -1.392722129821777344e-01
3.931435346603393555e-01 -3.666116297245025635e-01 -2.854425311088562012e-01
-3.967466652393341064e-01 1.007134020328521729e-01 -3.209547698497772217e-01
1.321815252304077148e-01 -2.630845606327056885e-01 -2.960385382175445557e-01
-2.608380913734436035e-01 2.876629531383514404e-01 -2.368252128362655640e-01
-2.947783768177032471e-01 -2.791241407394409180e-01 -5.175217986106872559e-01
1.480868160724639893e-01 1.012238953262567520e-02 1.257632821798324585e-01
-4.539424926042556763e-02 -2.630845606327056885e-01 1.263576894998550415e-01
-3.967466652393341064e-01 -1.286163330078125000e-01 -3.032183647155761719e-01
1.131117120385169983e-01 -4.070753753185272217e-01 -5.175217986106872559e-01
-3.914449214935302734e-01 -4.518651962280273438e-01 2.115997113287448883e-02
3.931435346603393555e-01 -5.309230685234069824e-01 -4.579733014106750488e-01
-2.486447840929031372e-01 -1.059453487396240234e-01 4.685147702693939209e-01
-2.621743381023406982e-01 5.506016016006469727e-01 -3.944019079208374023e-01
1.645498871803283691e-01 -2.630845606327056885e-01 7.455677539110183716e-02
-1.784415170550346375e-02 -2.630845606327056885e-01 -4.412623047828674316e-01
3.909847140312194824e-01 4.309297800064086914e-01 1.769347637891769409e-01
-3.301694691181182861e-01 -9.932207316160202026e-02 4.685147702693939209e-01
-3.936028182506561279e-01 3.097113668918609619e-01 -4.512488842010498047e-01
1.736434400081634521e-01 -4.947263002395629883e-01 -5.175217986106872559e-01
1.609703004360198975e-01 -2.421629726886749268e-01 -5.175217986106872559e-01
6.113660708069801331e-02 1.012238953262567520e-02 -3.406210988759994507e-02
3.931435346603393555e-01 2.059927135705947876e-01 -3.313385546207427979e-01
-2.025083899497985840e-01 2.876629531383514404e-01 1.418873667716979980e-01
-3.914449214935302734e-01 2.868606708943843842e-02 -3.821278512477874756e-01
-3.914449214935302734e-01 -4.278401434421539307e-01 3.942393958568572998e-01
3.931435346603393555e-01 -1.002283617854118347e-01 -8.947134763002395630e-02
-7.903846353292465210e-02 1.012238953262567520e-02 -2.131381779909133911e-01
-1.658665090799331665e-01 1.034938767552375793e-01 5.003225803375244141e-01
4.050222635269165039e-01 5.824093818664550781e-01 4.441215991973876953e-01
-1.629048138856887817e-01 3.239855766296386719e-01 -5.175217986106872559e-01
-1.111389100551605225e-01 3.783093690872192383e-01 -5.175217986106872559e-01
-1.627808511257171631e-01 -4.306581616401672363e-01 -5.175217986106872559e-01
-1.177379395812749863e-02 3.208839595317840576e-01 5.003225803375244141e-01
2.597346305847167969e-01 -5.420637130737304688e-01 -3.935783803462982178e-01
-1.325713247060775757e-01 4.217319786548614502e-01 5.003225803375244141e-01
4.143486917018890381e-01 4.949847459793090820e-01 4.852623939514160156e-01
2.772757112979888916e-01 -2.630845606327056885e-01 -2.004058808088302612e-01
1.173110529780387878e-01 4.942983388900756836e-01 4.651117622852325439e-01
3.456103056669235229e-02 2.876629531383514404e-01 2.898437082767486572e-01
-3.368018567562103271e-01 1.820803433656692505e-01 5.003225803375244141e-01
-2.540141642093658447e-01 5.506016016006469727e-01 -2.297317683696746826e-01
2.411240041255950928e-01 3.815621435642242432e-01 4.651117622852325439e-01
9.023056924343109131e-02 1.012238953262567520e-02 3.117324709892272949e-01
3.931435346603393555e-01 1.000861376523971558e-01 4.071407020092010498e-01
3.883174061775207520e-02 5.297410488128662109e-01 4.651117622852325439e-01
-1.771902740001678467e-01 5.506016016006469727e-01 -3.480467200279235840e-01
3.493659794330596924e-01 5.028904080390930176e-01 -5.175217986106872559e-01
-3.391738235950469971e-01 -5.496360659599304199e-01 5.003225803375244141e-01
-6.886652112007141113e-02 -1.972552016377449036e-02 5.003225803375244141e-01
2.007710784673690796e-01 5.506016016006469727e-01 1.291867345571517944e-02
3.108009696006774902e-01 -5.420637130737304688e-01 1.971229761838912964e-01
8.483856171369552612e-02 -5.355947613716125488e-01 5.003225803375244141e-01
-3.914449214935302734e-01 -9.951624087989330292e-03 9.475437924265861511e-03
-3.914449214935302734e-01 5.780819430947303772e-02 4.798545241355895996e-01
-3.401260077953338623e-01 -5.420637130737304688e-01 8.591743558645248413e-02
6.227489933371543884e-02 -3.639175593852996826e-01 4.685147702693939209e-01
-2.138725221157073975e-01 1.012238953262567520e-02 6.933304667472839355e-02
-2.089313566684722900e-01 -2.630845606327056885e-01 -1.654523611068725586e-01
-3.390019834041595459e-01 -1.955485939979553223e-01 4.685147702693939209e-01
3.931435346603393555e-01 -1.242352053523063660e-01 1.176904439926147461e-01
-2.446604967117309570e-01 2.607316076755523682e-01 -5.175217986106872559e-01
1.146939769387245178e-01 2.876629531383514404e-01 7.370056211948394775e-02
3.825409412384033203e-01 -4.101638495922088623e-01 -5.104021430015563965e-01
-3.615359067916870117e-01 -5.950728654861450195e-01 -3.930374979972839355e-01
-3.021845221519470215e-01 3.749664127826690674e-01 4.685147702693939209e-01
3.909847140312194824e-01 3.424806892871856689e-01 2.913592755794525146e-01
-3.719300031661987305e-01 5.824093818664550781e-01 -4.507439583539962769e-02
-1.015176177024841309e-01 5.824093818664550781e-01 1.100101247429847717e-01
-2.043169587850570679e-01 5.824093818664550781e-01 2.226739674806594849e-01
-3.914449214935302734e-01 -2.480018585920333862e-01 2.791237235069274902e-01
3.571645915508270264e-01 -3.892631735652685165e-03 -5.175217986106872559e-01
3.156538605690002441e-01 -1.722949296236038208e-01 -5.175217986106872559e-01
3.931435346603393555e-01 -4.684719443321228027e-01 2.037130892276763916e-01
-3.400208652019500732e-01 -6.207863092422485352e-01 5.003225803375244141e-01
3.532466478645801544e-03 1.012238953262567520e-02 2.875515222549438477e-01
-2.925829291343688965e-01 6.789713352918624878e-02 4.685147702693939209e-01
-2.788984477519989014e-01 -5.684598684310913086e-01 -5.175217986106872559e-01
3.593778908252716064e-01 5.824093818664550781e-01 2.851109802722930908e-01
1.428733170032501221e-01 -6.262815594673156738e-01 -5.025489926338195801e-01
-1.594773381948471069e-01 2.352998405694961548e-01 -5.175217986106872559e-01
-2.675615251064300537e-01 2.876629531383514404e-01 2.480014860630035400e-01
6.595523655414581299e-02 -1.099857166409492493e-01 4.685147702693939209e-01
-2.925350368022918701e-01 5.506016016006469727e-01 -7.533331215381622314e-02
-2.428265661001205444e-01 -5.420637130737304688e-01 -3.613980859518051147e-02
-3.390992060303688049e-02 5.506016016006469727e-01 4.565841332077980042e-02
-9.556322544813156128e-02 -2.630845606327056885e-01 -1.706786424620077014e-04
-2.851035594940185547e-01 -2.630845606327056885e-01 2.345655858516693115e-02
-2.633199393749237061e-01 2.876629531383514404e-01 -5.687640234827995300e-02
-1.788082122802734375e-01 5.052399039268493652e-01 -5.175217986106872559e-01
-2.374318391084671021e-01 -2.630845606327056885e-01 4.406715929508209229e-01
-3.914449214935302734e-01 2.354773283004760742e-01 -2.188991308212280273e-01
3.561598360538482666e-01 5.824093818664550781e-01 4.101268351078033447e-01
-2.901151776313781738e-01 -6.396035552024841309e-01 -4.857140779495239258e-01
2.834413945674896240e-01 -4.501364529132843018e-01 5.003225803375244141e-01
7.409522775560617447e-03 2.876629531383514404e-01 -6.842259317636489868e-03
2.813276350498199463e-01 2.876629531383514404e-01 7.344101369380950928e-02
3.931435346603393555e-01 2.286562025547027588e-01 4.335190057754516602e-01
3.490382432937622070e-01 -2.630845606327056885e-01 1.428235089406371117e-03
3.380572497844696045e-01 -5.966419577598571777e-01 4.685147702693939209e-01
3.909847140312194824e-01 3.089235424995422363e-01 1.266675740480422974e-01
1.556600779294967651e-01 3.066726922988891602e-01 -5.175217986106872559e-01
-3.914449214935302734e-01 1.902977675199508667e-01 1.595401912927627563e-01
4.518915712833404541e-02 2.333579510450363159e-01 4.685147702693939209e-01
1.531012356281280518e-01 2.876629531383514404e-01 3.285683691501617432e-01
