3.997277915477752686e-01 3.431348502635955811e-01 -3.482743725180625916e-02
-3.873295485973358154e-01 4.561175107955932617e-01 1.193934455513954163e-01
2.656715512275695801e-01 4.176400899887084961e-01 3.024925291538238525e-01
-1.747604608535766602e-01 -6.616685986518859863e-01 -3.611773550510406494e-01
2.846582829952239990e-01 -7.399358749389648438e-01 -2.148112505674362183e-01
-1.780822724103927612e-01 -8.090878129005432129e-01 1.402778327465057373e-01
-2.258643060922622681e-01 -3.920709788799285889e-01 -3.328859806060791016e-01
2.471601366996765137e-01 -7.399358749389648438e-01 2.866587340831756592e-01
-2.565609812736511230e-01 6.231455206871032715e-01 -4.084770008921623230e-02
-3.042848408222198486e-01 -5.022155046463012695e-01 2.651180624961853027e-01
-1.151439100503921509e-01 7.239004969596862793e-01 9.369430691003799438e-02
1.059664711356163025e-01 9.798415899276733398e-01 -3.087179735302925110e-02
-2.975350618362426758e-01 -7.657612115144729614e-02 -2.728633284568786621e-01
3.997693359851837158e-01 -4.746311306953430176e-01 3.292495012283325195e-02
2.335045933723449707e-01 6.231455206871032715e-01 1.138583049178123474e-01
-3.854946494102478027e-01 -7.089189887046813965e-01 1.236511915922164917e-01
2.435891181230545044e-01 6.231455206871032715e-01 -3.094000928103923798e-02
-4.348055273294448853e-02 -8.090878129005432129e-01 -1.021304279565811157e-01
1.389438211917877197e-01 -1.150987669825553894e-01 -3.753728568553924561e-01
3.056912720203399658e-01 3.114718496799468994e-01 -2.585671842098236084e-01
-3.052456974983215332e-01 -1.376050617545843124e-02 2.639025151729583740e-01
2.338599264621734619e-01 1.006750017404556274e-01 3.276281952857971191e-01
-3.931461870670318604e-01 -1.782844811677932739e-01 9.471097588539123535e-02
-1.513089146465063095e-02 6.231455206871032715e-01 2.438718825578689575e-01
1.804753988981246948e-01 -6.607954502105712891e-01 -3.588569462299346924e-01
2.760191261768341064e-01 -6.744134426116943359e-02 -2.932927012443542480e-01
2.612126171588897705e-01 4.090745374560356140e-02 3.060155510902404785e-01
-1.460620760917663574e-01 1.586401462554931641e-01 3.757452368736267090e-01
-2.540329098701477051e-01 4.347513318061828613e-01 3.135028183460235596e-01
3.732912242412567139e-02 9.798415899276733398e-01 1.652049124240875244e-01
3.691285848617553711e-02 -2.809078060090541840e-02 4.016183912754058838e-01
3.405016660690307617e-01 5.582855343818664551e-01 2.152537852525711060e-01
-1.767061054706573486e-01 -7.399358749389648438e-01 -1.660443991422653198e-01
3.863869607448577881e-01 4.864791035652160645e-01 1.142487302422523499e-01
-2.721095681190490723e-01 4.965820908546447754e-01 -2.963449954986572266e-01
1.632294207811355591e-01 -3.992610275745391846e-01 -3.657156527042388916e-01
-4.024766683578491211e-01 9.787752479314804077e-02 -2.274279110133647919e-02
2.313420325517654419e-01 3.540768623352050781e-01 3.296172320842742920e-01
3.758916854858398438e-01 -6.855304837226867676e-01 1.406396627426147461e-01
1.033387333154678345e-01 -6.190054416656494141e-01 3.919113278388977051e-01
1.263164579868316650e-01 4.153049588203430176e-01 3.837614059448242188e-01
1.612929850816726685e-01 2.983922362327575684e-01 -3.664854168891906738e-01
-1.062278673052787781e-01 -2.600933015346527100e-01 3.915873765945434570e-01
1.616797298192977905e-01 -8.090878129005432129e-01 1.687510162591934204e-01
-9.418198466300964355e-02 6.231455206871032715e-01 -3.200260400772094727e-01
7.558733224868774414e-02 1.077378764748573303e-01 -3.941768407821655273e-01
-3.762740194797515869e-01 -1.174874529242515564e-01 -1.417320221662521362e-01
2.298781722784042358e-01 4.915804564952850342e-01 -3.276674151420593262e-01
-1.428823918104171753e-01 -7.399358749389648438e-01 3.150497376918792725e-01
1.320675760507583618e-01 -3.413113951683044434e-01 3.812831640243530273e-01
-3.811427354812622070e-01 -3.813938796520233154e-01 1.337504833936691284e-01
-3.211828768253326416e-01 2.080199420452117920e-01 -2.411227971315383911e-01
3.809690475463867188e-01 -3.736574351787567139e-01 -1.274792999029159546e-01
2.849610149860382080e-01 -7.399358749389648438e-01 2.374217612668871880e-03
3.956001996994018555e-01 -9.098669886589050293e-02 -6.307282298803329468e-02
4.895052313804626465e-02 9.000300765037536621e-01 -1.788821816444396973e-01
-1.417960375547409058e-01 7.345766425132751465e-01 3.237567842006683350e-02
-1.762584447860717773e-01 -4.127154052257537842e-01 3.637372255325317383e-01
-1.858030408620834351e-01 8.607311546802520752e-02 -3.564184308052062988e-01
6.474317610263824463e-02 7.302137017250061035e-01 -1.768036484718322754e-01
-3.752513527870178223e-01 3.873763382434844971e-01 -1.443034708499908447e-01
4.016669988632202148e-01 1.228707730770111084e-01 1.673874072730541229e-02
1.120489463210105896e-01 -8.000693321228027344e-01 -2.005834281444549561e-01
1.737477481365203857e-01 8.948844671249389648e-01 9.506217390298843384e-02
-8.377698808908462524e-02 9.798415899276733398e-01 -9.016114473342895508e-02
3.152524828910827637e-01 3.803155124187469482e-01 -2.464668750762939453e-01
-3.158332407474517822e-01 -4.469922780990600586e-01 -2.483026981353759766e-01
-1.186726987361907959e-02 3.198762983083724976e-02 -4.030559659004211426e-01
8.541564643383026123e-02 6.231455206871032715e-01 3.778395056724548340e-01
3.851723074913024902e-01 -6.444908976554870605e-01 -1.177251935005187988e-01
-3.734007775783538818e-01 -6.703917384147644043e-01 -1.489571481943130493e-01
5.446296557784080505e-02 -2.473016381263732910e-01 -3.966522812843322754e-01
-1.107698753476142883e-01 3.229362368583679199e-01 -3.886029124259948730e-01
6.262233853340148926e-02 6.231455206871032715e-01 2.152833342552185059e-01
-1.054821014404296875e-01 6.420372128486633301e-01 -1.160314977169036865e-01
-4.050591588020324707e-01 5.964897274971008301e-01 -7.138330838643014431e-04
2.923181354999542236e-01 5.732773616909980774e-02 -2.754919826984405518e-01
3.011021912097930908e-01 -1.666197925806045532e-01 2.681380808353424072e-01
3.472782373428344727e-01 3.898788709193468094e-03 -2.056543081998825073e-01
-3.945094347000122070e-01 -3.867213428020477295e-01 8.537931740283966064e-02
4.036264717578887939e-01 -6.956052035093307495e-02 -8.149837143719196320e-03
-1.207556501030921936e-01 3.319787383079528809e-01 3.858094811439514160e-01
-3.878740966320037842e-01 1.234246566891670227e-01 1.181308180093765259e-01
-2.262491881847381592e-01 6.231455206871032715e-01 1.160393282771110535e-01
-2.353923022747039795e-01 -9.840933978557586670e-02 -3.253571987152099609e-01
-2.786871790885925293e-02 -8.090878129005432129e-01 7.507132738828659058e-02
4.022927582263946533e-01 -2.700172364711761475e-01 1.139903999865055084e-02
-3.966018557548522949e-01 -6.785232424736022949e-01 -7.285452634096145630e-02
-3.838304877281188965e-01 3.347661495208740234e-01 1.275129616260528564e-01
-2.815249562263488770e-01 -7.399358749389648438e-01 2.234249711036682129e-01
-3.494428396224975586e-01 5.454772114753723145e-01 2.073087245225906372e-01
-3.965861499309539795e-01 1.587198972702026367e-01 -7.299482077360153198e-02
-1.279586255550384521e-01 5.048215985298156738e-01 -3.813464045524597168e-01
-3.153043687343597412e-01 -2.595136761665344238e-01 -2.490124702453613281e-01
-6.324416399002075195e-02 -7.399358749389648438e-01 -3.267693817615509033e-01
-6.723810732364654541e-02 8.649243116378784180e-01 1.412497460842132568e-01
1.582286804914474487e-01 4.571134150028228760e-01 3.700089156627655029e-01
-6.505736708641052246e-02 -6.342356204986572266e-01 3.981082737445831299e-01
2.943099439144134521e-01 -3.793550133705139160e-01 -2.729722261428833008e-01
-3.009662032127380371e-02 4.143385887145996094e-01 4.022063314914703369e-01
-2.139365524053573608e-01 5.872035622596740723e-01 3.433743119239807129e-01
-1.447486579418182373e-01 8.982773423194885254e-01 -1.969739980995655060e-02
-1.053307279944419861e-01 -3.136320114135742188e-01 -3.893985450267791748e-01
3.978698253631591797e-01 4.918416738510131836e-01 -4.754497855901718140e-02
-3.614397943019866943e-01 2.523331902921199799e-02 -1.790345013141632080e-01
2.712210454046726227e-02 -6.170237660408020020e-01 -3.998578190803527832e-01
2.362218499183654785e-01 6.231455206871032715e-01 -2.543565630912780762e-01
3.766217529773712158e-01 2.512784600257873535e-01 -1.375656872987747192e-01
-1.433789432048797607e-01 -4.698832929134368896e-01 3.768131732940673828e-01
-2.035862058401107788e-01 -8.090878129005432129e-01 -1.047627776861190796e-01
2.547969222068786621e-01 -5.244954228401184082e-01 -3.091034293174743652e-01
1.380632966756820679e-01 1.268157064914703369e-01 3.786997199058532715e-01
-1.011200696229934692e-01 -4.617840945720672607e-01 -3.900132477283477783e-01
3.546473383903503418e-01 5.052800849080085754e-02 1.940601915121078491e-01
-7.305543869733810425e-03 -8.090878129005432129e-01 2.053298652172088623e-01
-3.742637336254119873e-01 -5.404049158096313477e-01 1.497126072645187378e-01
-4.024868011474609375e-01 -2.048424631357192993e-01 -2.265445888042449951e-02
1.511549204587936401e-01 -5.134915709495544434e-01 3.730575442314147949e-01
3.397817313671112061e-01 3.232500851154327393e-01 2.162201404571533203e-01
2.693182826042175293e-01 2.202781289815902710e-01 2.996109724044799805e-01
8.411590009927749634e-02 5.807851552963256836e-01 -3.931763172149658203e-01
-3.759814202785491943e-01 -4.672862961888313293e-02 1.457262188196182251e-01
2.105813324451446533e-01 -2.578282952308654785e-01 -3.420438468456268311e-01
-2.616475224494934082e-01 -1.232404261827468872e-01 3.078301548957824707e-01
2.036090940237045288e-01 7.431936264038085938e-01 1.597727648913860321e-02
1.363286003470420837e-02 -1.787007451057434082e-01 4.050205051898956299e-01
2.879625558853149414e-01 -7.399358749389648438e-01 4.765431955456733704e-02
3.233300149440765381e-02 2.766716182231903076e-01 -3.992468118667602539e-01
-2.173746824264526367e-01 -6.028088331222534180e-01 3.408130407333374023e-01
-3.951813578605651855e-01 6.035376191139221191e-01 8.078275620937347412e-02
1.762628853321075439e-01 6.979959607124328613e-01 -1.015304848551750183e-01
1.583569794893264771e-01 -1.299098832532763481e-03 -3.676530122756958008e-01
-1.557146459817886353e-01 6.231455206871032715e-01 2.715476155281066895e-01
3.801429569721221924e-01 -1.892237067222595215e-01 1.299505680799484253e-01
3.652496635913848877e-01 -5.165891051292419434e-01 1.674006879329681396e-01
1.756417304277420044e-01 7.922844886779785156e-01 9.259503334760665894e-02
-4.033359587192535400e-01 -6.353477835655212402e-01 2.497352473437786102e-02
1.536220461130142212e-01 -7.399358749389648438e-01 3.547021150588989258e-01
-5.670444294810295105e-02 6.947904229164123535e-01 1.487203985452651978e-01
-3.866188228130340576e-01 -5.283193588256835938e-01 -1.157177016139030457e-01
-4.046890437602996826e-01 2.596443891525268555e-01 1.571256481111049652e-02
3.977507352828979492e-01 -5.870811939239501953e-01 5.014942586421966553e-02
-2.354652136564254761e-01 2.538646459579467773e-01 -3.252999782562255859e-01
3.283477723598480225e-01 2.014122903347015381e-01 -2.298937290906906128e-01
2.872020006179809570e-01 5.885539054870605469e-01 2.854800820350646973e-01
-8.100904524326324463e-02 2.012166380882263184e-01 3.962383270263671875e-01
7.753879576921463013e-02 6.757141351699829102e-01 1.648006439208984375e-01
2.619851529598236084e-01 -1.149833872914314270e-01 -3.037482500076293945e-01
1.439537853002548218e-01 -7.399358749389648438e-01 -2.909519970417022705e-01
1.308612376451492310e-01 -5.190858244895935059e-01 -3.785866796970367432e-01
-2.404844164848327637e-01 9.670884162187576294e-02 3.235965967178344727e-01
-3.028662204742431641e-01 -7.399358749389648438e-01 -1.947132498025894165e-01
3.612098982557654381e-03 9.098958373069763184e-01 -1.779490709304809570e-01
2.748456224799156189e-02 -8.090878129005432129e-01 4.652237147092819214e-02
-2.270549535751342773e-01 -5.211043953895568848e-01 -3.319454491138458252e-01
2.036404758691787720e-01 -7.632717490196228027e-01 -1.061149537563323975e-01
1.875182799994945526e-02 6.231455206871032715e-01 -3.943937420845031738e-01
-3.482861677184700966e-03 -3.346317410469055176e-01 4.053269326686859131e-01
-2.538289427757263184e-01 2.449347525835037231e-01 3.136551082134246826e-01
1.478653997182846069e-01 2.800054550170898438e-01 3.744752407073974609e-01
3.045938611030578613e-01 -6.572456359863281250e-01 -2.599563002586364746e-01
-3.993274271488189697e-01 -3.870148658752441406e-01 -4.960720241069793701e-02
3.969071507453918457e-01 -3.137937188148498535e-02 -5.412779748439788818e-02
-2.938984930515289307e-01 3.258009627461433411e-02 -2.777440845966339111e-01
-3.637494891881942749e-02 -6.819843649864196777e-01 -3.994747698307037354e-01
3.995173573493957520e-01 2.593573331832885742e-01 3.507790714502334595e-02
-3.133134841918945312e-01 -3.535446524620056152e-01 2.536915242671966553e-01
-4.886174201965332031e-02 -7.974886298179626465e-01 -2.281474471092224121e-01
-2.521241903305053711e-01 -7.399358749389648438e-01 5.478318408131599426e-02
3.833411037921905518e-01 6.087977290153503418e-01 1.219085827469825745e-01
-3.941568434238433838e-01 -2.097306102514266968e-01 -9.371833503246307373e-02
6.314142793416976929e-02 -7.399358749389648438e-01 3.573824763298034668e-01
1.467744410037994385e-01 4.620864689350128174e-01 -3.722586929798126221e-01
2.738104164600372314e-01 -3.009732663631439209e-01 2.960611879825592041e-01
1.685891896486282349e-01 9.581588506698608398e-01 -1.115301027894020081e-01
-8.270216733217239380e-02 -2.780373021960258484e-02 3.960398435592651367e-01
-2.152739614248275757e-01 -2.417545020580291748e-01 -3.412537872791290283e-01
3.133262097835540771e-01 -5.759370326995849609e-01 2.517310976982116699e-01
-3.597654998302459717e-01 6.231455206871032715e-01 -1.237411946058273315e-01
1.549160778522491455e-01 1.287034898996353149e-01 -3.690208494663238525e-01
3.949171900749206543e-01 -4.953955411911010742e-01 -6.774986535310745239e-02
-3.963434100151062012e-01 4.824003875255584717e-01 -7.506369054317474365e-02
2.606846690177917480e-01 3.326949775218963623e-01 -3.047174215316772461e-01
1.792381703853607178e-02 1.558031737804412842e-01 4.043928980827331543e-01
9.184018522500991821e-02 9.798415899276733398e-01 6.695486605167388916e-02
-2.049079090356826782e-01 6.164733171463012695e-01 -3.481844663619995117e-01
-3.158511593937873840e-02 9.194337576627731323e-02 4.020318984985351562e-01
2.423384785652160645e-01 -7.399358749389648438e-01 1.335040479898452759e-01
-1.544178426265716553e-01 -8.090878129005432129e-01 1.333543565124273300e-02
1.961449235677719116e-01 6.231455206871032715e-01 2.425270825624465942e-01
1.509250849485397339e-01 -1.367282029241323471e-02 3.731562793254852295e-01
-3.581299781799316406e-01 5.133241415023803711e-01 -1.873579770326614380e-01
3.590172529220581055e-02 -7.210148870944976807e-02 -3.988286852836608887e-01
-1.466426253318786621e-01 6.231455206871032715e-01 1.535308174788951874e-02
-1.604634076356887817e-01 -4.021696746349334717e-02 -3.673382699489593506e-01
3.766365349292755127e-01 -7.399358749389648438e-01 -6.459509581327438354e-02
-3.900416940450668335e-02 6.231455206871032715e-01 -2.526573240756988525e-01
8.769319951534271240e-02 6.689680814743041992e-01 -1.703408956527709961e-01
-2.008707821369171143e-01 -1.976773291826248169e-01 3.531090319156646729e-01
3.248385787010192871e-01 6.231455206871032715e-01 -1.279389411211013794e-01
3.949550390243530273e-01 3.839068412780761719e-01 7.399927824735641479e-02
1.263026148080825806e-01 -7.399358749389648438e-01 2.634807229042053223e-01
2.195056825876235962e-01 -7.387249469757080078e-01 -3.353956043720245361e-01
-1.322043538093566895e-01 7.322531938552856445e-02 -3.795161545276641846e-01
-9.408137947320938110e-02 6.231455206871032715e-01 3.830553293228149414e-01
-3.605199977755546570e-02 -1.224162057042121887e-01 -3.995218575000762939e-01
-1.580147147178649902e-01 4.740178883075714111e-01 3.709928095340728760e-01
3.131554424762725830e-01 -7.399358749389648438e-01 1.943232417106628418e-01
2.317518442869186401e-01 -8.082986474037170410e-01 1.424788031727075577e-02
-3.328244686126708984e-01 -5.683335661888122559e-01 -2.254957258701324463e-01
2.429541051387786865e-01 -3.400090634822845459e-01 3.204427659511566162e-01
-3.402175903320312500e-01 -6.382875442504882812e-01 2.196416705846786499e-01
-1.118525415658950806e-01 6.231455206871032715e-01 1.701041162014007568e-01
-6.661610305309295654e-02 -7.917986065149307251e-02 3.979255259037017822e-01
-1.792932301759719849e-01 -7.399358749389648438e-01 -2.960883975028991699e-01
3.747029006481170654e-01 4.041737318038940430e-01 -1.420190930366516113e-01
3.129053115844726562e-01 5.108773112297058105e-01 2.522950470447540283e-01
-3.510774374008178711e-01 -1.666474938392639160e-01 2.035152763128280640e-01
3.569307923316955566e-01 -8.513311296701431274e-02 -1.832580715417861938e-01
3.205624222755432129e-01 1.203118786215782166e-01 2.420166730880737305e-01
-2.212706059217453003e-01 -7.399358749389648438e-01 3.214912414550781250e-01
2.928673028945922852e-01 6.231455206871032715e-01 -2.692609131336212158e-01
1.541860103607177734e-01 6.971163749694824219e-01 1.203062832355499268e-01
-3.919740021228790283e-01 2.189628779888153076e-01 1.027271002531051636e-01
-3.196774721145629883e-01 4.068217873573303223e-01 -2.431431859731674194e-01
3.782259225845336914e-01 -5.289414525032043457e-01 -1.338432878255844116e-01
1.868569105863571167e-01 6.171747446060180664e-01 -3.563187420368194580e-01
-4.000842869281768799e-01 -1.228066086769104004e-01 4.722946882247924805e-02
5.109111592173576355e-02 5.122017860412597656e-01 3.995462954044342041e-01
7.158812880516052246e-02 -4.324774444103240967e-01 3.965511918067932129e-01
2.439158707857131958e-01 6.231455206871032715e-01 6.007179617881774902e-02
-2.992850244045257568e-01 6.122155189514160156e-01 -2.705152332782745361e-01
3.566184267401695251e-02 8.630672693252563477e-01 1.708849668502807617e-01
3.090998530387878418e-01 -5.538807064294815063e-02 2.574028372764587402e-01
2.060513198375701904e-01 9.495593309402465820e-01 -7.170272525399923325e-03
-3.807126581668853760e-01 -7.399358749389648438e-01 2.302796207368373871e-02
-7.923590391874313354e-02 -7.477545142173767090e-01 2.331172376871109009e-01
2.819373309612274170e-01 5.022326707839965820e-01 -2.886306941509246826e-01
-6.393538415431976318e-02 7.392358779907226562e-01 -1.535314768552780151e-01
-4.942110739648342133e-03 5.057649016380310059e-01 -4.036161899566650391e-01
-1.993709206581115723e-01 -3.107448816299438477e-01 3.542267680168151855e-01
-1.396953165531158447e-01 9.798415899276733398e-01 4.021385684609413147e-02
3.914384543895721436e-01 1.730159074068069458e-01 -9.155301749706268311e-02
-2.154530286788940430e-01 -1.161364559084177017e-02 3.422445952892303467e-01
-4.405631124973297119e-02 -7.259572744369506836e-01 4.005698561668395996e-01
-3.971298038959503174e-01 4.179797470569610596e-01 6.744552403688430786e-02
2.938871979713439941e-01 6.231455206871032715e-01 1.463953852653503418e-01
1.046862900257110596e-01 -7.580531239509582520e-01 2.171172946691513062e-01
-1.406579762697219849e-01 8.104414343833923340e-01 -5.062571913003921509e-02
2.155700623989105225e-01 -4.408156871795654297e-01 3.420793712139129639e-01
-1.136172935366630554e-01 -2.505542337894439697e-01 -3.875257968902587891e-01
1.118366569280624390e-01 -7.399358749389648438e-01 -3.787703812122344971e-01
3.579571843147277832e-01 -4.079656898975372314e-01 1.857367157936096191e-01
-4.033793210983276367e-01 9.683418273925781250e-02 2.467798441648483276e-02
-4.013524353504180908e-01 4.802452623844146729e-01 3.854740783572196960e-02
-2.247678041458129883e-01 6.231455206871032715e-01 -1.240522414445877075e-01
-3.320823907852172852e-01 2.889943718910217285e-01 2.299375534057617188e-01
-3.600793182849884033e-01 -9.308187663555145264e-02 -1.824559867382049561e-01
2.329268008470535278e-01 5.208206176757812500e-01 3.283656537532806396e-01
8.155876398086547852e-02 -9.120637178421020508e-02 3.950937986373901367e-01
3.993881344795227051e-01 -3.831272721290588379e-01 3.618290647864341736e-02
2.033848166465759277e-01 6.231455206871032715e-01 -1.391541361808776855e-01
1.502494812011718750e-01 -8.090878129005432129e-01 7.610543817281723022e-02
-1.118377745151519775e-01 -5.766329765319824219e-01 -3.882928192615509033e-01
9.855120629072189331e-02 -4.423718154430389404e-01 -3.914355933666229248e-01
3.821740671992301941e-02 -8.090878129005432129e-01 -6.135560944676399231e-02
1.407842487096786499e-01 6.231455206871032715e-01 -3.715277016162872314e-01
-3.556360602378845215e-01 2.901111841201782227e-01 -1.936296522617340088e-01
2.489396631717681885e-01 -2.115177549421787262e-02 -3.134673237800598145e-01
-9.940279647707939148e-03 9.798415899276733398e-01 -1.061762310564517975e-02
-3.940719366073608398e-01 -4.823426250368356705e-03 -9.444011002779006958e-02
-2.412892431020736694e-01 -4.918457269668579102e-01 3.229966461658477783e-01
-2.947891652584075928e-01 -2.116192691028118134e-02 -2.765488028526306152e-01
3.988232612609863281e-01 1.372470613569021225e-02 4.099959507584571838e-02
-2.802863121032714844e-01 -4.084225893020629883e-01 -2.898840904235839844e-01
3.614635765552520752e-01 3.400124311447143555e-01 1.769194453954696655e-01
-3.759343624114990234e-01 -2.544815540313720703e-01 1.458360552787780762e-01
1.237810254096984863e-01 -2.358289361000061035e-01 3.848541975021362305e-01
2.048307098448276520e-02 3.223464787006378174e-01 4.040190577507019043e-01
-1.251706108450889587e-02 6.502166986465454102e-01 -1.758252680301666260e-01
-3.750233948230743408e-01 2.216349244117736816e-01 -1.448775678873062134e-01
7.017780095338821411e-02 9.798415899276733398e-01 -1.391827464103698730e-01
-3.466895818710327148e-01 3.781206309795379639e-01 2.114510983228683472e-01
2.329951077699661255e-01 2.182207852602005005e-01 -3.253461122512817383e-01
-2.786844037473201752e-02 1.698834896087646484e-01 -4.007180333137512207e-01
1.547813266515731812e-01 7.307573556900024414e-01 -1.295255571603775024e-01
9.735778719186782837e-02 -3.569329082965850830e-01 -3.916247785091400146e-01
-3.070131838321685791e-01 3.704054057598114014e-01 2.616651952266693115e-01
2.297268062829971313e-01 -7.729420810937881470e-02 3.308936953544616699e-01
-4.013662934303283691e-01 -2.969831824302673340e-01 3.845437243580818176e-02
-1.928592622280120850e-01 4.026600420475006104e-01 -3.533771932125091553e-01
1.091664582490921021e-01 2.253933250904083252e-01 -3.872147500514984131e-01
3.397272825241088867e-01 1.453234106302261353e-01 -2.154905796051025391e-01
-1.315324306488037109e-01 7.223775386810302734e-01 -7.265876233577728271e-02
2.120959460735321045e-01 -5.971611142158508301e-01 3.448243141174316406e-01
-2.621911764144897461e-01 -4.112792015075683594e-01 3.074249625205993652e-01
-3.154825270175933838e-01 1.056767553091049194e-01 2.509456276893615723e-01
2.052917033433914185e-01 8.753771185874938965e-01 3.197659039869904518e-03
-3.470282852649688721e-01 -7.399358749389648438e-01 -1.114165857434272766e-01
1.422158032655715942e-01 -2.879222333431243896e-01 -3.740714490413665771e-01
-3.200882077217102051e-01 6.231455206871032715e-01 1.250928938388824463e-01
-1.379536390304565430e-01 8.550419211387634277e-01 4.740908369421958923e-02
3.560308814048767090e-01 -6.969847679138183594e-01 -1.853440254926681519e-01
4.013282358646392822e-01 3.989708721637725830e-01 1.962777599692344666e-02
-2.294454872608184814e-01 1.634013652801513672e-01 3.318203985691070557e-01
-1.728018820285797119e-01 5.037497729063034058e-02 3.651115596294403076e-01
-4.999307915568351746e-03 7.946472764015197754e-01 1.670684069395065308e-01
1.324644684791564941e-01 6.231455206871032715e-01 2.760471403598785400e-01
-1.060229614377021790e-01 -8.090878129005432129e-01 8.712772279977798462e-02
-8.762104064226150513e-02 5.867245197296142578e-01 -3.919856548309326172e-01
-3.975479006767272949e-01 -4.868800342082977295e-01 6.458630412817001343e-02
3.922285139560699463e-01 9.069056808948516846e-02 9.725592285394668579e-02
-3.608647882938385010e-01 -4.285326004028320312e-01 -1.804808229207992554e-01
4.780870303511619568e-02 8.274945020675659180e-01 -1.790326535701751709e-01
-1.486371904611587524e-01 -6.940127611160278320e-01 3.747216761112213135e-01
-2.846723198890686035e-01 -7.399358749389648438e-01 1.270366758108139038e-01
3.823368847370147705e-01 -3.907862007617950439e-01 1.244329437613487244e-01
-3.401954472064971924e-01 6.561273336410522461e-02 2.196693420410156250e-01
3.951811790466308594e-01 -6.746928095817565918e-01 -6.594274938106536865e-02
3.875923752784729004e-01 5.665498971939086914e-01 -1.121097356081008911e-01
-3.508946895599365234e-01 -3.218761086463928223e-01 2.039398401975631714e-01
3.823433518409729004e-01 -3.121727406978607178e-01 -1.242903694510459900e-01
3.768497407436370850e-01 -2.272638678550720215e-02 -1.370358765125274658e-01
4.209440574049949646e-02 -4.887490868568420410e-01 4.008615612983703613e-01
-1.922034472227096558e-02 -3.559398055076599121e-01 -4.019816219806671143e-01
4.040981233119964600e-01 -1.737987995147705078e-01 -4.919203463941812515e-03
-1.049901470541954041e-01 9.046357870101928711e-01 -1.166729927062988281e-01
-3.967467546463012695e-01 -4.352962076663970947e-01 -7.162076979875564575e-02
3.688862323760986328e-01 1.490535587072372437e-01 1.582566648721694946e-01
6.837748456746339798e-03 -5.268582701683044434e-01 4.060127139091491699e-01
-3.307828605175018311e-01 -1.526374965906143188e-01 -2.282360792160034180e-01
1.386696994304656982e-01 5.492596030235290527e-01 3.784376084804534912e-01
-1.154678687453269958e-01 2.305352538824081421e-01 -3.867292702198028564e-01
3.612592071294784546e-02 -7.447317242622375488e-01 -2.298918962478637695e-01
1.925831139087677002e-01 -7.399358749389648438e-01 -1.806709468364715576e-01
3.624160885810852051e-01 -2.099069058895111084e-01 1.745261400938034058e-01
-3.796798288822174072e-01 7.193139195442199707e-02 1.371452361345291138e-01
-3.704536855220794678e-01 1.263146251440048218e-01 -1.563696563243865967e-01
-2.476126253604888916e-01 -2.938921153545379639e-01 -3.157009184360504150e-01
-3.950392305850982666e-01 2.712878286838531494e-01 -8.619046956300735474e-02
-3.568839430809020996e-01 1.621028184890747070e-01 1.900415122509002686e-01
2.304356694221496582e-01 -2.189539968967437744e-01 3.303334712982177734e-01
3.746032118797302246e-01 -7.399358749389648438e-01 7.884532213211059570e-02
3.476566374301910400e-01 -4.277969598770141602e-01 -2.047774642705917358e-01
-2.207038998603820801e-01 3.228162527084350586e-01 3.383329808712005615e-01
-1.383754462003707886e-01 -8.090878129005432129e-01 -1.906041204929351807e-01
4.006932377815246582e-01 -3.773992061614990234e-01 -2.822116762399673462e-02
-1.070142537355422974e-01 4.227663576602935791e-01 -3.891521096229553223e-01
-3.217071294784545898e-01 4.359779655933380127e-01 2.430689036846160889e-01
9.837029874324798584e-02 3.570378124713897705e-01 -3.915057182312011719e-01
2.170496135950088501e-01 -6.909890770912170410e-01 -3.372258543968200684e-01
-3.416842222213745117e-01 -6.929392814636230469e-01 2.177855521440505981e-01
4.544197767972946167e-02 6.231455206871032715e-01 3.121072947978973389e-01
2.990208566188812256e-01 -7.399358749389648438e-01 -9.116535633802413940e-02
6.040089949965476990e-02 -1.619134992361068726e-01 -3.959563374519348145e-01
3.377396985888481140e-02 -6.726022362709045410e-01 4.020771086215972900e-01
-3.509971201419830322e-01 -5.279704332351684570e-01 2.037007808685302734e-01
-2.815757095813751221e-01 6.056835651397705078e-01 2.929839193820953369e-01
1.581354588270187378e-01 6.231455206871032715e-01 1.963889002799987793e-01
9.213419631123542786e-03 6.148340106010437012e-01 4.056656956672668457e-01
-1.325947791337966919e-01 -8.090878129005432129e-01 -9.004762023687362671e-02
-3.494668304920196533e-01 -4.205746352672576904e-01 2.072515040636062622e-01
-3.201564848423004150e-01 6.231455206871032715e-01 3.475070744752883911e-02
-3.629119396209716797e-01 -2.580295205116271973e-01 -1.753323972225189209e-01
1.890619248151779175e-01 6.231455206871032715e-01 -1.899054199457168579e-01
-3.709358721971511841e-02 9.798415899276733398e-01 1.505220532417297363e-01
3.478486239910125732e-01 -1.223626434803009033e-01 2.053916901350021362e-01
-1.815600842237472534e-01 -7.399358749389648438e-01 1.819293946027755737e-01
-1.217672377824783325e-01 6.231455206871032715e-01 -2.174583822488784790e-01
3.403290808200836182e-01 -6.637065410614013672e-01 2.154845446348190308e-01
-1.198188289999961853e-01 -3.787375390529632568e-01 3.861823678016662598e-01
-3.396776616573333740e-01 -6.557891368865966797e-01 -2.162972390651702881e-01
3.863638639450073242e-01 2.745395004749298096e-01 1.143068820238113403e-01
1.341119855642318726e-01 9.094943404197692871e-01 -1.454572081565856934e-01
1.542529650032520294e-02 -8.090878129005432129e-01 -1.769762188196182251e-01
-1.385965384542942047e-02 3.469541966915130615e-01 -4.027642905712127686e-01
3.191280961036682129e-01 -2.805531024932861328e-01 2.439429610967636108e-01
-4.041568934917449951e-02 -5.488889813423156738e-01 -3.988840579986572266e-01
-1.559776961803436279e-01 2.562293410301208496e-01 3.718022704124450684e-01
1.487634629011154175e-01 -8.090878129005432129e-01 -1.465518772602081299e-01
2.523731887340545654e-01 -6.169840693473815918e-01 -3.109087944030761719e-01
3.955641984939575195e-01 -2.096992284059524536e-01 -6.332258135080337524e-02
3.865364789962768555e-01 -5.726282000541687012e-01 1.138721480965614319e-01
-1.000392511487007141e-01 -7.399358749389648438e-01 -3.792890608310699463e-01
-3.962686359882354736e-01 -1.322330832481384277e-01 -7.570138573646545410e-02
-8.422195911407470703e-02 -5.489444136619567871e-01 3.958617150783538818e-01
-2.008154094219207764e-01 5.161087512969970703e-01 -3.499482870101928711e-01
-8.171392977237701416e-02 -1.950424537062644958e-02 -3.928495943546295166e-01
2.283515632152557373e-01 -6.656300425529479980e-01 3.319800794124603271e-01
3.397319018840789795e-01 -3.263978064060211182e-01 -2.154859453439712524e-01
-3.914506435394287109e-01 5.616636276245117188e-01 -1.035675108432769775e-01
3.930721282958984375e-01 5.944386497139930725e-02 -8.037565648555755615e-02
2.273455113172531128e-01 -3.442308008670806885e-01 -3.295549154281616211e-01
3.575454950332641602e-01 6.231455206871032715e-01 -7.661199569702148438e-02
-5.273043364286422729e-02 9.105762839317321777e-02 -3.970842361450195312e-01
1.768425256013870239e-01 3.944731652736663818e-01 3.619872331619262695e-01
-1.280444711446762085e-01 6.231455206871032715e-01 1.171644330024719238e-01
-7.213094085454940796e-02 -1.705258935689926147e-01 3.972794413566589355e-01
-8.168042451143264771e-02 -8.090878129005432129e-01 1.743396967649459839e-01
6.872797757387161255e-02 -8.090878129005432129e-01 1.701955050230026245e-01
1.702524125576019287e-01 -1.873657405376434326e-01 -3.629218041896820068e-01
-2.301931083202362061e-01 1.657455563545227051e-01 -3.294653892517089844e-01
3.449393808841705322e-01 4.474497735500335693e-01 2.092968523502349854e-01
2.077911347150802612e-01 1.805436015129089355e-01 3.482255339622497559e-01
1.883595436811447144e-01 3.835440874099731445e-01 -3.557215631008148193e-01
1.270142346620559692e-01 9.592552781105041504e-01 1.411556154489517212e-01
3.396275937557220459e-01 4.620781540870666504e-01 -2.156170159578323364e-01
-2.791122496128082275e-01 -5.830450057983398438e-01 -2.908126115798950195e-01
-1.562618184834718704e-03 9.798415899276733398e-01 -1.296870708465576172e-01
-3.373498618602752686e-01 -8.494666963815689087e-02 2.232717573642730713e-01
-2.764430046081542969e-01 -1.846503168344497681e-01 -2.929207086563110352e-01
-1.308854222297668457e-01 9.798415899276733398e-01 -3.690442815423011780e-02
-2.415218353271484375e-01 -8.090878129005432129e-01 3.502584993839263916e-02
-2.492906153202056885e-01 5.258148908615112305e-01 3.170360028743743896e-01
2.123876214027404785e-01 5.529771745204925537e-02 -3.406981527805328369e-01
-3.224907517433166504e-01 6.231455206871032715e-01 2.032974362373352051e-01
9.011142700910568237e-02 -5.834446549415588379e-01 -3.924739062786102295e-01
1.955704018473625183e-02 6.351581811904907227e-01 1.703007072210311890e-01
2.516278997063636780e-02 2.173144370317459106e-01 -4.000876247882843018e-01
6.347315013408660889e-02 -2.633643448352813721e-01 3.977372348308563232e-01
-1.789803355932235718e-01 -1.588473320007324219e-01 -3.593581318855285645e-01
-4.011429250240325928e-01 -3.006695806980133057e-01 -3.412209451198577881e-02
1.803480237722396851e-01 -7.399358749389648438e-01 2.756474912166595459e-01
3.156369552016258240e-02 6.231455206871032715e-01 -3.129051923751831055e-01
-3.745969235897064209e-01 5.391594171524047852e-01 1.489391326904296875e-01
2.897328734397888184e-01 -5.114361047744750977e-01 -2.787639498710632324e-01
-2.485983818769454956e-01 9.583486616611480713e-02 -3.149228394031524658e-01
1.823167502880096436e-01 9.798415899276733398e-01 7.030447572469711304e-02
5.042804032564163208e-02 -7.068865895271301270e-01 -3.971257805824279785e-01
-4.046816527843475342e-01 1.906023025512695312e-01 1.576397567987442017e-02
-3.528781831264495850e-01 -3.239924907684326172e-01 -1.985787004232406616e-01
3.933730423450469971e-01 1.816096603870391846e-01 8.749470859766006470e-02
-1.929820328950881958e-01 3.900649845600128174e-01 3.570861816406250000e-01
8.165956288576126099e-02 2.514997310936450958e-02 -3.934642970561981201e-01
-2.754397094249725342e-01 -7.373837828636169434e-01 -2.937135696411132812e-01
3.222994506359100342e-01 4.094476699829101562e-01 2.396861612796783447e-01
-1.074240580201148987e-01 -7.399358749389648438e-01 -2.502381801605224609e-01
-1.892744004726409912e-01 -1.055661663413047791e-01 3.585611283779144287e-01
1.084779128432273865e-01 -5.473909974098205566e-01 3.911600410938262939e-01
1.003233417868614197e-01 2.013707607984542847e-01 3.923525214195251465e-01
3.068616092205047607e-01 1.912444829940795898e-02 2.604071795940399170e-01
-7.201400399208068848e-02 2.616629302501678467e-01 3.972932696342468262e-01
-2.981876134872436523e-01 -1.553234010934829712e-01 2.728342413902282715e-01
3.921306729316711426e-01 -2.767070233821868896e-01 9.808818250894546509e-02
-1.556768119335174561e-01 -3.818710744380950928e-01 -3.694011569023132324e-01
3.199975192546844482e-01 -1.243221685290336609e-01 -2.404610067605972290e-01
-2.851107716560363770e-01 6.231455206871032715e-01 -1.841201484203338623e-01
2.187552899122238159e-01 2.526869177818298340e-01 3.395623862743377686e-01
2.166471928358078003e-01 -7.771118879318237305e-01 9.144324064254760742e-02
-2.278579473495483398e-01 -2.560450928285717964e-03 -3.313104510307312012e-01
2.222607880830764771e-01 -7.572067975997924805e-01 -6.287114322185516357e-02
2.612282931804656982e-01 1.637422144412994385e-01 -3.043121993541717529e-01
-3.410307168960571289e-01 -2.549993395805358887e-01 2.186134606599807739e-01
-1.155758574604988098e-01 3.900243937969207764e-01 3.878696262836456299e-01
-3.966673910617828369e-01 -5.952339768409729004e-01 -7.229565829038619995e-02
-2.739057242870330811e-01 1.922304481267929077e-01 -2.949254512786865234e-01
3.977913856506347656e-01 5.066186785697937012e-01 4.980358481407165527e-02
-3.612782657146453857e-01 2.211263328790664673e-01 1.798443794250488281e-01
4.251270368695259094e-02 3.797727823257446289e-01 4.007997214794158936e-01
3.955568075180053711e-01 4.212748110294342041e-01 -6.337260454893112183e-02
-1.809444576501846313e-01 2.270048558712005615e-01 -3.585117459297180176e-01
4.021607637405395508e-01 5.638270974159240723e-01 -1.817844249308109283e-02
-3.786543905735015869e-01 -1.427956968545913696e-01 1.395237594842910767e-01
3.963478207588195801e-01 -6.684977412223815918e-01 6.211759522557258606e-02
3.243443742394447327e-02 9.798415899276733398e-01 -7.209869474172592163e-02
1.115532964468002319e-01 -8.090878129005432129e-01 -1.024866998195648193e-01
1.334778964519500732e-01 8.081468939781188965e-01 -1.459436118602752686e-01
-4.027673900127410889e-01 4.353355765342712402e-01 -2.026383392512798309e-02
1.867858469486236572e-01 -7.399358749389648438e-01 1.937528401613235474e-01
4.036015570163726807e-01 3.399595618247985840e-02 -8.317358791828155518e-03
1.861194521188735962e-01 -2.958091497421264648e-01 3.579897880554199219e-01
-2.124173343181610107e-01 -6.021673679351806641e-01 -3.435114026069641113e-01
-4.907342139631509781e-03 -1.897239834070205688e-01 -4.036124944686889648e-01
3.301965296268463135e-01 -5.077829360961914062e-01 2.290847301483154297e-01
-1.236612126231193542e-01 9.296339750289916992e-01 8.191507309675216675e-02
-3.944503664970397949e-01 -5.853478312492370605e-01 8.578358590602874756e-02
-8.545109629631042480e-02 4.738415777683258057e-01 3.957177400588989258e-01
2.844284474849700928e-01 -1.873675733804702759e-01 -2.854777574539184570e-01
-1.541547924280166626e-01 5.507511496543884277e-01 3.725277483463287354e-01
-2.308078259229660034e-01 -7.399358749389648438e-01 -1.496900171041488647e-01
3.578856959939002991e-02 -8.090878129005432129e-01 -2.224000245332717896e-01
3.487153053283691406e-01 6.231455206871032715e-01 8.777400851249694824e-02
3.386566042900085449e-01 -5.966728329658508301e-01 -2.168464213609695435e-01
-2.435671836137771606e-01 -7.961318492889404297e-01 -2.011154405772686005e-02
-5.253051593899726868e-02 -2.810783088207244873e-01 3.995767533779144287e-01
3.937403857707977295e-01 -5.759564638137817383e-01 -7.580078393220901489e-02
3.786394000053405762e-01 2.866405248641967773e-02 1.337311118841171265e-01
9.630004316568374634e-02 -4.847121611237525940e-02 -3.917484581470489502e-01
-2.958229184150695801e-01 -3.505763411521911621e-01 -2.751615345478057861e-01
-1.739426851272583008e-01 6.231455206871032715e-01 -1.902367621660232544e-01
-3.834889829158782959e-01 3.052139878273010254e-01 -1.235889121890068054e-01
2.652838826179504395e-01 6.231455206871032715e-01 -1.030294150114059448e-01
1.769883483648300171e-01 8.426155149936676025e-02 3.619244694709777832e-01
-9.275200963020324707e-02 6.231455206871032715e-01 2.477899342775344849e-01
2.723262906074523926e-01 -4.392927885055541992e-01 -2.960441112518310547e-01
-3.796881437301635742e-01 -6.285398602485656738e-01 1.371249109506607056e-01
7.211957871913909912e-02 8.893539756536483765e-02 3.964736759662628174e-01
-9.769837558269500732e-02 6.549587845802307129e-02 3.942825198173522949e-01
-1.026485264301300049e-01 -3.698445558547973633e-01 -3.897898793220520020e-01
-3.746486306190490723e-01 4.164928197860717773e-01 1.488191485404968262e-01
3.049312531948089600e-02 8.881887793540954590e-02 -3.994627892971038818e-01
-3.357964754104614258e-01 -7.399358749389648438e-01 7.259495556354522705e-02
3.802094161510467529e-01 -1.167970523238182068e-01 1.297834813594818115e-01
1.622344255447387695e-01 6.299405694007873535e-01 1.100657582283020020e-01
-4.022099077701568604e-01 -1.724133640527725220e-01 3.267915919423103333e-02
2.035352587699890137e-01 7.953422665596008301e-01 1.654039137065410614e-02
1.822124570608139038e-01 -5.613695979118347168e-01 -3.581665456295013428e-01
4.034206569194793701e-01 2.003194987773895264e-01 1.780913327820599079e-03
3.515488803386688232e-01 3.134978115558624268e-01 -1.957460492849349976e-01
-1.597619354724884033e-01 -5.036571621894836426e-01 -3.676410019397735596e-01
2.285140156745910645e-01 5.543111562728881836e-01 -3.286845386028289795e-01
3.956251442432403564e-01 -1.439494490623474121e-01 6.827889382839202881e-02
2.437755614519119263e-01 -7.399358749389648438e-01 -2.650890350341796875e-01
-3.941439390182495117e-01 2.895371019840240479e-01 8.788061141967773438e-02
2.937386035919189453e-01 2.991306185722351074e-01 2.780223488807678223e-01
1.129100844264030457e-01 8.719741106033325195e-01 1.501491665840148926e-01
3.952854573726654053e-01 2.679392695426940918e-01 -6.522753089666366577e-02
2.330209314823150635e-01 6.158105731010437012e-01 3.282899558544158936e-01
2.803710103034973145e-01 -6.699634194374084473e-01 2.908776700496673584e-01
-3.966037034988403320e-01 5.487676858901977539e-01 7.104332000017166138e-02
-2.605628920719027519e-03 -8.090878129005432129e-01 -3.626378020271658897e-03
-2.595302164554595947e-01 -6.163483858108520508e-02 3.094075322151184082e-01
3.870376646518707275e-01 -5.016782879829406738e-01 1.126132011413574219e-01
3.939785063266754150e-01 1.122734248638153076e-01 -7.417449355125427246e-02
3.216829299926757812e-01 6.231455206871032715e-01 2.377017438411712646e-01
2.012444138526916504e-01 7.495298981666564941e-01 -4.368422180414199829e-02
-4.871923476457595825e-02 4.411097466945648193e-01 -3.976703286170959473e-01
3.666369020938873291e-01 4.176917672157287598e-01 1.639118045568466187e-01
3.863343596458435059e-01 3.476399779319763184e-01 -1.150273084640502930e-01
-2.856867015361785889e-01 -7.141088843345642090e-01 2.886560559272766113e-01
1.104863360524177551e-01 -7.079055309295654297e-01 3.905841112136840820e-01
-3.401880562305450439e-01 -7.399358749389648438e-01 -3.720043227076530457e-02
2.709740996360778809e-01 1.562900543212890625e-01 2.983021736145019531e-01
-3.103184103965759277e-01 3.104667365550994873e-01 -2.557050287723541260e-01
-2.610836029052734375e-01 -3.298875987529754639e-01 3.082510232925415039e-01
-2.639009431004524231e-02 -8.090878129005432129e-01 -1.443044096231460571e-01
-3.743145167827606201e-01 -5.973927974700927734e-01 -1.466598659753799438e-01
-3.010520152747631073e-02 2.082855440676212311e-02 4.022054076194763184e-01
-1.565877944231033325e-01 -5.512306094169616699e-01 3.715595304965972900e-01
-6.011025980114936829e-02 9.528267383575439453e-01 -1.564665585756301880e-01
-4.013450741767883301e-01 -8.362127095460891724e-02 -3.239915519952774048e-02
1.919600963592529297e-01 6.802441477775573730e-01 6.104435026645660400e-02
2.214481309056282043e-02 9.798415899276733398e-01 9.993600100278854370e-02
7.527147978544235229e-02 3.543590381741523743e-02 3.960130810737609863e-01
3.672830164432525635e-01 1.740627735853195190e-01 -1.592345982789993286e-01
3.227628171443939209e-01 -3.584678471088409424e-01 2.390631139278411865e-01
2.683260738849639893e-01 -2.592081725597381592e-01 -2.990244328975677490e-01
2.018932700157165527e-01 6.675974726676940918e-01 -3.875834122300148010e-02
-2.659218907356262207e-01 4.190529510378837585e-02 3.046458363533020020e-01
9.623912721872329712e-02 3.302509188652038574e-01 3.929488062858581543e-01
2.541480660438537598e-01 4.207496345043182373e-01 -3.095870912075042725e-01
1.779233515262603760e-01 -8.289303630590438843e-02 -3.598712980747222900e-01
1.416961699724197388e-01 5.731794983148574829e-02 -3.742781877517700195e-01
1.710517108440399170e-01 2.070388197898864746e-01 3.644829988479614258e-01
-3.979355692863464355e-01 1.383352130651473999e-01 6.193336844444274902e-02
3.579613938927650452e-02 -5.333053469657897949e-01 -3.988406956195831299e-01
3.995021805167198181e-02 -7.724055647850036621e-01 2.400978058576583862e-01
-3.963147997856140137e-01 3.366598859429359436e-02 7.302276045083999634e-02
2.609873712062835693e-01 -3.461536392569541931e-02 3.061936795711517334e-01
-1.071333140134811401e-01 8.177440762519836426e-01 1.041337326169013977e-01
-6.502543389797210693e-02 7.754879593849182129e-01 1.429480314254760742e-01
3.131166696548461914e-01 6.231455206871032715e-01 -4.711532592773437500e-02
3.367395699024200439e-01 -4.584059119224548340e-01 2.203025221824645996e-01
-9.457844309508800507e-03 7.813978195190429688e-01 -1.762277036905288696e-01
1.411589831113815308e-01 -4.081890583038330078e-01 3.773651123046875000e-01
-1.424993276596069336e-01 6.614263653755187988e-01 -3.678075224161148071e-02
-1.320483833551406860e-01 -1.425502002239227295e-01 3.813182413578033447e-01
-3.592218756675720215e-01 -5.026778578758239746e-01 -1.846120804548263550e-01
3.952190279960632324e-01 -4.320224225521087646e-01 -6.568284332752227783e-02
-1.522940695285797119e-01 5.757400989532470703e-01 -3.708585202693939209e-01
-9.702681005001068115e-02 -7.070408761501312256e-02 -3.906113505363464355e-01
-3.514654934406280518e-02 -8.090878129005432129e-01 1.529033482074737549e-01
3.713617026805877686e-01 -5.773446559906005859e-01 -1.497712284326553345e-01
-2.798728048801422119e-01 3.077670037746429443e-01 2.942521274089813232e-01
-2.646476402878761292e-02 2.302399128675460815e-01 4.026327729225158691e-01
-6.560645252466201782e-02 6.231455206871032715e-01 3.058586418628692627e-01
9.890009462833404541e-02 -6.619399785995483398e-01 -3.912971019744873047e-01
-4.045136570930480957e-01 -5.596380829811096191e-01 1.691161654889583588e-02
3.154265135526657104e-02 9.798415899276733398e-01 5.069380626082420349e-02
-2.436216175556182861e-01 6.231455206871032715e-01 4.351980611681938171e-02
1.927298754453659058e-01 -8.090878129005432129e-01 -4.881943389773368835e-02
-1.631188392639160156e-01 6.231455206871032715e-01 -2.988416850566864014e-01
1.026760265231132507e-01 4.165149629116058350e-01 -3.897954225540161133e-01
-3.937405943870544434e-01 9.885146468877792358e-02 -9.726352244615554810e-02
-3.961468040943145752e-01 -6.806581020355224609e-01 7.417030632495880127e-02
3.423042595386505127e-01 7.566624134778976440e-02 -2.122296541929244995e-01
-3.087973296642303467e-01 -6.007349491119384766e-01 2.594075798988342285e-01
-2.236306816339492798e-01 -6.910564303398132324e-01 3.361519575119018555e-01
-2.565627992153167725e-01 3.179050683975219727e-01 -3.086299300193786621e-01
-1.816570013761520386e-01 1.344218403100967407e-01 3.615903556346893311e-01
3.183066546916961670e-01 2.069409787654876709e-01 2.450450062751770020e-01
6.394553184509277344e-02 4.453056752681732178e-01 3.976680040359497070e-01
4.041248857975006104e-01 -6.346371173858642578e-01 -4.739313852041959763e-03
2.912018261849880219e-02 7.277262210845947266e-01 1.715596616268157959e-01
-4.923425987362861633e-02 3.376043438911437988e-01 3.999634683132171631e-01
1.253777891397476196e-01 8.131799101829528809e-01 1.424117833375930786e-01
-1.789563447237014771e-01 6.231455206871032715e-01 1.885444521903991699e-01
-2.369414642453193665e-02 -7.399358749389648438e-01 -3.874408900737762451e-01
3.964318037033081055e-01 -2.846410274505615234e-01 -5.738187581300735474e-02
-4.909488931298255920e-02 2.592982649803161621e-01 -3.976158797740936279e-01
-1.537740137428045273e-02 -5.872592926025390625e-01 4.039323031902313232e-01
5.321074649691581726e-02 -8.090878129005432129e-01 1.151181831955909729e-01
-3.394847512245178223e-01 -7.399358749389648438e-01 1.539011150598526001e-01
7.948888093233108521e-02 -8.090878129005432129e-01 -1.355923265218734741e-01
-7.611122727394104004e-02 1.451572626829147339e-01 3.968123793601989746e-01
-3.699386417865753174e-01 -1.883173435926437378e-01 -1.576636731624603271e-01
3.910812735557556152e-01 5.529543161392211914e-01 1.024446710944175720e-01
2.248700708150863647e-01 -5.105998516082763672e-01 3.347305655479431152e-01
2.931395769119262695e-01 -5.610160827636718750e-01 -2.744527161121368408e-01
6.389863789081573486e-02 -3.613540232181549072e-01 3.976744711399078369e-01
-2.905696816742420197e-02 6.231455206871032715e-01 -3.489745557308197021e-01
-3.060887381434440613e-02 -4.088093340396881104e-01 4.021463394165039062e-01
-3.032464981079101562e-01 5.031509995460510254e-01 2.664324045181274414e-01
2.737771868705749512e-01 -1.066829860210418701e-01 2.960879504680633545e-01
1.923376023769378662e-01 9.045730233192443848e-01 -6.987992674112319946e-02
2.853015959262847900e-01 -7.399358749389648438e-01 -1.420024782419204712e-01
-3.880817890167236328e-01 -4.410344064235687256e-01 1.176471561193466187e-01
3.035776317119598389e-01 -7.399358749389648438e-01 1.342175155878067017e-01
-1.189890652894973755e-01 7.891139984130859375e-01 -9.842925518751144409e-02
-2.047454714775085449e-01 -7.399358749389648438e-01 2.509742379188537598e-01
6.183041632175445557e-02 -3.835102915763854980e-01 -3.957892954349517822e-01
-1.967884153127670288e-01 -7.399358749389648438e-01 -2.375434637069702148e-01
2.139382213354110718e-01 -3.542227903380990028e-03 3.433687686920166016e-01
1.374993473291397095e-01 -7.399358749389648438e-01 -2.417587339878082275e-01
-1.678149849176406860e-01 6.231455206871032715e-01 -7.996899634599685669e-02
-5.200884863734245300e-02 6.216937303543090820e-01 3.996376693248748779e-01
-3.576481640338897705e-01 3.084020018577575684e-01 1.882675290107727051e-01
