-3.598035275936126709e-01 8.195378780364990234e-01 -1.811584979295730591e-01
-9.982625022530555725e-03 5.033282041549682617e-01 3.770250082015991211e-02
-1.613202542066574097e-01 4.743049442768096924e-01 3.965122997760772705e-01
6.961567793041467667e-03 -9.173026680946350098e-02 1.032550483942031860e-01
-2.628325857222080231e-02 3.290828466415405273e-01 4.236384108662605286e-02
-2.839634716510772705e-01 4.590960741043090820e-01 -2.798045575618743896e-01
1.229304075241088867e-01 -2.087070494890213013e-01 -2.954914793372154236e-02
4.353016614913940430e-02 -1.640052348375320435e-01 -3.491962794214487076e-03
1.934451758861541748e-01 -6.813658475875854492e-01 -2.511863969266414642e-02
1.191892847418785095e-01 -4.426597058773040771e-01 -1.515150517225265503e-01
-1.942342072725296021e-01 -3.646745979785919189e-01 1.848129481077194214e-01
-5.416421219706535339e-02 -5.596346855163574219e-01 -1.156297475099563599e-01
6.709542870521545410e-02 -3.646745979785919189e-01 6.225900724530220032e-03
4.354867711663246155e-02 -6.290842294692993164e-01 3.496676916256546974e-03
-2.090187743306159973e-02 -1.307219266891479492e-01 -3.653012588620185852e-02
3.665470704436302185e-02 -1.307219266891479492e-01 1.443109810352325439e-01
1.560376882553100586e-01 6.172278523445129395e-01 3.961702883243560791e-01
1.152456998825073242e-01 -3.256829380989074707e-01 -8.277691155672073364e-02
6.174584385007619858e-03 -4.426597058773040771e-01 -9.069873392581939697e-02
-1.111080124974250793e-01 -2.087070494890213013e-01 1.002309694886207581e-01
-5.761357024312019348e-02 -6.360903978347778320e-01 -1.976925283670425415e-01
-5.858404934406280518e-02 6.346009373664855957e-01 -3.873346447944641113e-01
2.023309916257858276e-01 8.125582337379455566e-01 -3.345668911933898926e-01
1.617553830146789551e-02 -2.476987242698669434e-01 -1.000954303890466690e-02
-1.777576208114624023e-01 -3.646745979785919189e-01 6.410698592662811279e-02
-1.964759677648544312e-01 8.139988780021667480e-02 7.830295711755752563e-02
1.158795654773712158e-01 6.355904936790466309e-01 4.091009199619293213e-01
-6.253930926322937012e-02 8.860760182142257690e-02 1.206139177083969116e-01
4.440907761454582214e-02 -4.816513955593109131e-01 1.842328906059265137e-01
1.454819440841674805e-01 -3.256829380989074707e-01 1.474054604768753052e-01
-3.128845691680908203e-01 7.479715943336486816e-01 -2.478564530611038208e-01
1.274414826184511185e-02 -6.244000792503356934e-01 1.922276765108108521e-01
3.074241280555725098e-01 5.689390301704406738e-01 -2.505368888378143311e-01
-1.182910874485969543e-01 -4.816513955593109131e-01 1.195167601108551025e-01
-8.515087515115737915e-02 3.857467472553253174e-01 4.186707735061645508e-01
-1.543022692203521729e-01 -5.541971921920776367e-01 -1.976925283670425415e-01
1.934451758861541748e-01 4.195840284228324890e-02 1.378985643386840820e-01
-4.201051965355873108e-02 9.738784283399581909e-03 2.964816242456436157e-02
-9.034602344036102295e-02 -2.476987242698669434e-01 -1.019448637962341309e-01
1.934451758861541748e-01 -4.718713462352752686e-02 1.373695880174636841e-01
3.210563957691192627e-02 -3.256829380989074707e-01 -1.196517646312713623e-01
-9.325765818357467651e-02 -4.426597058773040771e-01 -2.738084876909852028e-03
3.709336519241333008e-01 7.154716849327087402e-01 -1.504343003034591675e-01
-7.126507163047790527e-02 -3.256829380989074707e-01 5.301688984036445618e-02
-1.086637973785400391e-01 -5.986272692680358887e-01 -1.028003543615341187e-01
1.962763071060180664e-02 4.435689151287078857e-01 2.773439697921276093e-02
-1.421732902526855469e-01 -4.816513955593109131e-01 -2.609285712242126465e-02
-1.964759677648544312e-01 -7.003249526023864746e-01 7.513879239559173584e-02
-1.199856176972389221e-01 8.480385541915893555e-01 4.111693799495697021e-01
-2.902545630931854248e-01 8.434128165245056152e-01 3.097307085990905762e-01
-1.628431119024753571e-02 -2.476987242698669434e-01 -1.065606027841567993e-01
1.934451758861541748e-01 -3.933138847351074219e-01 -1.600679904222488403e-01
1.129774972796440125e-01 8.860760182142257690e-02 -7.931214570999145508e-02
5.795333161950111389e-02 -5.596346855163574219e-01 -1.722051799297332764e-01
-5.491207167506217957e-02 5.208490490913391113e-01 -3.875170350074768066e-01
1.149556860327720642e-01 -6.549819707870483398e-01 -1.976925283670425415e-01
1.934451758861541748e-01 -6.803051829338073730e-01 -1.201597601175308228e-01
-3.741067349910736084e-01 6.248915791511535645e-01 1.972647756338119507e-01
-7.181402295827865601e-02 7.473039627075195312e-01 4.215427339076995850e-01
-2.183580994606018066e-01 4.318549036979675293e-01 3.672583103179931641e-01
1.269371341913938522e-02 -2.087070494890213013e-01 -1.094644889235496521e-01
-1.029047742486000061e-02 -2.015768885612487793e-01 1.922276765108108521e-01
-1.025842577219009399e-01 -4.426597058773040771e-01 1.699059456586837769e-01
4.048380553722381592e-01 6.407379508018493652e-01 1.048439368605613708e-02
-1.964759677648544312e-01 -4.994494915008544922e-01 -5.244836956262588501e-02
1.551229357719421387e-01 -3.646745979785919189e-01 3.921909630298614502e-02
-3.011723756790161133e-01 8.858081102371215820e-01 2.998462319374084473e-01
-1.932182163000106812e-01 5.461713075637817383e-01 -3.447687923908233643e-01
-2.667488157749176025e-02 8.860760182142257690e-02 1.867765337228775024e-01
1.615100540220737457e-02 -5.596346855163574219e-01 1.135229468345642090e-01
1.306670755147933960e-01 -2.476987242698669434e-01 -1.677681803703308105e-01
7.978575676679611206e-02 -1.598154008388519287e-01 1.922276765108108521e-01
1.930849254131317139e-01 -2.087070494890213013e-01 1.893520653247833252e-01
-1.541827768087387085e-01 -7.740920186042785645e-01 -7.210124284029006958e-02
3.736760914325714111e-01 7.538787722587585449e-01 1.778140813112258911e-01
1.872853636741638184e-01 5.246476531028747559e-01 -3.422844111919403076e-01
-3.337005674839019775e-01 5.108761191368103027e-01 2.598504424095153809e-01
-3.812120854854583740e-02 -3.646745979785919189e-01 -1.644092053174972534e-01
-1.871332079172134399e-01 -3.646745979785919189e-01 -1.808173954486846924e-01
1.838735044002532959e-01 -5.596346855163574219e-01 1.084200069308280945e-01
1.518141180276870728e-01 -4.826938211917877197e-01 -1.976925283670425415e-01
-8.045779168605804443e-02 -9.173026680946350098e-02 1.897293142974376678e-02
3.476196527481079102e-01 5.696285367012023926e-01 -1.901419013738632202e-01
-4.024478197097778320e-01 7.609788775444030762e-01 1.115839928388595581e-01
4.200252890586853027e-02 -7.607317566871643066e-01 1.342461444437503815e-02
1.934451758861541748e-01 5.557816848158836365e-02 -7.399505376815795898e-02
-5.654878541827201843e-02 6.800624728202819824e-01 -4.791014641523361206e-02
-1.647749990224838257e-01 -9.173026680946350098e-02 4.857224598526954651e-02
-1.780321449041366577e-01 -3.646745979785919189e-01 -2.013562619686126709e-02
-1.050084084272384644e-01 5.958810448646545410e-01 4.143942892551422119e-01
3.553718328475952148e-01 4.247128665447235107e-01 2.135014981031417847e-01
3.918317258358001709e-01 3.833700418472290039e-01 -8.552574366331100464e-02
1.488190442323684692e-01 -7.740920186042785645e-01 1.244799867272377014e-01
5.423392355442047119e-02 6.509152054786682129e-01 5.812403187155723572e-02
-1.110095158219337463e-01 7.894412279129028320e-01 4.131019711494445801e-01
9.365085512399673462e-02 8.860760182142257690e-02 9.386706352233886719e-02
1.201268434524536133e-01 -5.468892455101013184e-01 -1.976925283670425415e-01
-1.259274482727050781e-01 -1.980892866849899292e-01 -1.976925283670425415e-01
-3.155018389225006104e-02 3.190843462944030762e-01 -3.920795861631631851e-03
3.759737685322761536e-02 -3.204935491085052490e-01 2.405751869082450867e-02
1.934451758861541748e-01 -6.930962800979614258e-01 1.008489504456520081e-01
-8.833146095275878906e-02 -6.394429802894592285e-01 1.922276765108108521e-01
-9.279498457908630371e-02 -2.476987242698669434e-01 9.025865048170089722e-02
-1.964759677648544312e-01 -3.056741058826446533e-01 1.712256520986557007e-01
-5.451352149248123169e-02 -1.307219266891479492e-01 1.830253750085830688e-01
1.281444281339645386e-01 5.793643593788146973e-01 -3.705807924270629883e-01
4.283602163195610046e-02 1.189507097005844116e-01 8.909706957638263702e-03
-3.120537102222442627e-01 8.032765984535217285e-01 2.899963855743408203e-01
-1.776919513940811157e-01 -1.307219266891479492e-01 2.790091186761856079e-02
3.811355233192443848e-01 5.947264432907104492e-01 -1.187479496002197266e-01
-5.240574479103088379e-02 -4.426597058773040771e-01 -4.709990695118904114e-02
4.043045341968536377e-01 7.914595007896423340e-01 6.414163857698440552e-02
4.035229384899139404e-01 7.862510085105895996e-01 -1.595582999289035797e-02
-7.475984841585159302e-02 -4.816513955593109131e-01 -6.174825131893157959e-02
1.126063093543052673e-01 -3.256829380989074707e-01 -3.102288022637367249e-02
3.324803337454795837e-02 5.369225144386291504e-01 4.255747795104980469e-01
-5.016326159238815308e-02 -4.816513955593109131e-01 -1.954708397388458252e-01
-3.350120484828948975e-01 3.767113685607910156e-01 2.578193545341491699e-01
1.043652817606925964e-01 -9.173026680946350098e-02 -1.552835255861282349e-01
6.229436770081520081e-02 -7.740920186042785645e-01 -1.144641861319541931e-01
-1.216491535305976868e-01 -2.476987242698669434e-01 -1.520806550979614258e-02
-8.236309885978698730e-02 -5.596346855163574219e-01 1.271066069602966309e-01
1.301736682653427124e-01 -4.816513955593109131e-01 1.036682799458503723e-01
9.744395315647125244e-02 -5.596346855163574219e-01 1.719817072153091431e-01
-4.040563479065895081e-02 -4.816513955593109131e-01 1.792140454053878784e-01
-3.266822919249534607e-02 2.458271384239196777e-01 -3.855973482131958008e-02
-3.018151223659515381e-02 -6.912767887115478516e-01 -4.046759381890296936e-02
3.169283270835876465e-01 8.311625719070434570e-01 2.729963064193725586e-01
1.571321189403533936e-01 -7.740920186042785645e-01 -1.628277748823165894e-01
-7.612232118844985962e-02 -3.646745979785919189e-01 9.553259611129760742e-02
9.669062495231628418e-02 -1.307219266891479492e-01 -1.904164254665374756e-01
5.722580850124359131e-02 5.875242352485656738e-01 3.892752900719642639e-02
3.119185566902160645e-01 5.402914881706237793e-01 2.785313725471496582e-01
7.671807706356048584e-02 4.344003796577453613e-01 4.217095971107482910e-01
3.117218241095542908e-02 2.325991839170455933e-01 3.251200541853904724e-02
1.869004964828491211e-01 -3.256829380989074707e-01 -4.916390404105186462e-02
-2.505348995327949524e-02 5.633528828620910645e-01 -5.441870167851448059e-02
1.934451758861541748e-01 -5.519427061080932617e-01 6.357372552156448364e-02
3.858126327395439148e-02 7.004233598709106445e-01 -3.079715557396411896e-02
-1.658748984336853027e-01 -8.857559412717819214e-02 1.922276765108108521e-01
6.792117655277252197e-02 -5.986272692680358887e-01 -7.617661356925964355e-02
2.795393206179141998e-02 4.154075086116790771e-01 -3.273866698145866394e-02
-1.589006632566452026e-01 -4.040365219116210938e-01 1.922276765108108521e-01
4.033843278884887695e-01 4.147736430168151855e-01 -1.874515786767005920e-02
2.604230940341949463e-01 5.556052923202514648e-01 -2.930835783481597900e-01
-1.585522741079330444e-01 -2.476987242698669434e-01 -1.719179004430770874e-01
1.314596235752105713e-01 -5.986272692680358887e-01 -1.412832178175449371e-02
7.486430555582046509e-02 -3.256829380989074707e-01 8.007136732339859009e-02
-2.655029855668544769e-02 -7.010791897773742676e-01 -1.976925283670425415e-01
1.656969040632247925e-01 -9.173026680946350098e-02 -3.338118642568588257e-02
-4.126615524291992188e-01 5.042256116867065430e-01 1.002818159759044647e-02
-1.756079941987991333e-01 5.947164297103881836e-01 -3.547928035259246826e-01
4.028471112251281738e-01 6.152213811874389648e-01 -2.954321540892124176e-02
-1.964759677648544312e-01 -4.409779608249664307e-01 -1.408489644527435303e-01
-1.328686065971851349e-02 -4.372692480683326721e-02 1.922276765108108521e-01
-1.254733931273221970e-02 3.714608550071716309e-01 -4.596653953194618225e-02
8.389551192522048950e-02 -7.740920186042785645e-01 1.012577190995216370e-01
-2.892109937965869904e-02 4.585990309715270996e-01 4.286656081676483154e-01
-1.964759677648544312e-01 3.853129968047142029e-02 -1.315116882324218750e-01
-4.387423768639564514e-02 8.860760182142257690e-02 4.302560538053512573e-02
1.776391640305519104e-02 2.745138704776763916e-01 -4.263301193714141846e-02
1.922595351934432983e-01 8.040727972984313965e-01 3.782034516334533691e-01
-3.928332924842834473e-01 8.404049873352050781e-01 -1.125334352254867554e-01
-1.661165803670883179e-01 7.212323695421218872e-02 1.922276765108108521e-01
-2.338232547044754028e-01 8.963209986686706543e-01 -3.185536265373229980e-01
-2.468022257089614868e-01 6.062580347061157227e-01 -3.101739585399627686e-01
-4.610787332057952881e-02 -9.173026680946350098e-02 -2.405439876019954681e-02
-1.312755346298217773e-01 8.860760182142257690e-02 -1.701038777828216553e-01
1.920333504676818848e-01 -5.034824609756469727e-01 1.922276765108108521e-01
-2.067797444760799408e-02 -3.156151175498962402e-01 -4.500544816255569458e-02
8.299776352941989899e-03 7.151889801025390625e-01 4.268151223659515381e-01
-2.142986804246902466e-01 6.963347792625427246e-01 3.693395256996154785e-01
4.947244003415107727e-02 -4.806541651487350464e-02 1.922276765108108521e-01
2.647080086171627045e-02 -9.173026680946350098e-02 -4.472272843122482300e-02
-1.499382406473159790e-01 -2.087070494890213013e-01 -2.724528871476650238e-02
4.428377002477645874e-02 -2.087070494890213013e-01 -5.515205487608909607e-02
7.942879199981689453e-02 -4.816513955593109131e-01 -8.505331724882125854e-02
-1.957591027021408081e-01 -7.740920186042785645e-01 1.254038661718368530e-01
-3.484880626201629639e-01 7.533133029937744141e-01 2.369459271430969238e-01
-1.960327178239822388e-01 -7.147266864776611328e-01 1.922276765108108521e-01
-1.541444808244705200e-01 -2.087070494890213013e-01 7.843638956546783447e-02
4.056278765201568604e-01 4.061824083328247070e-01 2.637392468750476837e-02
-1.134646758437156677e-01 -3.646745979785919189e-01 4.292911291122436523e-02
-9.729726612567901611e-02 -1.307219266891479492e-01 -1.843397691845893860e-02
1.934451758861541748e-01 -7.216352820396423340e-01 1.591750979423522949e-01
3.016920685768127441e-01 4.174212515354156494e-01 2.898276448249816895e-01
1.796736419200897217e-01 -4.426597058773040771e-01 1.831539869308471680e-01
-1.391506195068359375e-02 -7.740920186042785645e-01 -1.028997525572776794e-01
2.250002026557922363e-01 6.858036518096923828e-01 -3.229404389858245850e-01
3.529798611998558044e-02 4.783862233161926270e-01 -3.905732333660125732e-01
1.934451758861541748e-01 -6.421717405319213867e-01 -1.100317686796188354e-01
-1.280597448348999023e-01 -7.661948204040527344e-01 1.922276765108108521e-01
1.934451758861541748e-01 -7.108433246612548828e-01 4.256466776132583618e-02
-8.830282837152481079e-02 -2.858303487300872803e-01 1.922276765108108521e-01
-2.623328007757663727e-02 -4.426597058773040771e-01 1.513043642044067383e-01
-1.964759677648544312e-01 -3.142607808113098145e-01 3.571037203073501587e-02
1.934451758861541748e-01 -6.355905532836914062e-01 -1.602358072996139526e-01
3.757803514599800110e-02 6.657911539077758789e-01 -3.900825679302215576e-01
1.538670808076858521e-01 8.798571825027465820e-01 3.968698084354400635e-01
-6.365023553371429443e-02 -7.740920186042785645e-01 2.369036339223384857e-02
1.157600879669189453e-01 7.078754901885986328e-01 -3.732475340366363525e-01
-2.555977702140808105e-01 8.268851637840270996e-01 3.411042392253875732e-01
1.690431237220764160e-01 -5.596346855163574219e-01 -1.289653331041336060e-01
-1.363436430692672729e-01 8.860760182142257690e-02 1.340379714965820312e-01
-1.401978433132171631e-01 -3.646745979785919189e-01 1.341383010149002075e-01
-1.638091653585433960e-01 -5.596346855163574219e-01 1.793481111526489258e-01
9.281294420361518860e-03 -9.173026680946350098e-02 -1.541280001401901245e-01
-1.339885685592889786e-02 -4.911400675773620605e-01 -1.976925283670425415e-01
1.381356120109558105e-01 -5.596346855163574219e-01 1.622431576251983643e-01
3.917833864688873291e-01 7.604626417160034180e-01 -8.567804843187332153e-02
3.755940794944763184e-01 8.198488950729370117e-01 -1.359605342149734497e-01
-2.367031760513782501e-02 -6.142027974128723145e-01 4.391099512577056885e-02
-4.099400937557220459e-01 6.910477280616760254e-01 6.474922597408294678e-02
6.711868941783905029e-02 -4.426597058773040771e-01 1.504406780004501343e-01
3.890345394611358643e-01 8.845395445823669434e-01 1.350521445274353027e-01
-1.690888702869415283e-01 8.860760182142257690e-02 -1.806386411190032959e-01
-1.964759677648544312e-01 -1.338838934898376465e-01 6.350176781415939331e-02
-3.692037463188171387e-01 4.161462485790252686e-01 2.048591673374176025e-01
5.159804597496986389e-03 -4.252018332481384277e-01 4.714383929967880249e-02
7.693556137382984161e-03 5.829704999923706055e-01 6.907485425472259521e-02
1.980894058942794800e-02 -1.307219266891479492e-01 8.839721232652664185e-02
-1.964759677648544312e-01 -1.712111234664916992e-01 1.716278493404388428e-01
-2.155426889657974243e-01 6.085417866706848145e-01 3.687020242214202881e-01
-2.885361015796661377e-02 -1.307219266891479492e-01 -1.397244483232498169e-01
8.215141482651233673e-03 1.647071838378906250e-01 -4.658899083733558655e-02
-1.964759677648544312e-01 1.221090555191040039e-02 -1.714536696672439575e-01
-1.382798552513122559e-01 -2.476987242698669434e-01 -4.904214665293693542e-02
1.934451758861541748e-01 -4.956235885620117188e-01 -2.646669745445251465e-02
-1.325551122426986694e-01 -2.766380608081817627e-01 1.922276765108108521e-01
-9.452581405639648438e-02 -5.986272692680358887e-01 1.652081161737442017e-01
-3.939213454723358154e-01 5.466547012329101562e-01 -1.074790135025978088e-01
3.181358277797698975e-01 8.639077544212341309e-01 -2.358095645904541016e-01
-1.961138844490051270e-01 4.037847220897674561e-01 3.786667585372924805e-01
1.405387967824935913e-01 -1.307219266891479492e-01 -1.767169535160064697e-01
1.833436191082000732e-01 -2.476987242698669434e-01 1.240312680602073669e-01
3.182327374815940857e-02 4.048494249582290649e-02 -3.151902556419372559e-02
3.198540806770324707e-01 4.991876482963562012e-01 -2.331473678350448608e-01
-1.651890575885772705e-01 -1.575882434844970703e-01 -1.976925283670425415e-01
-1.377955824136734009e-01 -4.816513955593109131e-01 -1.594824790954589844e-01
1.934451758861541748e-01 8.145000785589218140e-02 7.373223546892404556e-03
5.884801968932151794e-02 7.129153609275817871e-01 -3.855023682117462158e-01
-1.859546452760696411e-02 4.800662100315093994e-01 -3.354808688163757324e-02
-4.968719184398651123e-02 7.769255638122558594e-01 -3.877769708633422852e-01
-1.964759677648544312e-01 -4.712785407900810242e-02 -1.647256910800933838e-01
-1.964759677648544312e-01 -4.144572615623474121e-01 4.166432097554206848e-02
-3.535370230674743652e-01 8.542932868003845215e-01 -1.933750212192535400e-01
1.562638729810714722e-01 -2.087070494890213013e-01 1.350685507059097290e-01
1.131252497434616089e-01 8.860760182142257690e-02 -1.607191711664199829e-01
4.140624776482582092e-02 -2.238256335258483887e-01 1.486393995583057404e-02
7.983044534921646118e-02 -3.646745979785919189e-01 1.522054374217987061e-01
6.349112838506698608e-02 -5.986272692680358887e-01 -1.083336956799030304e-02
-5.807012319564819336e-02 3.984147310256958008e-01 -3.873601853847503662e-01
4.031444489955902100e-01 8.817168474197387695e-01 6.952876597642898560e-02
1.934451758861541748e-01 8.207359164953231812e-02 5.819936096668243408e-02
-1.432604193687438965e-01 -5.986272692680358887e-01 -3.400646895170211792e-02
-3.926216959953308105e-01 8.408436775207519531e-01 1.421020627021789551e-01
1.456041634082794189e-01 -5.986272692680358887e-01 1.779062002897262573e-01
1.934451758861541748e-01 -3.096058070659637451e-01 -1.214785426855087280e-01
-1.964759677648544312e-01 -3.886206448078155518e-01 -1.358747929334640503e-01
-1.964759677648544312e-01 -4.381442964076995850e-01 -1.837933212518692017e-01
-6.719658616930246353e-03 -2.977285683155059814e-01 -1.976925283670425415e-01
1.233298629522323608e-01 8.624959588050842285e-01 -3.716177940368652344e-01
-2.148547768592834473e-02 8.026427626609802246e-01 -3.891787528991699219e-01
2.943293154239654541e-01 8.539466857910156250e-01 2.979610860347747803e-01
3.485170900821685791e-01 5.048977732658386230e-01 -1.887519806623458862e-01
-1.927704066038131714e-01 -5.596346855163574219e-01 -3.739991784095764160e-02
-1.964759677648544312e-01 -2.891920506954193115e-01 -1.629299223423004150e-01
-8.415677398443222046e-02 -5.324226617813110352e-01 1.922276765108108521e-01
-7.549634668976068497e-03 -7.740920186042785645e-01 -1.623434871435165405e-01
-7.006713747978210449e-02 -5.986272692680358887e-01 9.052304923534393311e-02
4.260105080902576447e-03 -5.986272692680358887e-01 -1.719853878021240234e-01
6.053817644715309143e-02 -7.228044867515563965e-01 1.922276765108108521e-01
-1.945744007825851440e-01 -4.426597058773040771e-01 6.471234373748302460e-03
-7.464529573917388916e-02 -3.827645182609558105e-01 1.922276765108108521e-01
-1.473517417907714844e-01 -2.087070494890213013e-01 -1.562758088111877441e-01
-3.610757887363433838e-01 4.816777110099792480e-01 -1.786768883466720581e-01
4.259981215000152588e-02 -6.678998470306396484e-01 -1.055794022977352142e-02
-3.829649463295936584e-02 -1.307219266891479492e-01 -1.003734618425369263e-01
-3.202992491424083710e-03 -4.163059592247009277e-01 -1.976925283670425415e-01
1.934451758861541748e-01 -6.035229563713073730e-01 -6.986369192600250244e-02
2.344781532883644104e-02 -2.087070494890213013e-01 1.324556171894073486e-01
-9.132280200719833374e-02 -5.986272692680358887e-01 -1.928332746028900146e-01
-3.502389043569564819e-02 -2.640822827816009521e-01 -3.675229102373123169e-02
3.841251432895660400e-01 5.055763125419616699e-01 -1.094626635313034058e-01
2.335312366485595703e-01 7.463846802711486816e-01 -3.174272775650024414e-01
-2.022554278373718262e-01 8.308160305023193359e-01 3.755166530609130859e-01
3.297403752803802490e-01 7.689390182495117188e-01 2.588435709476470947e-01
3.526825457811355591e-02 9.594795107841491699e-02 -2.702895551919937134e-02
3.991725742816925049e-01 5.437088608741760254e-01 8.797330409288406372e-02
1.586478948593139648e-01 7.023486495018005371e-01 -3.569716215133666992e-01
-1.061046645045280457e-01 -3.646745979785919189e-01 -9.952344745397567749e-02
-1.964759677648544312e-01 -7.225463986396789551e-01 -1.915673911571502686e-01
1.749110668897628784e-01 -1.307219266891479492e-01 1.513809710741043091e-01
-1.964759677648544312e-01 -6.165503263473510742e-01 1.033073663711547852e-02
6.446553021669387817e-02 8.860760182142257690e-02 1.538726091384887695e-01
4.506491497159004211e-02 -6.636224985122680664e-01 -1.976925283670425415e-01
1.023679524660110474e-01 -3.256829380989074707e-01 1.268010735511779785e-01
-1.316813826560974121e-01 -9.173026680946350098e-02 -1.902367472648620605e-01
-7.605172693729400635e-02 -2.476987242698669434e-01 1.573519855737686157e-01
1.934451758861541748e-01 -8.277603983879089355e-02 -1.722243279218673706e-01
6.689177453517913818e-02 8.860760182142257690e-02 -1.210134178400039673e-01
-9.878112375736236572e-02 -2.493558526039123535e-01 -1.976925283670425415e-01
-2.135389596223831177e-01 7.456450462341308594e-01 -3.316493332386016846e-01
1.088031753897666931e-01 -2.476987242698669434e-01 1.051276102662086487e-01
2.920328378677368164e-01 4.712387323379516602e-01 -2.644689083099365234e-01
-3.059377074241638184e-01 5.391131639480590820e-01 2.955332696437835693e-01
-1.964759677648544312e-01 3.292720019817352295e-02 1.550117284059524536e-01
-3.078830540180206299e-01 6.120721697807312012e-01 2.937721610069274902e-01
-1.677983552217483521e-01 -5.596346855163574219e-01 -6.594783812761306763e-02
-4.046594798564910889e-01 5.607080459594726562e-01 1.047161966562271118e-01
1.006661206483840942e-01 8.242649435997009277e-01 -3.764979839324951172e-01
-7.446645200252532959e-02 6.056087017059326172e-01 -3.926791995763778687e-02
1.934451758861541748e-01 -6.803868710994720459e-02 3.050145320594310760e-02
1.636621803045272827e-01 -3.646745979785919189e-01 1.213043257594108582e-01
1.617980152368545532e-01 -3.099970817565917969e-01 1.922276765108108521e-01
3.237356543540954590e-01 6.396526098251342773e-01 2.654775977134704590e-01
1.934451758861541748e-01 -2.953819334506988525e-01 1.138357743620872498e-01
1.244279369711875916e-01 -7.740920186042785645e-01 -1.348205059766769409e-01
-1.943381726741790771e-01 -2.476987242698669434e-01 1.045265942811965942e-01
-3.778688311576843262e-01 4.688336849212646484e-01 -1.459353119134902954e-01
-1.460749059915542603e-01 -3.102807104587554932e-01 -1.976925283670425415e-01
-7.346806675195693970e-02 -1.307219266891479492e-01 7.281596213579177856e-02
3.348869383335113525e-01 6.286299228668212891e-01 -2.098634690046310425e-01
2.968036234378814697e-01 8.273019790649414062e-01 -2.601504921913146973e-01
-1.061211060732603073e-02 4.741125106811523438e-01 -3.897195756435394287e-01
-5.018260329961776733e-02 5.370821356773376465e-01 -4.615208134055137634e-03
-1.964759677648544312e-01 -5.010309219360351562e-01 2.651614695787429810e-02
-1.550108939409255981e-01 8.860760182142257690e-02 2.935601165518164635e-03
3.673467040061950684e-01 6.512070298194885254e-01 1.901546567678451538e-01
-3.215011209249496460e-02 4.975469112396240234e-01 4.288261234760284424e-01
5.725048482418060303e-03 -5.468280911445617676e-01 1.922276765108108521e-01
4.325500875711441040e-02 2.172781378030776978e-01 -5.581676959991455078e-03
-1.964759677648544312e-01 -1.734939217567443848e-01 -9.854576736688613892e-02
1.785628050565719604e-01 8.860760182142257690e-02 1.290145516395568848e-01
3.634842932224273682e-01 7.873271703720092773e-01 1.976852118968963623e-01
-1.064579281955957413e-02 -3.256829380989074707e-01 -1.225902959704399109e-01
-1.964759677648544312e-01 9.197589010000228882e-03 -1.108837220817804337e-02
1.903579682111740112e-01 -3.256829380989074707e-01 1.385862231254577637e-01
-1.922003924846649170e-01 -7.740920186042785645e-01 1.994645223021507263e-02
-1.964759677648544312e-01 4.239362105727195740e-02 -7.998429983854293823e-02
-1.031879615038633347e-02 -4.094028472900390625e-01 1.922276765108108521e-01
-4.702590778470039368e-02 -2.087070494890213013e-01 1.456352323293685913e-01
4.019314348697662354e-01 7.164521813392639160e-01 -4.795328900218009949e-02
-1.470288783311843872e-01 8.860760182142257690e-02 -7.146438211202621460e-02
-4.116182029247283936e-01 6.775069832801818848e-01 3.099941462278366089e-02
-2.287275530397891998e-02 -4.816513955593109131e-01 8.859421312808990479e-02
-3.398375511169433594e-01 6.900600790977478027e-01 2.503444254398345947e-01
-7.845225930213928223e-02 -4.426597058773040771e-01 5.401400476694107056e-02
1.517295278608798981e-02 -8.615051954984664917e-02 -1.976925283670425415e-01
-1.071115285158157349e-01 -4.426597058773040771e-01 -1.446621268987655640e-01
-2.362776314839720726e-03 7.610964775085449219e-01 -3.901299834251403809e-01
1.279428750276565552e-01 7.720015048980712891e-01 4.052166342735290527e-01
3.609333634376525879e-01 4.185220599174499512e-01 -1.695211082696914673e-01
-1.232072897255420685e-02 -4.816513955593109131e-01 -1.179937049746513367e-01
-7.193485647439956665e-02 -1.307219266891479492e-01 1.447095423936843872e-01
-1.964759677648544312e-01 -6.507994532585144043e-01 -1.330958753824234009e-01
3.332790136337280273e-01 4.643638730049133301e-01 2.549346089363098145e-01
-4.094640016555786133e-01 7.966990470886230469e-01 7.433712482452392578e-02
-1.871642172336578369e-01 -2.476987242698669434e-01 3.768617287278175354e-02
3.961574435234069824e-01 6.284274458885192871e-01 1.019751131534576416e-01
-3.145827651023864746e-01 4.673188924789428711e-01 2.877072095870971680e-01
-4.724434390664100647e-02 -2.476987242698669434e-01 -8.892849832773208618e-02
-4.506652429699897766e-02 -6.235874891281127930e-01 -2.552138827741146088e-02
-2.907286025583744049e-02 4.581758379936218262e-01 2.243680879473686218e-02
7.872972637414932251e-02 -5.986272692680358887e-01 6.594197452068328857e-02
2.359271198511123657e-01 7.105531692504882812e-01 3.500110507011413574e-01
-1.055756956338882446e-01 8.860760182142257690e-02 1.532314717769622803e-01
-1.423036903142929077e-01 4.452570676803588867e-01 -3.655154407024383545e-01
3.702872619032859802e-02 8.147060275077819824e-01 4.253869056701660156e-01
2.805899642407894135e-02 4.848697781562805176e-01 -1.404769811779260635e-02
-1.508830785751342773e-01 -4.426597058773040771e-01 1.649162918329238892e-01
3.870956003665924072e-01 7.404857277870178223e-01 1.440583467483520508e-01
-1.003397777676582336e-01 -2.476987242698669434e-01 -6.793166697025299072e-02
-7.070171833038330078e-02 -4.816513955593109131e-01 7.797499746084213257e-02
5.543313920497894287e-02 -5.596346855163574219e-01 1.634343713521957397e-02
7.104092836380004883e-02 7.007830590009689331e-02 -1.976925283670425415e-01
-1.964759677648544312e-01 -7.650474905967712402e-01 -1.380472332239151001e-01
-4.062929153442382812e-01 5.051987171173095703e-01 -5.003133043646812439e-02
-1.964759677648544312e-01 -4.967316687107086182e-01 -8.550215512514114380e-03
-1.872171014547348022e-01 -7.740920186042785645e-01 5.490586906671524048e-02
-6.107728462666273117e-03 -5.986272692680358887e-01 -7.271002233028411865e-02
1.934451758861541748e-01 -2.804065346717834473e-01 -1.825804822146892548e-02
-1.309098154306411743e-01 8.860760182142257690e-02 -2.847834303975105286e-02
-1.964759677648544312e-01 -4.845653176307678223e-01 -1.401011049747467041e-01
-2.441819906234741211e-01 5.971624255180358887e-01 3.514383435249328613e-01
7.340379804372787476e-02 5.973302721977233887e-01 4.227766990661621094e-01
1.934451758861541748e-01 -5.160810947418212891e-01 9.109068661928176880e-02
4.063757359981536865e-01 8.181526064872741699e-01 4.141834750771522522e-02
-6.429385393857955933e-02 -5.986272692680358887e-01 4.605260491371154785e-02
-1.720748245716094971e-01 -2.476987242698669434e-01 1.692657172679901123e-01
-3.991545140743255615e-01 3.767177462577819824e-01 -8.317820727825164795e-02
-1.964759677648544312e-01 -1.384558528661727905e-01 1.576137244701385498e-01
-8.638873696327209473e-04 3.988215029239654541e-01 4.272711277008056641e-01
1.934451758861541748e-01 2.058062143623828888e-02 -7.598052918910980225e-02
-3.832504153251647949e-02 5.645248889923095703e-01 -3.883415162563323975e-01
-3.836629390716552734e-01 7.467111945152282715e-01 1.699278503656387329e-01
3.771016597747802734e-01 4.939234554767608643e-01 1.711362749338150024e-01
1.893878169357776642e-02 -4.840792119503021240e-01 -4.214635491371154785e-02
-4.651408270001411438e-02 2.307563647627830505e-02 -1.976925283670425415e-01
-5.321966949850320816e-03 3.625567853450775146e-01 4.706239327788352966e-02
-2.874592244625091553e-01 7.043614387512207031e-01 3.122606575489044189e-01
-1.079706549644470215e-01 -5.448389649391174316e-01 -1.976925283670425415e-01
-7.556717097759246826e-02 -7.740920186042785645e-01 -1.560715138912200928e-01
-1.964759677648544312e-01 -5.120874047279357910e-01 -1.824371367692947388e-01
-1.820650994777679443e-01 8.744115233421325684e-01 -3.519691824913024902e-01
3.724941313266754150e-01 7.558770179748535156e-01 -1.455860137939453125e-01
-9.970500320196151733e-02 5.585374236106872559e-01 -3.792304098606109619e-01
1.359686553478240967e-01 8.860760182142257690e-02 -7.341878954321146011e-03
-1.964759677648544312e-01 6.931266188621520996e-02 -6.779070477932691574e-03
4.027249217033386230e-01 5.001735091209411621e-01 7.147693634033203125e-02
1.934451758861541748e-01 -6.995397210121154785e-01 4.575780592858791351e-03
2.915631830692291260e-01 3.976951241493225098e-01 -2.648939192295074463e-01
3.272168338298797607e-01 4.114447832107543945e-01 -2.217443585395812988e-01
-7.709927856922149658e-02 -1.307219266891479492e-01 -1.623872667551040649e-01
-1.526113748550415039e-01 6.719436645507812500e-01 -3.621965944766998291e-01
2.547093033790588379e-01 5.217236876487731934e-01 -2.982565760612487793e-01
1.655135899782180786e-01 -1.564582437276840210e-01 -1.976925283670425415e-01
8.967535197734832764e-02 -7.537612318992614746e-01 -1.976925283670425415e-01
2.919756434857845306e-02 3.106508851051330566e-01 9.792716242372989655e-03
-1.331333220005035400e-01 -5.986272692680358887e-01 -6.907497346401214600e-02
1.230763271450996399e-01 -2.476987242698669434e-01 -1.318272501230239868e-01
2.946886718273162842e-01 8.682006597518920898e-01 -2.620648443698883057e-01
-4.779355600476264954e-02 -9.173026680946350098e-02 1.359559595584869385e-01
7.353284209966659546e-02 -2.052422910928726196e-01 1.922276765108108521e-01
1.620296835899353027e-01 -9.173026680946350098e-02 9.980395436286926270e-02
1.934451758861541748e-01 -1.741414368152618408e-01 1.467396914958953857e-01
4.477334395051002502e-02 -1.307219266891479492e-01 -1.699816733598709106e-01
1.934451758861541748e-01 6.613600254058837891e-02 -3.766030445694923401e-02
1.715267822146415710e-02 -9.173026680946350098e-02 6.346409767866134644e-02
-4.865624010562896729e-02 -4.991266429424285889e-01 -1.807655394077301025e-02
1.749557554721832275e-01 -3.256829380989074707e-01 4.335247352719306946e-02
-4.028773605823516846e-01 4.626803398132324219e-01 1.102515310049057007e-01
-1.964759677648544312e-01 -2.783718109130859375e-01 -4.104490578174591064e-02
-1.964759677648544312e-01 -1.751154661178588867e-01 7.448606193065643311e-02
2.103203088045120239e-01 4.560653865337371826e-01 -3.304691910743713379e-01
3.957399725914001465e-02 -4.426597058773040771e-01 -1.423975825309753418e-01
-1.703200936317443848e-01 -1.307219266891479492e-01 -8.193159475922584534e-03
-3.836109340190887451e-01 6.012209653854370117e-01 -1.347411572933197021e-01
7.325586676597595215e-02 -2.087070494890213013e-01 -1.409930586814880371e-01
5.721732601523399353e-02 -2.476987242698669434e-01 1.669902205467224121e-01
1.047610938549041748e-01 -2.087070494890213013e-01 1.412693858146667480e-01
-2.054648399353027344e-01 6.371865272521972656e-01 -3.368624448776245117e-01
-7.121148519217967987e-03 -7.373092770576477051e-01 4.802320897579193115e-02
-1.400592029094696045e-01 -5.596346855163574219e-01 -3.740539401769638062e-02
1.788199990987777710e-01 -4.426597058773040771e-01 -1.864857599139213562e-02
1.617816090583801270e-01 -4.426597058773040771e-01 6.552845239639282227e-02
-1.964759677648544312e-01 -7.296446561813354492e-01 8.875870145857334137e-03
-1.613986939191818237e-01 -2.087070494890213013e-01 -5.957590788602828979e-02
-1.339304298162460327e-01 -1.434829235076904297e-01 -1.976925283670425415e-01
9.190341830253601074e-02 -1.307219266891479492e-01 3.653210029006004333e-02
-2.918661236763000488e-01 4.124051630496978760e-01 -2.710747122764587402e-01
1.662587076425552368e-01 8.082343339920043945e-01 -3.530681729316711426e-01
-2.816658280789852142e-02 -1.932537704706192017e-01 4.204864799976348877e-02
1.561051756143569946e-01 -7.710221409797668457e-01 1.922276765108108521e-01
1.934451758861541748e-01 -2.036371231079101562e-01 -5.753653496503829956e-02
1.149237677454948425e-01 -1.307219266891479492e-01 -9.759634733200073242e-02
-3.900869563221931458e-02 -3.256829380989074707e-01 1.061127781867980957e-01
-4.047059714794158936e-01 4.309565722942352295e-01 -5.739881843328475952e-02
-2.832712233066558838e-01 5.078882575035095215e-01 -2.805688381195068359e-01
-1.043627038598060608e-01 5.935544967651367188e-01 -3.777310550212860107e-01
-1.117591932415962219e-01 8.894535303115844727e-01 -3.753497600555419922e-01
-1.043034195899963379e-01 -5.596346855163574219e-01 1.619029641151428223e-01
-1.665032804012298584e-01 -7.740920186042785645e-01 -1.962725222110748291e-01
1.559410244226455688e-01 9.508165530860424042e-04 -1.976925283670425415e-01
-1.335729211568832397e-01 -2.476987242698669434e-01 3.402750566601753235e-02
-1.964759677648544312e-01 -4.096715524792671204e-02 -2.088512480258941650e-02
-1.530017107725143433e-01 8.097610473632812500e-01 -3.620707392692565918e-01
3.338663876056671143e-01 7.052470445632934570e-01 -2.114448994398117065e-01
-9.072173270396888256e-04 8.860760182142257690e-02 6.228640303015708923e-02
-1.874439790844917297e-02 8.282002806663513184e-01 4.281594157218933105e-01
-2.981253266334533691e-01 7.180581688880920410e-01 -2.641606628894805908e-01
-1.208027973771095276e-01 -4.816513955593109131e-01 4.169619933236390352e-04
7.461815327405929565e-02 -3.256829380989074707e-01 4.011990129947662354e-02
3.161676824092864990e-01 7.942849397659301758e-01 -2.388575524091720581e-01
1.791583448648452759e-01 6.403093338012695312e-01 3.866615295410156250e-01
-2.630070149898529053e-01 5.696239471435546875e-01 3.343963325023651123e-01
4.059844613075256348e-01 4.709040224552154541e-01 3.353638574481010437e-02
-1.958357095718383789e-01 -5.596346855163574219e-01 6.530509889125823975e-02
3.786183595657348633e-01 3.783620893955230713e-01 -1.265667080879211426e-01
-1.306845396757125854e-01 -4.426597058773040771e-01 4.044120758771896362e-02
-2.324522472918033600e-02 -2.476987242698669434e-01 1.874787807464599609e-01
1.048878729343414307e-01 6.701464205980300903e-02 -1.976925283670425415e-01
-1.117929443717002869e-01 -4.816513955593109131e-01 -1.257167011499404907e-01
2.639307379722595215e-01 7.598324418067932129e-01 -2.899088263511657715e-01
1.934451758861541748e-01 -3.726201057434082031e-01 9.545489400625228882e-02
1.260330975055694580e-01 -5.986272692680358887e-01 3.186254948377609253e-02
4.596435278654098511e-02 -3.256829380989074707e-01 -1.789834722876548767e-02
-1.774821877479553223e-01 -5.596346855163574219e-01 1.006106100976467133e-02
-5.135472863912582397e-02 -6.307322382926940918e-01 9.834550321102142334e-03
-1.964759677648544312e-01 -5.102952718734741211e-01 1.381037533283233643e-01
-8.701796829700469971e-02 -2.476987242698669434e-01 -1.358383148908615112e-01
1.889242827892303467e-01 -2.087070494890213013e-01 -1.618993431329727173e-01
-3.140546977519989014e-01 4.632804095745086670e-01 -2.465632110834121704e-01
-4.138660803437232971e-02 -4.426597058773040771e-01 1.211064159870147705e-01
-1.964759677648544312e-01 -3.102059364318847656e-01 -2.461985312402248383e-02
1.148590072989463806e-01 8.860760182142257690e-02 3.102932870388031006e-02
1.934451758861541748e-01 -7.447522878646850586e-01 3.492822125554084778e-02
-5.972617492079734802e-02 6.096881628036499023e-01 4.241456091403961182e-01
-1.964759677648544312e-01 -4.862722009420394897e-02 -9.700354188680648804e-02
2.747283875942230225e-02 -7.740920186042785645e-01 1.465399563312530518e-01
-9.805060178041458130e-02 -5.596346855163574219e-01 -1.593374609947204590e-01
1.934451758861541748e-01 1.649923250079154968e-02 5.068494379520416260e-02
-1.127934306859970093e-01 -7.740920186042785645e-01 1.491401344537734985e-01
-4.002161026000976562e-01 7.178986072540283203e-01 1.185153648257255554e-01
-2.655768580734729767e-02 4.420421719551086426e-01 -3.889270126819610596e-01
4.183854907751083374e-02 6.305096149444580078e-01 4.251470267772674561e-01
1.480933092534542084e-02 3.277750313282012939e-01 -3.051096573472023010e-02
1.345696151256561279e-01 -4.087352454662322998e-01 -1.976925283670425415e-01
2.114676237106323242e-01 7.713449001312255859e-01 3.658017814159393311e-01
8.266305550932884216e-03 -4.426597058773040771e-01 -8.134152740240097046e-03
-6.576521694660186768e-02 -3.256829380989074707e-01 -5.694791674613952637e-02
-1.369236856698989868e-01 -4.854800403118133545e-01 1.922276765108108521e-01
-3.702735304832458496e-01 5.361810326576232910e-01 -1.607447117567062378e-01
1.934451758861541748e-01 -7.413558959960937500e-01 1.883716434240341187e-01
1.679516583681106567e-02 -2.476987242698669434e-01 -7.836820185184478760e-02
1.934451758861541748e-01 1.108766347169876099e-02 -1.148025393486022949e-01
-3.928615748882293701e-01 5.851858258247375488e-01 1.413578540086746216e-01
-1.460546161979436874e-02 8.860760182142257690e-02 2.702875621616840363e-02
-1.672089472413063049e-02 -8.584591001272201538e-02 1.922276765108108521e-01
6.363768130540847778e-02 5.577777028083801270e-01 4.240635335445404053e-01
1.464149504899978638e-01 8.860760182142257690e-02 -1.619294285774230957e-01
1.757118254899978638e-01 -3.646745979785919189e-01 -1.754455864429473877e-01
3.831832855939865112e-02 6.487153768539428711e-01 -7.075720280408859253e-02
-1.771556884050369263e-01 -4.426597058773040771e-01 1.036478579044342041e-01
-3.561517894268035889e-01 6.844565868377685547e-01 -1.882777363061904907e-01
3.437818586826324463e-01 8.381094336509704590e-01 -1.960855573415756226e-01
-1.868548057973384857e-02 4.475325644016265869e-01 -4.024670645594596863e-02
3.674086928367614746e-01 8.633341193199157715e-01 1.900342702865600586e-01
1.337205171585083008e-01 -2.476987242698669434e-01 8.188009262084960938e-02
9.609324485063552856e-02 -9.173026680946350098e-02 -1.764270476996898651e-02
3.159362822771072388e-02 -5.986272692680358887e-01 -1.923863887786865234e-01
7.817412167787551880e-02 -2.476987242698669434e-01 -8.950124680995941162e-02
7.354648318141698837e-03 7.161256074905395508e-01 -1.663665473461151123e-02
-2.508349530398845673e-02 -6.112465262413024902e-02 4.332565888762474060e-02
-6.933199241757392883e-03 -3.256829380989074707e-01 2.086016908288002014e-02
2.606477029621601105e-02 -2.087070494890213013e-01 7.505461573600769043e-02
-2.717222869396209717e-01 5.045257210731506348e-01 3.265064358711242676e-01
-3.382752537727355957e-01 4.601649641990661621e-01 -2.198072373867034912e-01
-8.655210584402084351e-02 -9.173026680946350098e-02 1.227772310376167297e-01
3.409673571586608887e-01 7.926989793777465820e-01 -2.004459202289581299e-01
-7.191462069749832153e-02 -3.256829380989074707e-01 -1.646436005830764771e-01
7.639941573143005371e-02 -3.256829380989074707e-01 -1.402041614055633545e-01
5.911387875676155090e-02 5.929927229881286621e-01 -4.072633758187294006e-02
1.192120909690856934e-01 -3.646745979785919189e-01 -1.615409106016159058e-01
1.934451758861541748e-01 -7.489275336265563965e-01 -1.634598076343536377e-01
3.857330381870269775e-01 8.085289597511291504e-01 1.503814011812210083e-01
2.207540534436702728e-02 -7.122614979743957520e-01 4.020299017429351807e-02
1.203302219510078430e-01 -7.601718306541442871e-01 1.922276765108108521e-01
-1.964759677648544312e-01 -2.529163956642150879e-01 6.486739031970500946e-03
-1.181515380740165710e-01 4.851917624473571777e-01 -3.732913434505462646e-01
-1.061001047492027283e-01 -3.256829380989074707e-01 -1.965151131153106689e-01
1.934451758861541748e-01 -2.928510904312133789e-01 -1.798853129148483276e-01
1.620515584945678711e-01 8.860760182142257690e-02 4.744672030210494995e-02
-2.877170778810977936e-02 -3.646745979785919189e-01 1.465627700090408325e-01
3.471967577934265137e-02 -5.890911817550659180e-01 -2.774398401379585266e-02
4.174214974045753479e-02 -3.256829380989074707e-01 -1.588732451200485229e-01
-1.356112807989120483e-01 -2.087070494890213013e-01 1.616767793893814087e-01
-3.939933776855468750e-01 7.700780630111694336e-01 -1.071433946490287781e-01
1.541416049003601074e-01 -2.087070494890213013e-01 -4.559734836220741272e-02
-2.635968662798404694e-02 2.122000008821487427e-01 4.279705137014389038e-02
-4.240935295820236206e-02 -7.740920186042785645e-01 -7.277294993400573730e-02
-5.840155482292175293e-02 -4.426597058773040771e-01 1.578280627727508545e-01
1.829213500022888184e-01 -6.795381903648376465e-01 1.922276765108108521e-01
5.582649633288383484e-02 -1.307219266891479492e-01 1.132502555847167969e-01
-3.738185465335845947e-01 6.303536295890808105e-01 -1.538334190845489502e-01
9.975866228342056274e-02 -3.129666149616241455e-01 1.922276765108108521e-01
1.987950801849365234e-01 5.780273079872131348e-01 3.739835321903228760e-01
-1.886323466897010803e-02 1.810667291283607483e-02 -4.575731977820396423e-02
1.216152682900428772e-01 -9.173026680946350098e-02 -1.275042593479156494e-01
3.633830249309539795e-01 5.705897808074951172e-01 1.978813111782073975e-01
-5.705085396766662598e-02 8.860760182142257690e-02 -1.633959710597991943e-01
2.741739153861999512e-02 7.123024463653564453e-01 8.849877864122390747e-03
1.934451758861541748e-01 5.483433487825095654e-04 -1.590392291545867920e-01
-1.964759677648544312e-01 -4.122602343559265137e-01 -5.212141200900077820e-02
-1.229816153645515442e-01 -9.173026680946350098e-02 6.620161980390548706e-02
-1.542046666145324707e-01 -5.596346855163574219e-01 1.365140974521636963e-01
-3.466284573078155518e-01 4.102445542812347412e-01 2.398260682821273804e-01
-3.576247096061706543e-01 6.320828199386596680e-01 -1.854066848754882812e-01
-4.108366072177886963e-01 4.201710224151611328e-01 4.671783372759819031e-02
2.875539064407348633e-01 6.982545852661132812e-01 3.054460287094116211e-01
6.877902150154113770e-02 -3.646745979785919189e-01 4.713681340217590332e-02
2.051721699535846710e-02 3.836080431938171387e-01 -3.290862077847123146e-03
-2.936534397304058075e-02 -5.596346855163574219e-01 1.460219826549291611e-02
1.393616013228893280e-02 -7.740920186042785645e-01 2.720122784376144409e-02
1.464961171150207520e-01 -3.646745979785919189e-01 -1.257422417402267456e-01
-1.964759677648544312e-01 -7.682979106903076172e-01 1.873985230922698975e-01
-4.132643938064575195e-01 8.866727352142333984e-01 -2.103591570630669594e-03
-3.332734853029251099e-02 7.072224617004394531e-01 3.220921009778976440e-02
-1.318583041429519653e-01 -3.256829380989074707e-01 1.444212067872285843e-02
1.625458747148513794e-01 -4.816513955593109131e-01 2.685272693634033203e-02
-1.255480349063873291e-01 -6.598257422447204590e-01 1.922276765108108521e-01
3.833243846893310547e-01 5.915991067886352539e-01 1.590027362108230591e-01
2.392608113586902618e-02 7.819051742553710938e-01 4.260380864143371582e-01
1.528219133615493774e-01 4.638914763927459717e-01 -3.599603176116943359e-01
1.975611299276351929e-01 6.498663425445556641e-01 -3.370138406753540039e-01
1.165900304913520813e-01 -4.426597058773040771e-01 -1.012216359376907349e-01
3.960008546710014343e-02 -2.087070494890213013e-01 -1.369628310203552246e-01
1.586570143699645996e-01 -2.087070494890213013e-01 -1.370870135724544525e-02
-1.914395391941070557e-02 6.949020028114318848e-01 4.281795024871826172e-01
-3.376158475875854492e-01 4.689440429210662842e-01 2.537863850593566895e-01
-3.704958036541938782e-02 -6.685236692428588867e-01 -1.976925283670425415e-01
4.392680525779724121e-02 1.700460910797119141e-01 -4.795549612026661634e-04
2.587103247642517090e-01 4.232180714607238770e-01 -2.946340441703796387e-01
3.926133215427398682e-01 8.545978665351867676e-01 -8.309976756572723389e-02
1.701995581388473511e-01 -8.245644159615039825e-03 1.922276765108108521e-01
-1.799601614475250244e-01 8.106921911239624023e-01 3.869515955448150635e-01
-1.852498948574066162e-01 -2.087070494890213013e-01 1.727012991905212402e-01
-8.077745884656906128e-02 -3.646745979785919189e-01 -3.017060086131095886e-02
-1.964759677648544312e-01 -7.351450324058532715e-01 -1.101028993725776672e-01
-2.447565495967864990e-01 4.669422209262847900e-01 3.509176075458526611e-01
-1.375108025968074799e-02 -1.422799676656723022e-01 -1.976925283670425415e-01
1.934451758861541748e-01 6.011000275611877441e-02 -1.398794800043106079e-01
-1.292262226343154907e-01 -5.596346855163574219e-01 2.884357981383800507e-02
-1.753672212362289429e-01 8.716717958450317383e-01 3.893073201179504395e-01
1.565240323543548584e-02 8.830314502120018005e-03 -1.976925283670425415e-01
1.934451758861541748e-01 -3.954945504665374756e-01 1.908357068896293640e-02
2.545563131570816040e-02 1.432494372129440308e-01 3.760911151766777039e-02
-1.950769126415252686e-01 -9.173026680946350098e-02 1.688458770513534546e-02
1.154664233326911926e-01 -7.740920186042785645e-01 -6.769608706235885620e-02
1.508564949035644531e-01 6.991209983825683594e-01 3.978383839130401611e-01
-1.538134068250656128e-01 -4.816513955593109131e-01 1.131316944956779480e-01
-4.113445878028869629e-01 5.920715928077697754e-01 3.651313111186027527e-02
-3.552057966589927673e-02 -5.596346855163574219e-01 -1.694946587085723877e-01
1.561124771833419800e-01 -2.476987242698669434e-01 1.652692407369613647e-01
-1.933778226375579834e-01 -6.650725603103637695e-01 -1.976925283670425415e-01
-1.684841811656951904e-01 -3.256829380989074707e-01 6.884685158729553223e-02
