-3.260959088802337646e-01 2.351861894130706787e-01 -5.824216455221176147e-02
3.729023337364196777e-01 -5.502245426177978516e-01 3.605594635009765625e-01
-5.759789422154426575e-02 -7.944778352975845337e-02 4.220230281352996826e-01
3.729023337364196777e-01 -7.249183654785156250e-01 -2.718793451786041260e-01
7.268980890512466431e-02 -1.774963140487670898e-01 -3.830487728118896484e-01
-1.424724012613296509e-01 -6.133434772491455078e-01 -2.482282742857933044e-02
2.626118957996368408e-01 5.736793875694274902e-01 2.164380103349685669e-01
-3.361142873764038086e-01 -5.562249943614006042e-02 -2.051189728081226349e-02
3.729023337364196777e-01 2.081446647644042969e-01 1.173987518996000290e-02
-4.300734400749206543e-02 6.239995360374450684e-01 1.241942122578620911e-01
8.478679694235324860e-03 -6.658913493156433105e-01 -3.830487728118896484e-01
3.729023337364196777e-01 4.267010092735290527e-01 -1.520766913890838623e-01
-2.520022392272949219e-01 5.736793875694274902e-01 -7.053487002849578857e-02
-2.564875781536102295e-01 5.736793875694274902e-01 3.061082363128662109e-01
-3.361142873764038086e-01 -2.575269937515258789e-01 6.588923744857311249e-03
-1.797252297401428223e-01 5.736793875694274902e-01 -1.335481405258178711e-01
-3.342276811599731445e-01 -1.112314462661743164e-01 -3.830487728118896484e-01
2.101876959204673767e-02 -2.881543636322021484e-01 -3.418838381767272949e-01
3.797636032104492188e-01 -4.137491583824157715e-01 2.988069653511047363e-01
7.014765590429306030e-02 -5.670379400253295898e-01 -3.830487728118896484e-01
3.797636032104492188e-01 -5.725439190864562988e-01 -2.104018032550811768e-01
-3.772791922092437744e-01 -5.893695354461669922e-01 -9.962238371372222900e-03
-1.304304301738739014e-01 -1.373848617076873779e-01 -3.418838381767272949e-01
2.154553681612014771e-01 2.351861894130706787e-01 -7.582517713308334351e-02
-4.123984277248382568e-01 -7.259986996650695801e-01 -4.181679785251617432e-01
1.631255894899368286e-01 -6.133434772491455078e-01 1.055457964539527893e-01
-3.151811286807060242e-02 -6.133434772491455078e-01 1.154947951436042786e-01
1.501673460006713867e-01 5.736793875694274902e-01 -3.287842869758605957e-02
2.244129478931427002e-01 -8.774697780609130859e-02 -3.830487728118896484e-01
-1.692240387201309204e-01 5.736793875694274902e-01 -4.507634416222572327e-02
-1.725460886955261230e-01 5.325135588645935059e-01 1.291326433420181274e-02
1.169549487531185150e-02 5.736793875694274902e-01 -7.934390008449554443e-02
-5.821560695767402649e-02 -6.133434772491455078e-01 -1.911670714616775513e-02
2.488902509212493896e-01 5.736793875694274902e-01 -3.687286972999572754e-01
3.448727428913116455e-01 6.239995360374450684e-01 -3.464735746383666992e-01
-3.543454706668853760e-01 6.239995360374450684e-01 -1.524225175380706787e-01
3.797636032104492188e-01 4.100022017955780029e-01 -2.364338636398315430e-01
2.311698347330093384e-01 2.351861894130706787e-01 1.709723025560379028e-01
-3.772791922092437744e-01 5.441006422042846680e-01 1.466628015041351318e-01
-3.772791922092437744e-01 5.576852560043334961e-01 3.238072097301483154e-01
3.797636032104492188e-01 -1.020404323935508728e-01 1.423871964216232300e-01
-3.635566234588623047e-01 -5.474966764450073242e-02 1.688256561756134033e-01
-1.883099973201751709e-01 -2.689882218837738037e-01 -3.830487728118896484e-01
-1.219258233904838562e-01 -1.760793849825859070e-02 -3.830487728118896484e-01
2.162113040685653687e-01 6.239995360374450684e-01 1.849412545561790466e-02
1.090965792536735535e-01 5.736793875694274902e-01 -3.032095134258270264e-01
-1.603055894374847412e-01 -7.596866786479949951e-02 -3.418838381767272949e-01
-3.638623654842376709e-01 5.736793875694274902e-01 -5.598421022295951843e-02
-3.452750742435455322e-01 1.940156817436218262e-01 -3.093885183334350586e-01
1.615708172321319580e-01 3.884773701429367065e-02 -3.830487728118896484e-01
-3.361142873764038086e-01 -4.808669090270996094e-01 -9.419246017932891846e-02
-3.391100764274597168e-01 -1.875607073307037354e-01 -3.350234925746917725e-01
3.797636032104492188e-01 2.457368224859237671e-01 -7.120654731988906860e-02
3.797636032104492188e-01 -4.479222893714904785e-01 3.715398013591766357e-01
-3.382702469825744629e-01 -7.915589213371276855e-01 -3.830487728118896484e-01
-3.361142873764038086e-01 1.308491826057434082e-01 -2.456133067607879639e-01
-1.225372925400733948e-01 -5.721757411956787109e-01 2.616743743419647217e-01
3.527379333972930908e-01 -5.721757411956787109e-01 2.945080697536468506e-01
1.198979020118713379e-01 5.736793875694274902e-01 -2.126724421977996826e-01
-2.080307006835937500e-01 4.808325469493865967e-01 -3.830487728118896484e-01
1.077636554837226868e-01 -5.721757411956787109e-01 -2.377220690250396729e-01
-2.253335267305374146e-01 5.736793875694274902e-01 1.958131343126296997e-01
1.335067600011825562e-01 2.224386334419250488e-01 -3.556064367294311523e-01
3.729023337364196777e-01 5.009941458702087402e-01 1.779659539461135864e-01
-3.772791922092437744e-01 -4.986870586872100830e-01 -1.663156449794769287e-01
7.353702187538146973e-02 5.486517399549484253e-02 3.808553218841552734e-01
2.987527251243591309e-01 -6.133434772491455078e-01 -1.169611886143684387e-01
1.964672803878784180e-01 -6.133434772491455078e-01 -1.008742116391658783e-02
-3.635566234588623047e-01 -4.669481143355369568e-02 1.082395985722541809e-01
9.369713068008422852e-02 4.210356175899505615e-01 -3.418838381767272949e-01
3.161729574203491211e-01 5.736793875694274902e-01 -3.283281028270721436e-01
3.227275907993316650e-01 -7.473231106996536255e-02 -3.418838381767272949e-01
-2.483173087239265442e-02 -4.629227817058563232e-01 -3.418838381767272949e-01
3.797636032104492188e-01 5.491853356361389160e-01 -1.775121986865997314e-01
-3.361142873764038086e-01 -4.164876937866210938e-01 2.442494630813598633e-01
-1.013802736997604370e-01 5.736793875694274902e-01 -1.379617005586624146e-01
3.729023337364196777e-01 -2.703883051872253418e-01 -8.265663683414459229e-02
3.797636032104492188e-01 -2.568297386169433594e-01 -1.735022515058517456e-01
3.249143362045288086e-01 5.204594731330871582e-01 -3.830487728118896484e-01
1.922187060117721558e-01 3.999885022640228271e-01 3.808553218841552734e-01
-1.633284389972686768e-01 5.736793875694274902e-01 3.300038874149322510e-01
2.167435437440872192e-01 1.467939019203186035e-01 -3.418838381767272949e-01
-5.127173662185668945e-02 5.736793875694274902e-01 -2.868289500474929810e-02
-3.119818568229675293e-01 -5.721757411956787109e-01 -2.180237174034118652e-01
-1.448930799961090088e-01 2.351861894130706787e-01 3.649842143058776855e-01
-3.891598880290985107e-01 5.736793875694274902e-01 -1.239315345883369446e-01
2.115712463855743408e-01 5.325135588645935059e-01 3.775984942913055420e-01
3.110854923725128174e-01 5.736793875694274902e-01 -2.477180212736129761e-01
-2.152573913335800171e-01 6.239995360374450684e-01 3.731290400028228760e-01
-3.615190088748931885e-01 5.736793875694274902e-01 -3.761324882507324219e-01
3.729023337364196777e-01 -3.295122087001800537e-01 -2.877392470836639404e-01
-3.361142873764038086e-01 9.764450788497924805e-02 -1.180648133158683777e-01
3.071939051151275635e-01 -6.133434772491455078e-01 2.632981240749359131e-01
3.729023337364196777e-01 -3.977130949497222900e-01 -1.115924445912241936e-03
-2.748622894287109375e-01 -3.589054644107818604e-01 -3.418838381767272949e-01
-1.388250440359115601e-01 -1.663815081119537354e-01 4.220230281352996826e-01
-2.928987145423889160e-01 4.094186723232269287e-01 3.808553218841552734e-01
2.487998306751251221e-01 -5.721757411956787109e-01 -3.484142422676086426e-01
3.634926378726959229e-01 -8.054651021957397461e-01 3.724308907985687256e-01
3.797636032104492188e-01 -5.104587078094482422e-01 -7.028432190418243408e-02
-3.772791922092437744e-01 -6.668598651885986328e-01 3.687275946140289307e-01
-2.756154537200927734e-01 -6.764615178108215332e-01 4.631916582584381104e-01
-3.080697953701019287e-01 -6.133434772491455078e-01 -2.083548903465270996e-01
4.400952905416488647e-02 -6.133434772491455078e-01 -1.129176840186119080e-01
-1.145509481430053711e-01 -6.545130610466003418e-01 3.809392154216766357e-01
-3.635566234588623047e-01 -3.589110970497131348e-01 1.347848773002624512e-01
-3.361142873764038086e-01 -5.278230309486389160e-01 2.113990038633346558e-01
3.298862278461456299e-01 1.940156817436218262e-01 2.479732632637023926e-01
2.980142598971724510e-03 2.351861894130706787e-01 -1.512931380420923233e-02
2.976416349411010742e-01 -7.150016427040100098e-01 4.220230281352996826e-01
1.665240824222564697e-01 5.430231094360351562e-01 -3.556064367294311523e-01
2.972741238772869110e-02 -2.185982167720794678e-01 -3.830487728118896484e-01
-1.226407587528228760e-01 -5.721757411956787109e-01 3.635558858513832092e-02
1.696407794952392578e-02 5.736793875694274902e-01 -3.373369872570037842e-01
-1.306830346584320068e-01 5.736793875694274902e-01 2.440788745880126953e-01
2.694358825683593750e-01 3.085379004478454590e-01 3.808553218841552734e-01
3.729023337364196777e-01 9.607855230569839478e-02 8.317247964441776276e-03
3.317336738109588623e-01 -7.255364060401916504e-01 -1.284606754779815674e-01
-1.530406922101974487e-01 4.095156192779541016e-01 -3.830487728118896484e-01
-7.437957078218460083e-02 1.417936105281114578e-02 -3.418838381767272949e-01
-1.364798396825790405e-01 3.097403347492218018e-01 -3.830487728118896484e-01
-2.750021517276763916e-01 -2.825928665697574615e-02 -3.830487728118896484e-01
2.413820773363113403e-01 4.702315926551818848e-01 -3.418838381767272949e-01
1.800154745578765869e-01 -6.133434772491455078e-01 3.095057904720306396e-01
3.729023337364196777e-01 -2.599989473819732666e-01 3.383994102478027344e-01
2.930528223514556885e-01 -2.453554719686508179e-01 4.220230281352996826e-01
2.156445831060409546e-01 2.306076735258102417e-01 -3.556064367294311523e-01
-9.627406299114227295e-02 5.325135588645935059e-01 -2.249222695827484131e-01
-3.772791922092437744e-01 -5.895559191703796387e-01 7.511080801486968994e-02
1.680853664875030518e-01 1.940156817436218262e-01 -6.872050464153289795e-02
-4.184496998786926270e-01 6.050497293472290039e-01 1.253416389226913452e-01
3.704023957252502441e-01 -6.133434772491455078e-01 -2.976904809474945068e-01
2.190822213888168335e-01 -4.214037060737609863e-01 -3.418838381767272949e-01
3.729023337364196777e-01 4.798617213964462280e-02 1.874763071537017822e-01
-3.772791922092437744e-01 -3.364425003528594971e-01 -3.616259992122650146e-01
3.797636032104492188e-01 5.687853693962097168e-02 -3.183274865150451660e-01
-3.858667314052581787e-01 -5.927596688270568848e-01 2.206651270389556885e-01
-3.525511622428894043e-01 -4.713439568877220154e-02 -3.830487728118896484e-01
-3.772791922092437744e-01 2.379965484142303467e-01 4.152642786502838135e-01
-2.228391915559768677e-01 5.325135588645935059e-01 -1.277774274349212646e-01
2.485481500625610352e-01 -5.721757411956787109e-01 -2.706340253353118896e-01
-2.550350618548691273e-04 -6.133434772491455078e-01 3.032401204109191895e-01
-3.483920693397521973e-01 6.239995360374450684e-01 -2.329779416322708130e-02
-3.134853541851043701e-01 6.053563356399536133e-01 -4.242202043533325195e-01
8.590745925903320312e-02 -4.414711296558380127e-01 -3.830487728118896484e-01
3.901787847280502319e-02 5.325135588645935059e-01 3.460958898067474365e-01
3.797636032104492188e-01 -2.988419830799102783e-01 1.786370873451232910e-01
3.729023337364196777e-01 1.887790709733963013e-01 -1.148164048790931702e-01
2.581554651260375977e-01 2.608248889446258545e-01 -3.418838381767272949e-01
-4.013603329658508301e-01 5.817496180534362793e-01 -3.138658031821250916e-02
1.909650117158889771e-01 -6.133434772491455078e-01 1.895763576030731201e-01
-9.026575833559036255e-02 -3.659522533416748047e-01 -3.830487728118896484e-01
-2.136187255382537842e-01 5.196960568428039551e-01 4.220230281352996826e-01
-8.963537961244583130e-02 -5.721757411956787109e-01 -2.738675177097320557e-01
-2.358142286539077759e-01 -6.215740442276000977e-01 -3.830487728118896484e-01
2.163554914295673370e-02 4.448143020272254944e-02 -3.830487728118896484e-01
-3.749889731407165527e-01 -4.549420773983001709e-01 4.220230281352996826e-01
-4.206768050789833069e-02 5.736793875694274902e-01 2.272467911243438721e-01
2.793097794055938721e-01 2.351861894130706787e-01 -2.237767130136489868e-01
1.240178421139717102e-01 6.239995360374450684e-01 -3.025943338871002197e-01
-5.711626261472702026e-03 6.239995360374450684e-01 -3.361830413341522217e-01
-2.690611034631729126e-02 2.351861894130706787e-01 3.852399885654449463e-01
9.676750749349594116e-02 5.736793875694274902e-01 -9.525135159492492676e-02
3.797636032104492188e-01 3.501101434230804443e-01 -2.826899886131286621e-01
3.227406442165374756e-01 1.940156817436218262e-01 3.674879074096679688e-01
3.253235220909118652e-01 6.239995360374450684e-01 -7.911775261163711548e-03
3.130121827125549316e-01 5.736793875694274902e-01 1.031323596835136414e-01
3.797636032104492188e-01 -2.417276799678802490e-01 6.089216470718383789e-02
1.692754216492176056e-02 2.214729487895965576e-01 4.220230281352996826e-01
-3.938524052500724792e-02 -5.281492471694946289e-01 -3.418838381767272949e-01
3.729023337364196777e-01 -6.063386797904968262e-01 -5.379094555974006653e-02
3.797636032104492188e-01 4.003753364086151123e-01 2.382606118917465210e-01
1.798076182603836060e-01 4.814905822277069092e-01 -3.830487728118896484e-01
-1.227386221289634705e-01 5.603809356689453125e-01 -3.556064367294311523e-01
-2.402566671371459961e-01 -5.015840530395507812e-01 -3.418838381767272949e-01
7.072557508945465088e-02 5.906680822372436523e-01 -4.160493016242980957e-01
1.928143203258514404e-01 1.940156817436218262e-01 -2.516776323318481445e-01
-3.346676230430603027e-01 5.736793875694274902e-01 3.593375086784362793e-01
6.120030581951141357e-02 -5.721757411956787109e-01 -2.706890404224395752e-01
1.262670308351516724e-01 -4.852375984191894531e-01 4.220230281352996826e-01
-1.053690686821937561e-01 1.940156817436218262e-01 -1.183015778660774231e-01
3.098194114863872528e-02 2.351861894130706787e-01 -2.219945192337036133e-01
3.689473569393157959e-01 5.325135588645935059e-01 4.311042651534080505e-02
-1.931448727846145630e-01 5.736793875694274902e-01 -3.418017923831939697e-01
1.744088232517242432e-01 2.351861894130706787e-01 3.516988158226013184e-01
2.796677052974700928e-01 4.517850875854492188e-01 3.808553218841552734e-01
3.729023337364196777e-01 -5.188775658607482910e-01 -2.063051760196685791e-01
-3.557576239109039307e-01 -6.133434772491455078e-01 3.094246983528137207e-01
2.481035441160202026e-01 -5.721757411956787109e-01 -1.465436667203903198e-01
-3.502609431743621826e-01 5.325135588645935059e-01 -1.858229190111160278e-01
-2.758773863315582275e-01 5.325135588645935059e-01 3.596879541873931885e-01
3.729023337364196777e-01 1.323890239000320435e-01 3.545669317245483398e-01
-3.498359322547912598e-01 5.340175703167915344e-02 1.900051236152648926e-01
-1.323449909687042236e-01 -5.721757411956787109e-01 3.545585274696350098e-01
-1.152826473116874695e-01 2.006802856922149658e-01 -3.556064367294311523e-01
7.225871086120605469e-02 2.351861894130706787e-01 1.780834048986434937e-01
7.251066714525222778e-02 5.736793875694274902e-01 -5.173133686184883118e-03
3.729023337364196777e-01 -2.518784105777740479e-01 2.312436848878860474e-01
-2.827302813529968262e-01 1.940156817436218262e-01 -1.642211973667144775e-01
-3.418989777565002441e-01 -1.270381212234497070e-01 2.253285050392150879e-01
7.779435068368911743e-02 -5.990253090858459473e-01 3.945769369602203369e-01
-2.656315863132476807e-01 5.736793875694274902e-01 8.002146333456039429e-02
-1.476157903671264648e-01 1.369181722402572632e-01 3.808553218841552734e-01
-1.463229507207870483e-01 4.151306748390197754e-01 3.808553218841552734e-01
-6.631660461425781250e-02 6.239995360374450684e-01 -1.251395493745803833e-01
3.736042082309722900e-01 1.463609188795089722e-02 -3.670387864112854004e-01
-2.299409657716751099e-01 -6.133434772491455078e-01 2.325066924095153809e-01
-3.988557457923889160e-01 -8.054651021957397461e-01 4.383378028869628906e-01
-2.193624228239059448e-01 2.351861894130706787e-01 3.826352953910827637e-02
-3.512881398200988770e-01 -6.446792483329772949e-01 -3.830487728118896484e-01
-3.718720078468322754e-01 -1.807540357112884521e-01 4.220230281352996826e-01
1.898474097251892090e-01 5.325135588645935059e-01 2.439716756343841553e-01
3.803909122943878174e-01 -6.545130610466003418e-01 -3.706684410572052002e-01
8.329474925994873047e-02 2.351861894130706787e-01 3.749279975891113281e-01
6.047400459647178650e-02 6.239995360374450684e-01 1.964562982320785522e-01
-3.493605256080627441e-01 3.848887234926223755e-02 -1.541375964879989624e-01
-4.184496998786926270e-01 -6.195439100265502930e-01 -2.226460427045822144e-01
-3.260138928890228271e-01 -2.432852238416671753e-01 -3.418838381767272949e-01
-2.809378206729888916e-01 -6.545130610466003418e-01 -3.578649163246154785e-01
1.686406321823596954e-02 -5.999564528465270996e-01 4.498037397861480713e-01
3.797636032104492188e-01 3.404106199741363525e-01 2.344253845512866974e-02
5.005232244729995728e-02 5.016084313392639160e-01 -3.830487728118896484e-01
3.552844226360321045e-01 5.325135588645935059e-01 -1.159256100654602051e-01
-3.301123976707458496e-01 4.136709868907928467e-01 -3.830487728118896484e-01
-4.024276137351989746e-01 -6.842465400695800781e-01 1.583020985126495361e-01
3.729023337364196777e-01 -7.327061891555786133e-01 8.974246680736541748e-02
-5.127061530947685242e-02 6.176611781120300293e-01 -4.242202043533325195e-01
-1.832163520157337189e-02 5.736793875694274902e-01 -1.449628025293350220e-01
-1.159444600343704224e-01 5.325135588645935059e-01 3.598473668098449707e-01
3.703744113445281982e-01 -4.350852072238922119e-01 -3.830487728118896484e-01
3.729023337364196777e-01 1.475573033094406128e-01 -3.667740523815155029e-01
-3.369159102439880371e-01 1.871553510427474976e-01 -1.838300675153732300e-01
-3.114458918571472168e-01 5.736793875694274902e-01 -2.094249576330184937e-01
-7.518556714057922363e-02 2.351861894130706787e-01 2.640401124954223633e-01
3.835274875164031982e-01 -3.096516728401184082e-01 4.060130715370178223e-01
1.151170954108238220e-01 1.940156817436218262e-01 -2.788692414760589600e-01
-3.361142873764038086e-01 -4.156683683395385742e-01 4.522342979907989502e-02
5.806253477931022644e-02 5.736793875694274902e-01 4.182731211185455322e-01
-3.153209388256072998e-02 -1.856992691755294800e-01 -3.830487728118896484e-01
-8.070256561040878296e-02 5.736793875694274902e-01 1.210436671972274780e-01
2.579028606414794922e-01 -6.741722822189331055e-01 4.631916582584381104e-01
-2.053098827600479126e-01 -5.855870246887207031e-01 3.945769369602203369e-01
-1.312078088521957397e-01 5.736793875694274902e-01 4.256496671587228775e-03
3.687814176082611084e-01 3.343975543975830078e-01 -3.830487728118896484e-01
3.754581809043884277e-01 5.736793875694274902e-01 3.708845078945159912e-01
-3.918968513607978821e-02 5.478141903877258301e-01 4.220230281352996826e-01
3.729023337364196777e-01 1.893374323844909668e-01 -2.753738164901733398e-01
-3.787817656993865967e-01 5.736793875694274902e-01 4.355778098106384277e-01
-2.798314094543457031e-01 6.239995360374450684e-01 1.222050860524177551e-01
3.172011077404022217e-01 -1.752354651689529419e-01 4.220230281352996826e-01
3.729023337364196777e-01 -1.678601205348968506e-01 -2.277689427137374878e-01
2.039167284965515137e-01 3.089228570461273193e-01 3.808553218841552734e-01
3.515212610363960266e-02 -5.693775415420532227e-01 -3.418838381767272949e-01
-2.009764909744262695e-01 5.736793875694274902e-01 -2.613557875156402588e-01
-4.381873644888401031e-03 -6.133434772491455078e-01 5.161315947771072388e-02
-2.065066993236541748e-01 -6.133434772491455078e-01 2.780879735946655273e-01
-3.100943267345428467e-01 -6.133434772491455078e-01 -8.312082290649414062e-02
-1.010940223932266235e-01 -5.721757411956787109e-01 1.995928436517715454e-01
-3.361142873764038086e-01 -2.267616540193557739e-01 -5.739999562501907349e-02
-3.396516442298889160e-01 2.351861894130706787e-01 2.534158527851104736e-01
1.548847705125808716e-01 5.736793875694274902e-01 -1.235204711556434631e-01
2.386423200368881226e-02 -5.014023184776306152e-01 3.808553218841552734e-01
3.347835540771484375e-01 -5.721757411956787109e-01 -2.617295384407043457e-01
-3.298458158969879150e-01 1.764192730188369751e-01 3.808553218841552734e-01
-1.909413635730743408e-01 1.343809664249420166e-01 -3.418838381767272949e-01
-3.635566234588623047e-01 -8.286105841398239136e-02 -1.357684433460235596e-01
-1.321240663528442383e-01 6.239995360374450684e-01 5.506253987550735474e-02
2.860042154788970947e-01 -5.992116928100585938e-01 3.945769369602203369e-01
-2.842113971710205078e-01 5.736793875694274902e-01 2.303051576018333435e-02
-1.106416583061218262e-01 6.239995360374450684e-01 -1.928029581904411316e-02
-8.715520054101943970e-02 -5.721757411956787109e-01 3.829078078269958496e-01
3.729023337364196777e-01 -6.382383704185485840e-01 8.315970003604888916e-02
-3.494537472724914551e-01 2.351861894130706787e-01 -2.849223911762237549e-01
1.274964958429336548e-01 5.736793875694274902e-01 9.332484751939773560e-02
1.933950334787368774e-01 5.736793875694274902e-01 -3.372307121753692627e-01
-4.322387278079986572e-02 5.325135588645935059e-01 3.165736421942710876e-02
-3.498359322547912598e-01 -8.936319500207901001e-02 -2.206233590841293335e-01
-2.741529941558837891e-01 6.239995360374450684e-01 -3.645612299442291260e-01
3.729023337364196777e-01 2.493002712726593018e-01 2.798393964767456055e-01
3.729023337364196777e-01 -6.535138487815856934e-01 -3.323626890778541565e-02
-2.373475432395935059e-01 5.325135588645935059e-01 3.725973516702651978e-02
-3.361142873764038086e-01 -3.294777572154998779e-01 -1.535140126943588257e-01
-3.772791922092437744e-01 -4.703768789768218994e-01 -2.176583111286163330e-01
2.141392081975936890e-01 2.351861894130706787e-01 -1.988408118486404419e-01
3.127661049365997314e-01 5.325135588645935059e-01 3.053174167871475220e-02
3.797636032104492188e-01 -6.141451001167297363e-01 3.347688615322113037e-01
-2.507733367383480072e-02 5.736793875694274902e-01 3.626203835010528564e-01
-3.361142873764038086e-01 -5.583171248435974121e-01 -7.928331196308135986e-02
-3.974883258342742920e-01 5.778785943984985352e-01 -3.860194087028503418e-01
2.380413860082626343e-01 5.325135588645935059e-01 1.739457547664642334e-01
-2.054879218339920044e-01 -2.001460939645767212e-01 4.220230281352996826e-01
-2.991587817668914795e-01 -6.076053977012634277e-01 4.220230281352996826e-01
3.621587753295898438e-01 -8.054651021957397461e-01 1.217856332659721375e-01
-2.635408639907836914e-01 5.736793875694274902e-01 -3.284278512001037598e-01
-1.118291765451431274e-01 5.736793875694274902e-01 6.959073990583419800e-02
3.061779141426086426e-01 5.736793875694274902e-01 1.843127310276031494e-01
-2.863273024559020996e-01 -1.549763530492782593e-01 -3.830487728118896484e-01
-3.231476545333862305e-01 2.351861894130706787e-01 7.885586470365524292e-03
-4.184496998786926270e-01 -7.429165840148925781e-01 -3.489352762699127197e-01
2.644034028053283691e-01 -3.738361001014709473e-01 -3.830487728118896484e-01
3.900398686528205872e-02 2.351861894130706787e-01 -1.314527541399002075e-01
-2.901415228843688965e-01 -6.133434772491455078e-01 -2.726781666278839111e-01
3.729023337364196777e-01 -1.043117120862007141e-01 -3.205160796642303467e-01
3.273079991340637207e-01 -4.450868070125579834e-01 -3.418838381767272949e-01
-3.613941371440887451e-01 6.239995360374450684e-01 2.748423516750335693e-01
1.507415324449539185e-01 5.933050513267517090e-01 4.576586484909057617e-01
3.797636032104492188e-01 -6.522340774536132812e-01 2.596554458141326904e-01
2.258512228727340698e-01 -6.166627407073974609e-01 4.631916582584381104e-01
-8.357626199722290039e-02 5.736793875694274902e-01 -1.889930367469787598e-01
-1.140727698802947998e-01 1.940156817436218262e-01 8.477821201086044312e-02
-1.625501215457916260e-01 -6.133434772491455078e-01 1.628070026636123657e-01
-3.426977992057800293e-01 3.848887234926223755e-02 5.611638724803924561e-02
-1.272407323122024536e-01 -4.141378402709960938e-01 -3.830487728118896484e-01
-3.856348991394042969e-02 -5.880109593272209167e-02 -3.830487728118896484e-01
3.797636032104492188e-01 -1.686152219772338867e-01 1.771580986678600311e-02
-7.105677574872970581e-02 -4.250417053699493408e-01 4.220230281352996826e-01
-3.635566234588623047e-01 -3.742573857307434082e-01 4.407964181154966354e-03
3.729023337364196777e-01 -7.606555819511413574e-01 2.654690146446228027e-01
3.797636032104492188e-01 4.782627224922180176e-01 3.274234384298324585e-02
-3.772791922092437744e-01 5.454288721084594727e-01 2.716246843338012695e-01
1.889218240976333618e-01 5.736793875694274902e-01 -1.981603801250457764e-01
-3.361142873764038086e-01 -4.392704069614410400e-01 -3.029708862304687500e-01
-3.772791922092437744e-01 -1.840074956417083740e-01 3.039596974849700928e-01
2.450450323522090912e-02 4.498611986637115479e-01 3.808553218841552734e-01
-3.935222029685974121e-01 6.239995360374450684e-01 -3.757391273975372314e-01
2.785976231098175049e-01 6.239995360374450684e-01 -1.403954476118087769e-01
2.236700505018234253e-01 2.351861894130706787e-01 -2.961322199553251266e-03
-2.099331617355346680e-01 1.940156817436218262e-01 -1.943853199481964111e-01
2.957606315612792969e-01 1.515714544802904129e-02 -3.418838381767272949e-01
8.969277143478393555e-02 5.328640341758728027e-01 -3.556064367294311523e-01
3.436125218868255615e-01 5.736793875694274902e-01 -6.536275893449783325e-02
1.964840590953826904e-01 -5.436139702796936035e-01 -3.830487728118896484e-01
-2.547211945056915283e-01 -5.263754725456237793e-01 4.220230281352996826e-01
3.797636032104492188e-01 -4.151011630892753601e-02 2.181053161621093750e-03
2.855549156665802002e-01 -5.721757411956787109e-01 2.427468895912170410e-01
-2.296137958765029907e-01 1.940156817436218262e-01 -2.502412497997283936e-01
-3.129186332225799561e-01 2.220872044563293457e-01 -3.556064367294311523e-01
3.729023337364196777e-01 -5.328900218009948730e-01 8.252333849668502808e-02
-1.570441275835037231e-01 -5.721757411956787109e-01 8.610116690397262573e-02
-3.361142873764038086e-01 -2.069104462862014771e-01 1.724450439214706421e-01
2.334199696779251099e-01 -4.780062437057495117e-01 4.220230281352996826e-01
-3.000974357128143311e-01 5.736793875694274902e-01 -9.395384043455123901e-02
3.797636032104492188e-01 4.668126404285430908e-01 -8.880111575126647949e-02
6.243516877293586731e-02 2.351861894130706787e-01 6.792858988046646118e-02
-2.480845451354980469e-01 5.096758604049682617e-01 -3.418838381767272949e-01
3.729023337364196777e-01 -5.753235220909118652e-01 1.668421179056167603e-01
-3.772791922092437744e-01 8.831218630075454712e-02 -3.396648541092872620e-02
2.720346152782440186e-01 6.239995360374450684e-01 4.130775332450866699e-01
-1.987095773220062256e-01 -5.721757411956787109e-01 6.700225174427032471e-02
-2.665935456752777100e-01 -9.745590388774871826e-02 4.220230281352996826e-01
-1.165670976042747498e-01 2.351861894130706787e-01 8.286690717795863748e-05
3.797636032104492188e-01 4.734790921211242676e-01 -2.650730311870574951e-01
-2.551593184471130371e-01 2.351861894130706787e-01 -5.443811416625976562e-02
2.464916557073593140e-02 6.239995360374450684e-01 2.846351563930511475e-01
3.843374848365783691e-01 6.141899824142456055e-01 1.237999275326728821e-01
-2.155798971652984619e-01 1.940156817436218262e-01 -6.810821592807769775e-02
-4.522316157817840576e-02 2.312950789928436279e-02 3.808553218841552734e-01
3.729023337364196777e-01 -7.298678755760192871e-01 4.051564335823059082e-01
-1.789478510618209839e-01 5.273589491844177246e-01 -3.418838381767272949e-01
6.462656706571578979e-02 2.351861894130706787e-01 -2.959343791007995605e-01
-1.263589560985565186e-01 5.736793875694274902e-01 1.871388852596282959e-01
3.729023337364196777e-01 -3.096554279327392578e-01 -2.027034908533096313e-01
-7.602129131555557251e-02 1.415852606296539307e-01 4.220230281352996826e-01
2.857413291931152344e-01 -2.447076290845870972e-01 -3.830487728118896484e-01
-1.629546582698822021e-01 1.940156817436218262e-01 1.289125680923461914e-01
3.385474085807800293e-01 -8.054651021957397461e-01 -1.565474644303321838e-02
1.490954160690307617e-01 -4.554882645606994629e-01 -3.418838381767272949e-01
-3.623234331607818604e-01 -6.133434772491455078e-01 -2.442757487297058105e-01
-2.370050922036170959e-02 -6.133434772491455078e-01 -2.823749482631683350e-01
3.155111968517303467e-01 6.239995360374450684e-01 1.010593399405479431e-01
3.275923132896423340e-01 -3.252953290939331055e-01 -3.418838381767272949e-01
3.797636032104492188e-01 4.127248823642730713e-01 4.014568924903869629e-01
3.450731337070465088e-01 5.736793875694274902e-01 3.388039767742156982e-01
1.474865823984146118e-01 5.736793875694274902e-01 3.870081901550292969e-01
-4.514700919389724731e-02 5.107486844062805176e-01 3.808553218841552734e-01
-8.387677371501922607e-02 -6.545130610466003418e-01 -3.747650682926177979e-01
3.317336738109588623e-01 -6.820859313011169434e-01 -2.619970738887786865e-01
1.299908310174942017e-01 -6.133434772491455078e-01 3.255688846111297607e-01
3.985929861664772034e-02 3.331131041049957275e-01 4.220230281352996826e-01
3.797636032104492188e-01 5.723306536674499512e-01 -2.846533991396427155e-02
2.802036404609680176e-01 2.828460931777954102e-01 -3.830487728118896484e-01
-1.807692050933837891e-01 -2.865110337734222412e-01 3.808553218841552734e-01
3.729023337364196777e-01 -7.505580186843872070e-01 1.451639533042907715e-01
2.817257940769195557e-01 -6.545130610466003418e-01 -3.559671342372894287e-01
3.181593120098114014e-01 5.325135588645935059e-01 -2.249213606119155884e-01
9.884612262248992920e-02 -6.258058547973632812e-01 -3.830487728118896484e-01
-3.651030063629150391e-01 -5.721757411956787109e-01 3.464174866676330566e-01
1.797908395528793335e-01 1.940156817436218262e-01 2.526468932628631592e-01
1.367328017950057983e-01 1.940156817436218262e-01 -1.678527146577835083e-01
-1.830444782972335815e-01 2.351861894130706787e-01 -3.389001190662384033e-01
3.227574229240417480e-01 5.736793875694274902e-01 4.223772287368774414e-01
-3.772791922092437744e-01 -1.670048981904983521e-01 -3.007133305072784424e-01
-1.637404263019561768e-01 2.751697413623332977e-02 3.808553218841552734e-01
5.041352286934852600e-02 -6.422976851463317871e-01 -3.418838381767272949e-01
-3.772791922092437744e-01 -5.609624385833740234e-01 -1.346545666456222534e-01
1.407753825187683105e-01 -6.842465400695800781e-01 4.308417439460754395e-01
3.120120167732238770e-01 2.980068922042846680e-01 4.220230281352996826e-01
2.316992878913879395e-01 6.239995360374450684e-01 7.570922374725341797e-02
-3.333132863044738770e-01 5.325135588645935059e-01 -2.457839101552963257e-01
-3.772791922092437744e-01 -6.453429460525512695e-01 -1.047784686088562012e-01
2.800412289798259735e-02 2.351861894130706787e-01 3.459066748619079590e-01
-2.726531922817230225e-01 -5.721757411956787109e-01 1.440165340900421143e-01
2.830941379070281982e-01 2.351861894130706787e-01 -6.925684958696365356e-02
2.602014541625976562e-01 5.736793875694274902e-01 1.166086718440055847e-01
4.762874171137809753e-02 -6.133434772491455078e-01 6.601413711905479431e-03
1.795382350683212280e-01 -6.079465746879577637e-01 -3.830487728118896484e-01
3.797636032104492188e-01 2.650660574436187744e-01 -1.201182603836059570e-01
-1.235010921955108643e-01 6.239995360374450684e-01 -3.316538929939270020e-01
3.843374848365783691e-01 6.101641654968261719e-01 -1.825847476720809937e-01
7.854843139648437500e-02 -9.216159582138061523e-02 -3.830487728118896484e-01
3.729023337364196777e-01 3.011331856250762939e-01 1.995583623647689819e-01
-3.628053367137908936e-01 2.804086208343505859e-01 -3.418838381767272949e-01
-3.559897243976593018e-01 -6.550597399473190308e-02 3.808553218841552734e-01
4.969560354948043823e-02 -5.721757411956787109e-01 -2.048995494842529297e-01
-1.285634040832519531e-01 -6.493109464645385742e-01 -3.418838381767272949e-01
3.812326192855834961e-01 5.720519423484802246e-01 -3.830487728118896484e-01
-3.568090498447418213e-01 -5.721757411956787109e-01 -1.873310804367065430e-01
-3.101605176925659180e-01 9.305104613304138184e-02 4.220230281352996826e-01
-1.967223137617111206e-01 -3.697711229324340820e-01 4.220230281352996826e-01
2.549899816513061523e-01 -5.721757411956787109e-01 3.665277957916259766e-01
-6.603296101093292236e-02 3.520452380180358887e-01 3.808553218841552734e-01
1.529152095317840576e-01 -5.721757411956787109e-01 6.514884531497955322e-02
3.515737056732177734e-01 -6.133434772491455078e-01 -1.877682358026504517e-01
-2.011209577322006226e-01 -6.842465400695800781e-01 4.309964776039123535e-01
9.340910613536834717e-02 3.398531973361968994e-01 3.808553218841552734e-01
1.998452544212341309e-01 -6.545130610466003418e-01 -3.583813011646270752e-01
-3.719344437122344971e-01 4.079934954643249512e-01 -3.418838381767272949e-01
1.382596045732498169e-01 -2.932269275188446045e-01 -3.830487728118896484e-01
-3.361142873764038086e-01 8.174452185630798340e-02 -2.765846252441406250e-01
-3.772791922092437744e-01 -8.883491903543472290e-02 -3.478838503360748291e-01
-1.592038273811340332e-01 5.736793875694274902e-01 -3.971637487411499023e-01
3.797636032104492188e-01 -6.018575280904769897e-02 -3.552708625793457031e-01
4.494005814194679260e-02 1.235619187355041504e-01 3.808553218841552734e-01
3.729023337364196777e-01 -4.344029426574707031e-01 -2.497742623090744019e-01
-8.657430857419967651e-02 -6.133434772491455078e-01 9.736510366201400757e-02
6.084656342864036560e-02 5.325135588645935059e-01 1.540087759494781494e-01
-1.705979853868484497e-01 5.736793875694274902e-01 1.411819756031036377e-01
-3.996303379535675049e-01 -5.945278406143188477e-01 2.780833244323730469e-01
-1.839309334754943848e-01 -3.134602904319763184e-01 -3.418838381767272949e-01
-2.440280169248580933e-01 -2.138919681310653687e-01 -3.830487728118896484e-01
2.204104810953140259e-01 2.351861894130706787e-01 8.251485973596572876e-02
-3.772791922092437744e-01 1.281833350658416748e-01 2.815461158752441406e-01
-3.772791922092437744e-01 -3.649950027465820312e-01 -2.306873798370361328e-01
2.016535550355911255e-01 4.344771057367324829e-02 -3.418838381767272949e-01
3.729023337364196777e-01 -2.832803130149841309e-01 2.856986522674560547e-01
-2.502368092536926270e-01 5.736793875694274902e-01 -1.529519557952880859e-01
-3.164168596267700195e-01 -6.133434772491455078e-01 -1.518651098012924194e-01
2.409831434488296509e-01 6.239995360374450684e-01 2.678076922893524170e-01
2.952945828437805176e-01 2.351861894130706787e-01 2.530626058578491211e-01
1.028523445129394531e-01 -5.721757411956787109e-01 3.440881073474884033e-01
-3.772791922092437744e-01 1.563471406698226929e-01 1.377163678407669067e-01
6.637477781623601913e-04 1.940156817436218262e-01 -2.165789157152175903e-01
-8.681992441415786743e-02 -2.250894457101821899e-01 4.220230281352996826e-01
-3.635566234588623047e-01 -2.355514913797378540e-01 -1.238569542765617371e-01
-3.560111522674560547e-01 5.736793875694274902e-01 8.937139064073562622e-02
-1.499050706624984741e-01 -4.751782417297363281e-01 4.220230281352996826e-01
4.638949036598205566e-02 -6.133434772491455078e-01 2.255335599184036255e-01
-2.075068652629852295e-01 5.325135588645935059e-01 -2.274296432733535767e-01
-3.361142873764038086e-01 -7.228206843137741089e-02 5.697710067033767700e-02
-3.516743332147598267e-02 -5.372737050056457520e-01 3.808553218841552734e-01
1.543236523866653442e-01 -5.721757411956787109e-01 -1.192989274859428406e-01
-2.468989044427871704e-01 1.395346075296401978e-01 3.808553218841552734e-01
1.354902982711791992e-01 -1.723618507385253906e-01 3.808553218841552734e-01
1.857330650091171265e-01 -3.714452087879180908e-01 3.808553218841552734e-01
3.498138487339019775e-01 3.451065719127655029e-01 4.220230281352996826e-01
3.317336738109588623e-01 -6.948195099830627441e-01 9.961578249931335449e-02
-2.789729535579681396e-01 5.736793875694274902e-01 2.154443562030792236e-01
-9.892482310533523560e-02 -1.144514307379722595e-01 -3.830487728118896484e-01
-2.531161308288574219e-01 -6.133434772491455078e-01 -2.212143391370773315e-01
3.797636032104492188e-01 4.406575262546539307e-01 3.375428318977355957e-01
3.797636032104492188e-01 -1.031521633267402649e-01 -1.141266375780105591e-01
-3.492048680782318115e-01 -6.133434772491455078e-01 3.204176574945449829e-02
1.766086071729660034e-01 6.239995360374450684e-01 2.506810426712036133e-01
7.009435445070266724e-02 5.736793875694274902e-01 -2.770609557628631592e-01
-1.530751883983612061e-01 1.940156817436218262e-01 -4.307816922664642334e-02
3.729023337364196777e-01 -4.185905754566192627e-01 5.820525065064430237e-02
2.136470526456832886e-01 1.694321483373641968e-01 4.220230281352996826e-01
-3.548870384693145752e-01 1.871553510427474976e-01 3.280334174633026123e-01
3.803673386573791504e-02 5.736793875694274902e-01 2.495373338460922241e-01
-3.361142873764038086e-01 5.536944791674613953e-02 1.355520039796829224e-01
2.696064710617065430e-01 1.285915970802307129e-01 4.220230281352996826e-01
3.032659888267517090e-01 -1.170491352677345276e-01 -3.830487728118896484e-01
-2.773858234286308289e-02 5.264393985271453857e-02 -3.418838381767272949e-01
2.784652411937713623e-01 4.477723240852355957e-01 -3.830487728118896484e-01
2.757416367530822754e-01 -6.133434772491455078e-01 -1.696078777313232422e-01
-2.046593464910984039e-02 1.308305412530899048e-01 -3.418838381767272949e-01
3.729023337364196777e-01 -2.680673003196716309e-01 1.189426928758621216e-01
3.068695664405822754e-01 6.239995360374450684e-01 -2.230282127857208252e-01
-1.085200831294059753e-01 5.736793875694274902e-01 -4.594535380601882935e-02
-3.092544972896575928e-01 5.736793875694274902e-01 -1.491395980119705200e-01
1.748307980597019196e-02 -5.386840105056762695e-01 4.220230281352996826e-01
1.960972398519515991e-01 -5.840098857879638672e-01 -3.556064367294311523e-01
-3.419446349143981934e-01 6.239995360374450684e-01 3.333911597728729248e-01
3.638831973075866699e-01 2.351861894130706787e-01 3.454359471797943115e-01
-8.715892210602760315e-03 -4.568622112274169922e-01 -3.830487728118896484e-01
4.230413958430290222e-02 -3.849254250526428223e-01 4.220230281352996826e-01
-1.536254957318305969e-02 2.351861894130706787e-01 -6.778831034898757935e-02
-3.361142873764038086e-01 -3.336172401905059814e-01 -2.411410361528396606e-01
3.172420859336853027e-01 1.940156817436218262e-01 -3.528091609477996826e-01
-3.361142873764038086e-01 -2.727968692779541016e-01 2.769200503826141357e-01
1.591557115316390991e-01 6.239995360374450684e-01 -2.061560302972793579e-01
-3.350292742252349854e-01 -5.721757411956787109e-01 1.133229658007621765e-01
-3.390896022319793701e-01 2.259820513427257538e-02 -3.830487728118896484e-01
-2.463051527738571167e-01 1.940156817436218262e-01 1.677779555320739746e-01
8.273081481456756592e-02 -5.075583979487419128e-02 -3.418838381767272949e-01
-3.361142873764038086e-01 1.623653247952461243e-02 2.903974652290344238e-01
-1.015746127814054489e-02 5.736793875694274902e-01 9.378634393215179443e-02
-3.772791922092437744e-01 -3.458363413810729980e-01 4.138745069503784180e-01
-1.213376671075820923e-01 -3.454867601394653320e-01 -3.418838381767272949e-01
-1.245842128992080688e-01 1.940156817436218262e-01 3.359563648700714111e-01
-3.109621405601501465e-01 5.736793875694274902e-01 4.091552197933197021e-01
1.410689949989318848e-01 -3.110246956348419189e-01 3.808553218841552734e-01
2.494236687198281288e-04 5.325135588645935059e-01 -3.344110846519470215e-01
1.243366375565528870e-01 1.940156817436218262e-01 2.617414891719818115e-01
-2.857550084590911865e-01 1.858326792716979980e-01 -3.830487728118896484e-01
3.729023337364196777e-01 -7.771372199058532715e-01 -5.264528468251228333e-02
-2.151511311531066895e-01 1.940156817436218262e-01 -3.326354026794433594e-01
1.068045124411582947e-01 5.736793875694274902e-01 2.998276352882385254e-01
3.223472833633422852e-01 2.351861894130706787e-01 1.989459693431854248e-01
-2.213580757379531860e-01 6.239995360374450684e-01 -1.593080312013626099e-01
4.658962041139602661e-02 4.417798221111297607e-01 -3.830487728118896484e-01
3.660652637481689453e-01 6.239995360374450684e-01 3.773962557315826416e-01
-9.991410188376903534e-04 1.940156817436218262e-01 1.301149874925613403e-01
-3.020502030849456787e-01 6.239995360374450684e-01 1.878351718187332153e-01
7.382568717002868652e-02 4.251284897327423096e-01 3.808553218841552734e-01
9.095486253499984741e-02 5.362653136253356934e-01 3.945769369602203369e-01
-3.361142873764038086e-01 -3.210924565792083740e-01 7.488802820444107056e-02
9.199108928442001343e-03 5.736793875694274902e-01 -1.781250466592609882e-04
4.034270532429218292e-03 5.736793875694274902e-01 -2.837143838405609131e-01
-2.551863491535186768e-01 -5.721757411956787109e-01 -3.416023552417755127e-01
-8.489137887954711914e-02 5.325135588645935059e-01 -3.550024032592773438e-01
-2.579807937145233154e-01 3.003856539726257324e-01 -3.830487728118896484e-01
3.729023337364196777e-01 3.109535761177539825e-02 -1.863849759101867676e-01
-2.808259725570678711e-01 -2.675313651561737061e-01 3.808553218841552734e-01
-3.772791922092437744e-01 -2.987650595605373383e-02 -2.907686233520507812e-01
3.942166641354560852e-02 -3.194892108440399170e-01 -3.830487728118896484e-01
1.972987204790115356e-01 1.940156817436218262e-01 -1.666549444198608398e-01
-3.737613856792449951e-01 -4.280859827995300293e-01 -1.445405483245849609e-01
2.455849796533584595e-01 1.940156817436218262e-01 -3.165508806705474854e-01
-7.314778119325637817e-02 6.239995360374450684e-01 2.549659609794616699e-01
-3.700869977474212646e-01 -6.064467430114746094e-01 4.220230281352996826e-01
3.797636032104492188e-01 -6.468017101287841797e-01 1.893060505390167236e-01
-2.882539927959442139e-01 2.351861894130706787e-01 3.774400353431701660e-01
-8.539575338363647461e-02 5.736793875694274902e-01 -3.198253810405731201e-01
2.022985816001892090e-01 5.736793875694274902e-01 -1.422988176345825195e-01
-4.069641828536987305e-01 -6.573373675346374512e-01 -4.127346873283386230e-01
3.343351781368255615e-01 3.451727330684661865e-01 -3.418838381767272949e-01
3.729023337364196777e-01 2.755271196365356445e-01 1.010450869798660278e-01
-3.772791922092437744e-01 -4.066110253334045410e-01 3.516783118247985840e-01
-1.333945542573928833e-01 -1.119311824440956116e-01 4.220230281352996826e-01
2.444972097873687744e-01 5.325135588645935059e-01 -3.487535119056701660e-01
3.947964683175086975e-02 1.322487741708755493e-02 -3.418838381767272949e-01
-3.361142873764038086e-01 -1.027090568095445633e-02 1.913007795810699463e-01
-2.170852571725845337e-01 4.229846596717834473e-01 -3.418838381767272949e-01
3.797636032104492188e-01 5.024575591087341309e-01 1.273950934410095215e-01
2.912305593490600586e-01 -7.700428962707519531e-01 -4.242202043533325195e-01
3.317336738109588623e-01 -7.553724050521850586e-01 -3.499363660812377930e-01
2.469551861286163330e-01 -5.130257606506347656e-01 -3.418838381767272949e-01
3.184669017791748047e-01 5.736793875694274902e-01 2.323212176561355591e-01
-3.523805737495422363e-01 5.140166878700256348e-01 -3.830487728118896484e-01
-1.620971113443374634e-01 2.351861894130706787e-01 4.861548542976379395e-02
-1.050429269671440125e-01 -4.399359524250030518e-01 3.808553218841552734e-01
-3.173974454402923584e-01 -2.942019104957580566e-01 4.220230281352996826e-01
-1.502518057823181152e-01 6.239995360374450684e-01 -1.935575902462005615e-01
3.011202812194824219e-01 5.718441009521484375e-01 -3.830487728118896484e-01
1.992710679769515991e-01 -2.093721479177474976e-01 -3.418838381767272949e-01
3.228002786636352539e-01 -3.767340183258056641e-01 3.808553218841552734e-01
1.047007292509078979e-01 -5.721757411956787109e-01 -3.104735016822814941e-01
2.166959941387176514e-01 -2.766073346138000488e-01 3.808553218841552734e-01
3.797636032104492188e-01 -3.724444210529327393e-01 -1.584411710500717163e-01
2.970087230205535889e-01 8.793654292821884155e-02 -3.418838381767272949e-01
3.113548755645751953e-01 -1.968575865030288696e-01 -3.830487728118896484e-01
3.317336738109588623e-01 -6.522265672683715820e-01 1.514100581407546997e-01
3.729023337364196777e-01 -7.784039974212646484e-01 -2.631612718105316162e-01
7.953274250030517578e-02 5.325135588645935059e-01 -2.015896141529083252e-01
7.093186024576425552e-03 -6.133434772491455078e-01 -3.527131378650665283e-01
-2.983517711982131004e-03 -4.387857317924499512e-01 3.808553218841552734e-01
-3.122847974300384521e-01 5.143112540245056152e-01 -3.418838381767272949e-01
1.698134988546371460e-01 1.940156817436218262e-01 -3.237561285495758057e-01
3.317336738109588623e-01 -6.411941051483154297e-01 -2.982581555843353271e-01
-4.075265303254127502e-02 3.774406611919403076e-01 4.220230281352996826e-01
1.146072298288345337e-01 1.940156817436218262e-01 1.230104267597198486e-01
-3.361142873764038086e-01 -4.894535243511199951e-01 7.322961837053298950e-02
3.491874933242797852e-01 5.736793875694274902e-01 1.571350842714309692e-01
-3.507829308509826660e-01 -5.653154253959655762e-01 1.637558937072753906e-01
1.811041980981826782e-01 5.325135588645935059e-01 1.108069121837615967e-01
-3.775404393672943115e-02 1.940156817436218262e-01 1.336215250194072723e-02
3.843374848365783691e-01 -7.893823981285095215e-01 4.328430294990539551e-01
-1.561781764030456543e-01 -3.193699121475219727e-01 4.220230281352996826e-01
-3.744772672653198242e-01 1.407127976417541504e-01 -3.830487728118896484e-01
3.295888602733612061e-01 2.351861894130706787e-01 -2.845359221100807190e-02
7.650523632764816284e-02 2.845322787761688232e-01 -3.830487728118896484e-01
-2.196681499481201172e-01 -5.721757411956787109e-01 -2.110589593648910522e-01
2.969854176044464111e-01 3.549338281154632568e-01 -3.830487728118896484e-01
2.469039112329483032e-01 5.736793875694274902e-01 -3.197769224643707275e-01
-4.382107779383659363e-02 6.239995360374450684e-01 1.778233498334884644e-01
-3.494518697261810303e-01 5.325135588645935059e-01 5.206495895981788635e-02
-5.696359276771545410e-02 3.043750822544097900e-01 -3.830487728118896484e-01
1.712386906147003174e-01 4.071070551872253418e-01 -3.418838381767272949e-01
7.202214002609252930e-02 -6.451080441474914551e-01 4.220230281352996826e-01
-1.443720459938049316e-01 -5.721757411956787109e-01 -3.202709555625915527e-01
2.445829510688781738e-01 -6.133434772491455078e-01 3.913322687149047852e-01
-1.665693819522857666e-01 6.239995360374450684e-01 -3.000533878803253174e-01
1.313088387250900269e-01 -7.989901304244995117e-02 4.220230281352996826e-01
-5.789700895547866821e-02 1.940156817436218262e-01 3.321561515331268311e-01
-8.698323369026184082e-02 -5.721757411956787109e-01 -2.114196717739105225e-01
1.969566345214843750e-01 -5.721757411956787109e-01 -4.858668148517608643e-02
-3.362270593643188477e-01 6.239995360374450684e-01 -8.016788959503173828e-02
-2.501868456602096558e-02 -6.133434772491455078e-01 -1.762892603874206543e-01
-5.381649732589721680e-02 1.940156817436218262e-01 -1.878558546304702759e-01
-9.513623081147670746e-03 1.940156817436218262e-01 3.729016184806823730e-01
-3.772791922092437744e-01 -5.973595976829528809e-01 -3.603918850421905518e-01
-6.580553203821182251e-02 -5.721757411956787109e-01 -3.534140884876251221e-01
-2.909256704151630402e-02 2.682482600212097168e-01 4.220230281352996826e-01
2.921924889087677002e-01 -2.115654051303863525e-01 3.808553218841552734e-01
-3.421077728271484375e-01 -5.161287188529968262e-01 -3.350234925746917725e-01
3.317336738109588623e-01 -7.439419031143188477e-01 -7.843323051929473877e-02
2.803956866264343262e-01 6.239995360374450684e-01 3.565523326396942139e-01
3.797636032104492188e-01 -4.501323401927947998e-01 2.409199476242065430e-01
-2.969431281089782715e-01 5.325135588645935059e-01 2.004485279321670532e-01
-2.950248420238494873e-01 3.683888912200927734e-01 -3.418838381767272949e-01
4.404849559068679810e-02 5.736793875694274902e-01 -1.244162321090698242e-01
3.729023337364196777e-01 -3.999743759632110596e-01 3.502698838710784912e-01
-2.785667963325977325e-02 -2.767713963985443115e-01 -3.830487728118896484e-01
3.797636032104492188e-01 -1.075815632939338684e-01 3.083098828792572021e-01
1.752486526966094971e-01 -6.133434772491455078e-01 4.022991657257080078e-02
1.153464019298553467e-01 1.940156817436218262e-01 3.315018117427825928e-01
