-1.535887569189071655e-01 4.331242293119430542e-02 2.117387764155864716e-02
-1.766586005687713623e-01 2.939397096633911133e-02 -5.515366792678833008e-01
-1.994447410106658936e-01 3.597826883196830750e-02 6.932918727397918701e-02
1.336285322904586792e-01 -9.623729623854160309e-03 -5.602744817733764648e-01
-2.316704392433166504e-01 5.445504933595657349e-02 -7.504234313964843750e-01
3.597490191459655762e-01 -8.816385269165039062e-02 5.277049541473388672e-01
8.994625508785247803e-02 1.605137065052986145e-02 -4.431544244289398193e-01
-3.023820519447326660e-01 7.242475450038909912e-02 5.502064228057861328e-01
-3.195241689682006836e-01 7.530231773853302002e-02 4.915234446525573730e-01
2.064006626605987549e-01 -2.103481814265251160e-02 2.892024815082550049e-01
5.572592467069625854e-02 -4.110053181648254395e-02 1.223731935024261475e-01
6.031620502471923828e-02 -4.393438994884490967e-02 -3.874239027500152588e-01
2.790414094924926758e-01 -1.217075809836387634e-02 -4.846504628658294678e-01
1.606999635696411133e-01 -6.190081685781478882e-02 -3.191570341587066650e-01
9.708818048238754272e-02 -1.758619770407676697e-02 -7.226004600524902344e-01
1.411660015583038330e-02 3.521429840475320816e-03 -3.866902589797973633e-01
1.671920865774154663e-01 -6.126653403043746948e-02 1.430739313364028931e-01
3.659181296825408936e-02 -5.214667879045009613e-03 4.799218177795410156e-01
2.722058296203613281e-01 -8.299295604228973389e-02 -5.328148603439331055e-01
5.781312286853790283e-02 2.703472785651683807e-02 6.248021721839904785e-01
2.583376765251159668e-01 -4.838311672210693359e-02 -5.701390504837036133e-01
2.340723276138305664e-01 1.229276904268772341e-06 -6.060378551483154297e-01
8.438255637884140015e-02 -4.704318568110466003e-02 -6.540679931640625000e-02
-3.256131708621978760e-01 7.743848860263824463e-02 7.529206275939941406e-01
1.871094405651092529e-01 1.173533219844102859e-02 -4.307206273078918457e-01
-2.036852389574050903e-01 8.478620089590549469e-03 -9.243620634078979492e-01
1.840057224035263062e-01 -3.239807859063148499e-02 -4.746634364128112793e-01
-2.508750855922698975e-01 3.902576165273785591e-03 9.068233966827392578e-01
-8.822654187679290771e-02 -1.206531375646591187e-02 8.579751253128051758e-01
-1.607368737459182739e-01 5.811093002557754517e-02 -4.907105863094329834e-01
2.943509519100189209e-01 -4.186640679836273193e-02 1.253923028707504272e-01
-1.857068203389644623e-02 -2.842884324491024017e-02 -8.742129802703857422e-02
1.941032558679580688e-01 -6.400702148675918579e-02 6.910712122917175293e-01
2.053598873317241669e-02 3.293778048828244209e-03 5.438218116760253906e-01
1.408731937408447266e-01 -1.977901719510555267e-02 7.046337723731994629e-01
-9.231274574995040894e-02 -1.110319141298532486e-02 9.132896065711975098e-01
4.037735611200332642e-02 -8.332481607794761658e-03 -4.558041989803314209e-01
7.037352025508880615e-02 -4.662808030843734741e-03 -2.326600551605224609e-01
1.477863937616348267e-01 -5.813444778323173523e-02 4.282026737928390503e-02
-3.001970946788787842e-01 -6.081282347440719604e-02 9.236599206924438477e-01
-3.440224230289459229e-01 7.801224291324615479e-02 4.811380803585052490e-02
-2.979076504707336426e-01 7.261627912521362305e-02 8.067479133605957031e-01
2.008094042539596558e-01 9.328309446573257446e-03 6.504451632499694824e-01
-2.118128389120101929e-01 6.239622365683317184e-03 -1.980582624673843384e-01
1.868884563446044922e-01 -3.219530731439590454e-02 2.438701093196868896e-01
1.176700815558433533e-01 -1.574598625302314758e-02 6.576848030090332031e-01
9.851427748799324036e-03 1.576896943151950836e-02 5.685450434684753418e-01
2.466086298227310181e-01 -2.697812020778656006e-02 6.336733102798461914e-01
3.287922963500022888e-02 3.705296549014747143e-04 8.395220637321472168e-01
-3.171648830175399780e-02 3.061386011540889740e-02 -1.865472346544265747e-01
-7.894922792911529541e-02 6.238297000527381897e-02 4.934854507446289062e-01
-3.378279507160186768e-01 7.413906604051589966e-02 -6.491475105285644531e-01
-3.964661061763763428e-01 8.327662199735641479e-02 3.397895395755767822e-02
-1.245215237140655518e-01 3.555342555046081543e-02 -6.107880473136901855e-01
-9.135913848876953125e-02 6.236743927001953125e-02 -4.174755811691284180e-01
2.772506177425384521e-01 -8.164574950933456421e-02 4.458614066243171692e-02
2.289220243692398071e-01 -7.213760912418365479e-02 2.305195331573486328e-01
-3.718384206295013428e-01 5.900590866804122925e-02 -7.418568730354309082e-01
-1.456682085990905762e-01 -6.441373378038406372e-03 -3.679355680942535400e-01
1.601375639438629150e-01 -6.400463730096817017e-02 -8.817859888076782227e-01
1.034256294369697571e-01 -4.921419546008110046e-02 2.626168131828308105e-01
-2.215707674622535706e-02 1.779922842979431152e-02 8.591973781585693359e-02
-2.411974407732486725e-02 6.173527333885431290e-03 2.520982325077056885e-01
-3.911047875881195068e-01 8.115956187248229980e-02 -2.578610777854919434e-01
-3.899480998516082764e-01 6.348907947540283203e-02 -4.762351810932159424e-01
-2.718376219272613525e-01 2.084511332213878632e-02 7.430231571197509766e-01
5.031054466962814331e-02 -5.659605958499014378e-04 5.829875469207763672e-01
2.700228691101074219e-01 -3.045601584017276764e-02 8.319210410118103027e-01
5.132856220006942749e-02 -8.646953850984573364e-03 -5.622483491897583008e-01
-1.950868070125579834e-01 7.320825010538101196e-02 1.220048815011978149e-01
-1.709040850400924683e-01 2.719997055828571320e-02 -8.434145450592041016e-01
-5.657449737191200256e-02 -1.890535838901996613e-02 5.802999734878540039e-01
-4.616798833012580872e-02 -2.404976263642311096e-02 -2.491491883993148804e-01
1.362207625061273575e-02 -3.061030432581901550e-02 8.468523621559143066e-01
1.235878933221101761e-02 -3.285238891839981079e-02 2.170763909816741943e-01
-2.162195593118667603e-01 4.945734515786170959e-02 -1.577995270490646362e-01
-2.070019692182540894e-01 9.243997745215892792e-03 7.913587093353271484e-01
5.133264511823654175e-02 3.278447315096855164e-02 9.955818206071853638e-02
-9.004815667867660522e-02 6.396459043025970459e-02 4.858006164431571960e-02
-3.048079013824462891e-01 2.206161431968212128e-02 -4.710958600044250488e-01
4.955890774726867676e-02 5.040877312421798706e-02 7.697899341583251953e-01
2.117580175399780273e-01 -1.509168650954961777e-02 2.187166549265384674e-02
1.819472014904022217e-01 -2.120958454906940460e-02 4.666807651519775391e-01
-3.380738198757171631e-01 2.866841293871402740e-02 -3.292645215988159180e-01
-3.461178243160247803e-01 8.045271784067153931e-02 5.729178786277770996e-01
-4.041139185428619385e-01 4.114460200071334839e-02 -2.047813385725021362e-01
-4.216610267758369446e-02 -2.354510687291622162e-02 6.504937261343002319e-02
-4.055065214633941650e-01 5.429528281092643738e-02 9.214698523283004761e-02
-1.435071676969528198e-01 -4.376027733087539673e-03 2.591079771518707275e-01
3.367538452148437500e-01 -4.868562519550323486e-02 9.848113358020782471e-02
-7.878897339105606079e-02 1.821193099021911621e-02 2.542592585086822510e-01
-1.578999310731887817e-01 3.703431412577629089e-02 4.126424491405487061e-01
-3.403821885585784912e-01 7.842057198286056519e-02 3.221259713172912598e-01
3.170515000820159912e-01 -8.746915310621261597e-02 4.034308195114135742e-01
3.265378177165985107e-01 -8.971193432807922363e-02 2.709395289421081543e-01
1.600688695907592773e-01 -5.735981091856956482e-02 8.095917701721191406e-01
-7.171551883220672607e-02 3.083812631666660309e-02 6.318029165267944336e-01
1.072241924703121185e-02 -2.371650654822587967e-03 -3.091719746589660645e-01
3.107743561267852783e-01 -8.455178141593933105e-02 8.567656874656677246e-01
-1.754043698310852051e-01 3.909345250576734543e-03 8.941994309425354004e-01
-5.136676505208015442e-02 1.236921641975641251e-02 3.623238205909729004e-02
-1.918457150459289551e-01 3.285019192844629288e-03 -2.652920596301555634e-02
2.241211235523223877e-01 -2.823812142014503479e-02 -1.269962936639785767e-01
3.176149129867553711e-01 -9.165539592504501343e-02 -6.383073925971984863e-01
3.011725544929504395e-01 -8.792246878147125244e-02 -4.480339586734771729e-01
-8.044435828924179077e-02 -1.631599292159080505e-02 1.354569941759109497e-01
-8.384570479393005371e-02 6.144190207123756409e-02 -3.093650937080383301e-01
-7.755266875028610229e-02 2.152219787240028381e-02 -9.421283006668090820e-01
-1.842903532087802887e-02 5.143534392118453979e-02 5.057818889617919922e-01
-2.984919548034667969e-01 2.038592658936977386e-02 -6.060119867324829102e-01
8.193790912628173828e-02 -4.884798079729080200e-02 -6.389783024787902832e-01
-2.683645784854888916e-01 3.793377429246902466e-02 9.379680156707763672e-01
2.295750379562377930e-01 2.182739228010177612e-02 8.771568536758422852e-01
2.999571263790130615e-01 -4.207892715930938721e-02 -7.428104877471923828e-01
-3.662810027599334717e-01 3.786220401525497437e-02 7.091051936149597168e-01
-8.582260459661483765e-02 5.592986196279525757e-02 -6.505659818649291992e-01
1.645134240388870239e-01 -2.433236315846443176e-02 6.384274363517761230e-01
9.770545363426208496e-02 -5.015327408909797668e-02 -2.412913292646408081e-01
2.507057785987854004e-01 -7.964356988668441772e-02 -6.745137572288513184e-01
-2.409228831529617310e-01 6.134773418307304382e-02 5.726581215858459473e-01
1.236088499426841736e-01 -4.526434931904077530e-03 -7.433929294347763062e-02
2.458302229642868042e-01 -7.734842598438262939e-02 -3.152101933956146240e-01
1.218558661639690399e-02 4.212369024753570557e-02 -7.842288613319396973e-01
2.413100302219390869e-01 2.478231675922870636e-03 -2.824987173080444336e-01
1.095488443970680237e-01 3.049600124359130859e-02 7.429982423782348633e-01
3.218703269958496094e-01 -4.311486333608627319e-02 3.077101521193981171e-02
-1.114038899540901184e-01 2.650685794651508331e-02 8.195260763168334961e-01
4.672305658459663391e-02 -1.086516678333282471e-02 -8.083876967430114746e-01
-7.532789558172225952e-02 -2.071375586092472076e-02 -7.493972182273864746e-01
1.870955079793930054e-01 -1.516617368906736374e-02 8.898554444313049316e-01
1.931078284978866577e-01 -6.467235833406448364e-02 4.752403795719146729e-01
-9.191556274890899658e-02 4.873547330498695374e-02 -2.214297205209732056e-01
3.028338588774204254e-02 -3.901970386505126953e-02 -5.253690481185913086e-01
-9.144672751426696777e-02 -1.548548508435487747e-02 -1.625586301088333130e-01
1.352092623710632324e-01 -5.445308983325958252e-02 3.990569412708282471e-01
-2.059904672205448151e-02 -2.651385590434074402e-02 3.068791329860687256e-01
-1.564933955669403076e-01 4.410906136035919189e-02 2.826018631458282471e-01
-3.286183476448059082e-01 7.540972530841827393e-02 9.840349107980728149e-02
-1.923583596944808960e-01 3.370055183768272400e-02 -1.818916648626327515e-01
2.595660090446472168e-01 -8.229944109916687012e-02 -9.414125680923461914e-01
3.238103687763214111e-01 -4.519249871373176575e-02 -3.955515027046203613e-01
1.682133972644805908e-01 -2.933925576508045197e-02 1.089728549122810364e-01
1.689370721578598022e-01 -3.082660958170890808e-02 -2.359797805547714233e-01
9.339631069451570511e-04 3.795170923694968224e-03 -6.923208236694335938e-01
-9.127053618431091309e-02 2.172655425965785980e-02 3.244741857051849365e-01
-1.707010269165039062e-01 3.310129395686089993e-04 1.997501254081726074e-01
2.437587529420852661e-01 -2.680959552526473999e-02 5.452780723571777344e-01
2.765040695667266846e-01 -4.542981088161468506e-02 4.852025508880615234e-01
2.435268163681030273e-01 -3.977154940366744995e-02 3.998552858829498291e-01
7.801784574985504150e-02 2.960113808512687683e-03 4.616927206516265869e-01
-3.051483333110809326e-01 6.865062564611434937e-02 -5.379083752632141113e-01
1.046685054898262024e-01 -5.022663995623588562e-02 6.195660680532455444e-02
1.935199350118637085e-01 -6.538886576890945435e-02 3.115426599979400635e-01
-2.721481919288635254e-01 2.050099708139896393e-02 6.410652995109558105e-01
-3.138194382190704346e-01 2.197212353348731995e-02 -9.090803265571594238e-01
-3.905332833528518677e-02 -2.280140854418277740e-02 3.986976146697998047e-01
4.787117242813110352e-02 1.130670588463544846e-02 -8.778142333030700684e-01
3.634798526763916016e-01 -9.282261878252029419e-02 -8.924429416656494141e-01
3.528716564178466797e-01 -6.429818272590637207e-02 -2.262694537639617920e-01
-2.328938394784927368e-01 5.205350369215011597e-02 -6.236658096313476562e-01
2.436333298683166504e-01 -4.681343957781791687e-02 -8.515600562095642090e-01
3.107295930385589600e-01 -8.720477670431137085e-02 1.779554188251495361e-01
-1.648867726325988770e-01 -3.280369099229574203e-03 -4.521540105342864990e-01
-1.531844865530729294e-02 6.469582766294479370e-02 8.276237845420837402e-01
-1.450819075107574463e-01 -8.410511538386344910e-03 -8.431378006935119629e-01
3.609096705913543701e-01 -9.896793961524963379e-02 -4.959066808223724365e-01
-5.911242216825485229e-02 6.414376944303512573e-02 5.917960405349731445e-01
-6.848589330911636353e-02 1.314912643283605576e-02 -5.540192127227783203e-01
2.844236493110656738e-01 -8.032582700252532959e-02 7.136791348457336426e-01
-3.271978497505187988e-01 7.310871034860610962e-02 -4.215508401393890381e-01
-5.303917080163955688e-02 5.709958449006080627e-02 3.455690741539001465e-01
1.346587985754013062e-01 3.628736594691872597e-03 -7.306534647941589355e-01
5.460010468959808350e-02 4.844443406909704208e-03 9.242800474166870117e-01
5.255232751369476318e-02 -4.073571041226387024e-02 6.857963651418685913e-02
-2.120547145605087280e-01 3.698623180389404297e-02 -2.557936012744903564e-01
6.976094096899032593e-02 5.983003880828619003e-03 8.484220504760742188e-01
-1.939809024333953857e-01 6.138267368078231812e-02 2.013129293918609619e-01
-8.842761814594268799e-02 1.860442385077476501e-02 -8.984514325857162476e-02
-9.699419885873794556e-02 -1.361041329801082611e-02 5.873851105570793152e-02
-3.971569240093231201e-01 4.445725679397583008e-02 4.565394520759582520e-01
1.958104074001312256e-01 -1.434434577822685242e-02 -4.984599351882934570e-01
-1.106115356087684631e-01 2.245619893074035645e-02 -1.350561827421188354e-01
-1.186684593558311462e-01 3.495866432785987854e-02 6.743541359901428223e-01
3.000885546207427979e-01 -3.663010150194168091e-02 6.514624357223510742e-01
1.815958023071289062e-01 -3.026847727596759796e-02 -1.888675689697265625e-01
-3.137358129024505615e-01 2.446823939681053162e-02 -2.702769637107849121e-01
2.125752419233322144e-01 -7.016548514366149902e-02 -2.392887137830257416e-02
2.635088562965393066e-01 -4.675580561161041260e-02 -4.541985988616943359e-01
2.822555899620056152e-01 -4.512471333146095276e-02 1.724059432744979858e-01
2.617977261543273926e-01 -4.578258469700813293e-02 2.488213032484054565e-01
6.464249640703201294e-02 -3.412443026900291443e-02 9.394780993461608887e-01
-3.168026804924011230e-01 2.808400057256221771e-02 5.081568956375122070e-01
3.483942449092864990e-01 -5.803091824054718018e-02 3.436210453510284424e-01
3.441517055034637451e-02 -3.367767436429858208e-03 -2.428937936201691628e-03
1.252266019582748413e-01 3.806557133793830872e-02 8.223620057106018066e-01
2.294038087129592896e-01 -7.136754691600799561e-02 4.492569565773010254e-01
6.235472485423088074e-02 -4.503392800688743591e-02 -5.734697580337524414e-01
-3.563885390758514404e-01 3.538510203361511230e-02 5.343593358993530273e-01
-4.023360908031463623e-01 6.879565864801406860e-02 -8.893024921417236328e-02
-4.058618843555450439e-01 4.557043313980102539e-02 1.854320168495178223e-01
3.550696000456809998e-02 4.193237423896789551e-02 2.445848137140274048e-01
1.757576763629913330e-01 -3.451513871550559998e-02 -8.604441881179809570e-01
-1.653775125741958618e-01 4.527658596634864807e-02 -2.390876412391662598e-02
-2.192764878273010254e-01 8.146516233682632446e-02 -6.694501042366027832e-01
-1.062753517180681229e-02 -2.689320966601371765e-02 6.713270545005798340e-01
2.373422831296920776e-01 -7.599475979804992676e-02 -3.632133007049560547e-01
2.609367482364177704e-02 2.121174009516835213e-03 6.840663403272628784e-02
9.652578085660934448e-02 -1.457226742058992386e-02 -8.831645846366882324e-01
-1.725126802921295166e-01 2.958748117089271545e-02 -3.107616603374481201e-01
-8.871032297611236572e-02 4.050086066126823425e-02 -3.564832508563995361e-01
-1.600112020969390869e-01 7.027912884950637817e-02 -8.759338855743408203e-01
7.234713435173034668e-02 -4.228259250521659851e-02 5.906333923339843750e-01
-2.135936468839645386e-01 9.656697511672973633e-03 5.911678671836853027e-01
-4.057633280754089355e-01 4.233939945697784424e-02 2.088620141148567200e-02
2.756191194057464600e-01 -5.042362958192825317e-02 -8.285300135612487793e-01
1.302152425050735474e-01 -5.225221440196037292e-02 7.290543913841247559e-01
1.478988677263259888e-01 -5.468004196882247925e-02 9.289037585258483887e-01
-1.285324920900166035e-03 -2.933726273477077484e-02 4.808684885501861572e-01
-2.895769774913787842e-01 6.952530145645141602e-02 4.066062271595001221e-01
-2.248906493186950684e-01 5.117663368582725525e-02 2.823569774627685547e-01
-3.850934207439422607e-01 5.007589980959892273e-02 6.434980630874633789e-01
1.460662931203842163e-01 -9.293926879763603210e-03 4.873695671558380127e-01
-2.397731542587280273e-01 4.814080521464347839e-02 4.311771392822265625e-01
1.206266656517982483e-01 -2.122135087847709656e-02 -2.579428628087043762e-02
-1.754651069641113281e-01 4.097069799900054932e-02 -4.328777194023132324e-01
-5.329260602593421936e-02 2.784450352191925049e-02 7.225214242935180664e-01
-4.486069828271865845e-02 1.458322722464799881e-02 8.622574210166931152e-01
6.123089417815208435e-02 -4.074038937687873840e-02 4.689274430274963379e-01
-1.156851872801780701e-01 3.212838992476463318e-02 2.013656944036483765e-01
4.087436571717262268e-02 -7.404451258480548859e-03 -1.970081031322479248e-01
2.639995813369750977e-01 -1.853098161518573761e-02 3.866818845272064209e-01
1.467760354280471802e-01 1.179905608296394348e-03 -2.530522346496582031e-01
2.283131889998912811e-02 -2.225125674158334732e-03 -2.460543960332870483e-01
1.869053840637207031e-01 -6.750164180994033813e-02 -5.334947109222412109e-01
9.155555069446563721e-02 7.449270196957513690e-05 3.521149754524230957e-01
2.969808578491210938e-01 -4.398376494646072388e-02 -2.851286232471466064e-01
-1.235388871282339096e-02 -2.490789443254470825e-02 9.392133355140686035e-01
-2.477046698331832886e-01 6.091422960162162781e-02 1.490145921707153320e-01
-9.045827388763427734e-02 -1.830900087952613831e-02 -8.370558023452758789e-01
-1.513381153345108032e-01 4.499706998467445374e-02 5.543224811553955078e-01
3.618582785129547119e-01 -9.360123425722122192e-02 -2.666108310222625732e-01
-3.090960346162319183e-02 -2.376985177397727966e-02 5.285351276397705078e-01
-7.986801117658615112e-02 -1.852414198219776154e-02 -4.011646509170532227e-01
-2.501821145415306091e-02 1.023463904857635498e-02 -4.068723917007446289e-01
2.075832188129425049e-01 -3.863587230443954468e-02 -4.377234280109405518e-01
-2.250588834285736084e-01 3.894999623298645020e-02 -3.582700192928314209e-01
2.443142086267471313e-01 1.677315915003418922e-03 -3.488095700740814209e-01
-6.626450270414352417e-02 -1.839826256036758423e-02 2.613427042961120605e-01
8.305028825998306274e-02 2.944035828113555908e-02 -7.361670732498168945e-01
2.395749986171722412e-01 -7.148491591215133667e-02 8.906707167625427246e-01
2.811964750289916992e-01 -2.729774825274944305e-02 -6.953011155128479004e-01
-1.833607554435729980e-01 4.847715795040130615e-02 6.506969928741455078e-01
3.235794603824615479e-01 -4.043330252170562744e-02 8.602935075759887695e-01
2.458302229642868042e-01 -3.298249095678329468e-02 -9.296009540557861328e-01
-3.122416734695434570e-01 2.641955949366092682e-02 2.949360907077789307e-01
2.770186960697174072e-01 -4.422127082943916321e-02 7.789577245712280273e-01
1.415122598409652710e-01 -2.297001332044601440e-02 -8.894019722938537598e-01
1.546328961849212646e-01 1.660860888659954071e-02 -6.930903196334838867e-01
2.948256209492683411e-02 -3.958670049905776978e-02 -7.071257233619689941e-01
-1.344070285558700562e-01 3.905959054827690125e-02 -1.750342249870300293e-01
1.899105608463287354e-01 4.354198928922414780e-03 5.892527103424072266e-01
3.424279391765594482e-02 -3.490106016397476196e-02 7.078778743743896484e-01
-8.006211370229721069e-02 -1.716304570436477661e-02 -6.293387711048126221e-02
7.599888835102319717e-03 -3.469869121909141541e-02 -4.741965830326080322e-01
-2.199832350015640259e-01 1.203644741326570511e-02 9.021807312965393066e-01
1.951633691787719727e-01 -2.100256830453872681e-02 3.929759263992309570e-01
2.096487134695053101e-01 2.682091109454631805e-02 7.514802217483520508e-01
-9.668760746717453003e-02 3.590331971645355225e-02 7.693231105804443359e-01
-2.337508797645568848e-01 1.435089576989412308e-02 8.539914488792419434e-01
-2.121114581823348999e-01 5.621485412120819092e-02 -5.897080302238464355e-01
1.280780732631683350e-01 1.565658859908580780e-02 2.147242277860641479e-01
2.288792282342910767e-01 -1.814422942698001862e-02 -7.909539341926574707e-01
4.422610159963369370e-03 -3.178111463785171509e-02 1.229017525911331177e-01
-2.414763271808624268e-01 1.115371007472276688e-02 -3.190485239028930664e-01
2.738084793090820312e-01 -7.864993810653686523e-02 6.493054032325744629e-01
-2.626766078174114227e-02 2.257465198636054993e-02 6.295861005783081055e-01
-1.939480453729629517e-01 3.465785086154937744e-02 -8.810901641845703125e-01
2.121163606643676758e-01 4.781432915478944778e-03 1.828797608613967896e-01
-3.266382962465286255e-02 4.121208935976028442e-02 6.747801303863525391e-01
-9.706386923789978027e-02 2.249502018094062805e-02 5.407798290252685547e-01
-6.126819923520088196e-02 5.852602049708366394e-02 8.781861662864685059e-01
1.030924543738365173e-01 -5.174256116151809692e-02 -3.970953822135925293e-01
-3.099054396152496338e-01 7.337319105863571167e-02 4.467315673828125000e-01
-1.002820655703544617e-01 3.355482593178749084e-02 -8.628709912300109863e-01
6.377747654914855957e-02 1.620506495237350464e-02 1.446954756975173950e-01
2.789141610264778137e-02 3.516451641917228699e-02 3.853271305561065674e-01
2.316604405641555786e-01 -4.096115939319133759e-03 -4.338661730289459229e-01
-2.240554988384246826e-01 4.182476922869682312e-02 -4.355772733688354492e-01
3.055086135864257812e-01 -3.869789093732833862e-02 3.756536543369293213e-01
-2.266863882541656494e-01 7.665659766644239426e-03 -5.235176086425781250e-01
-8.048500865697860718e-03 2.012452669441699982e-02 8.480617403984069824e-01
-1.509946882724761963e-01 -5.323567427694797516e-03 -3.296208679676055908e-01
-1.048191785812377930e-01 5.781369283795356750e-02 8.382090926170349121e-01
2.427882254123687744e-01 2.107087336480617523e-02 8.212929368019104004e-01
-2.362752556800842285e-01 1.198548171669244766e-02 1.342057436704635620e-01
-3.463865518569946289e-01 8.031843602657318115e-02 5.263133645057678223e-01
-8.825044333934783936e-02 6.150759756565093994e-02 -4.941318333148956299e-01
3.018285334110260010e-01 -6.066629663109779358e-02 9.216371774673461914e-01
3.184162080287933350e-01 -4.386560618877410889e-02 -3.431336879730224609e-01
-2.246895730495452881e-01 7.880371995270252228e-03 -3.761895596981048584e-01
2.920455634593963623e-01 1.159039977937936783e-02 6.864594221115112305e-01
-8.125860989093780518e-02 -1.368376612663269043e-02 7.682082056999206543e-01
-2.980300784111022949e-01 6.842297315597534180e-02 -2.668726444244384766e-01
-2.365231215953826904e-01 4.637353867292404175e-02 -1.947883218526840210e-01
3.352676630020141602e-01 -5.051023140549659729e-02 -7.882493734359741211e-01
-1.681059598922729492e-01 7.799363881349563599e-02 3.455850183963775635e-01
2.482122629880905151e-01 -4.357862845063209534e-02 -3.524547815322875977e-01
2.860740423202514648e-01 -1.775353774428367615e-02 -1.556125879287719727e-01
-2.551673352718353271e-01 5.934803932905197144e-02 -5.938748121261596680e-01
-1.118467003107070923e-02 2.042882703244686127e-02 7.842035889625549316e-01
3.226248323917388916e-01 -8.865669369697570801e-02 3.587812781333923340e-01
-5.340876802802085876e-02 4.691484570503234863e-02 4.604106247425079346e-01
-1.797971576452255249e-01 4.645098373293876648e-02 -3.905305862426757812e-01
7.790048420429229736e-02 -1.053583249449729919e-02 1.830210983753204346e-01
2.101135849952697754e-01 -7.128105312585830688e-02 -4.225422739982604980e-01
1.501783877611160278e-01 1.922755502164363861e-02 4.069804847240447998e-01
-2.201315611600875854e-01 4.427817836403846741e-02 3.564211726188659668e-01
5.443934723734855652e-02 1.785606704652309418e-02 6.993013024330139160e-01
2.928876876831054688e-01 -8.260891586542129517e-02 5.235182046890258789e-01
-2.290037274360656738e-01 6.749474257230758667e-02 -3.256770372390747070e-01
3.598246574401855469e-01 -8.996118605136871338e-02 4.856246113777160645e-01
1.570208966732025146e-01 -7.215760182589292526e-03 -3.427414894104003906e-01
-7.774776220321655273e-02 -1.561320945620536804e-02 4.396491646766662598e-01
-2.927672863006591797e-01 6.823155283927917480e-02 -7.102703303098678589e-02
-7.924388349056243896e-02 -2.061536721885204315e-02 -9.057845473289489746e-01
-1.370130330324172974e-01 -3.291418775916099548e-03 8.360978364944458008e-01
1.710214763879776001e-01 -6.324333697557449341e-02 -1.837003380060195923e-01
3.633782863616943359e-01 -9.588910639286041260e-02 -8.213012814521789551e-01
-1.748170852661132812e-01 -2.571929246187210083e-03 -7.316139936447143555e-01
2.315578907728195190e-01 -4.125611484050750732e-02 4.042591899633407593e-03
-2.267381548881530762e-01 5.622451007366180420e-02 -7.383093237876892090e-02
2.117162048816680908e-01 -1.008908730000257492e-02 1.132710725069046021e-01
-1.669244021177291870e-01 2.030092524364590645e-03 8.079503178596496582e-01
8.979540318250656128e-03 -3.617499768733978271e-02 -7.868846654891967773e-01
3.572843372821807861e-01 -7.223735004663467407e-02 -6.586041301488876343e-02
2.134482413530349731e-01 -6.968977302312850952e-02 1.378798335790634155e-01
1.547762304544448853e-01 -2.664017491042613983e-02 1.753125786781311035e-01
-2.126579433679580688e-01 3.482677042484283447e-02 -8.341571688652038574e-01
-1.252213120460510254e-01 -6.135032977908849716e-03 6.574937105178833008e-01
-3.983165919780731201e-01 4.195795580744743347e-02 2.709892988204956055e-01
-8.807723969221115112e-02 1.647920347750186920e-02 -6.120532155036926270e-01
-3.649680614471435547e-01 3.628605976700782776e-02 3.679441213607788086e-01
-2.727593779563903809e-01 6.594239175319671631e-02 2.727362513542175293e-01
9.211677312850952148e-02 -2.411828003823757172e-02 -9.506331086158752441e-01
-1.958552747964859009e-01 5.412088334560394287e-02 8.169538974761962891e-01
-3.497481048107147217e-01 7.139728963375091553e-02 -8.310793042182922363e-01
-2.185528129339218140e-01 8.391766995191574097e-02 -4.796912968158721924e-01
-2.884292602539062500e-01 6.576360762119293213e-02 -4.981613159179687500e-01
-2.405087798833847046e-01 -7.743562757968902588e-02 -9.096676707267761230e-01
-3.802586793899536133e-01 8.332380652427673340e-02 -1.417732834815979004e-01
-3.289328813552856445e-01 2.676367573440074921e-02 -3.897660970687866211e-01
1.677783876657485962e-01 -6.368490308523178101e-02 -4.461406767368316650e-01
1.478670090436935425e-01 1.689399406313896179e-02 1.030391603708267212e-01
7.191313803195953369e-02 -4.791059345006942749e-02 -8.644039630889892578e-01
-1.829337179660797119e-01 3.638400882482528687e-02 4.642041623592376709e-01
2.434621155261993408e-01 2.028449252247810364e-02 6.500231027603149414e-01
1.772587746381759644e-01 2.886251918971538544e-02 6.666913628578186035e-01
-3.876197934150695801e-01 3.872304037213325500e-02 -6.044772267341613770e-02
1.597435213625431061e-02 -3.226757794618606567e-02 5.330951809883117676e-01
-2.519023418426513672e-01 6.018159538507461548e-02 -2.313212007284164429e-01
-2.213728576898574829e-01 4.166669771075248718e-02 5.046789050102233887e-01
-3.897856920957565308e-02 -2.385852485895156860e-02 1.328061819076538086e-01
9.469689428806304932e-02 -1.654065959155559540e-02 -5.667994618415832520e-01
3.573341071605682373e-01 -9.763776510953903198e-02 -3.227823376655578613e-01
3.530966043472290039e-01 -6.461612135171890259e-02 -1.350741088390350342e-01
2.251185327768325806e-01 -2.553174458444118500e-02 -5.596930980682373047e-01
2.015459984540939331e-01 6.267195101827383041e-03 8.179771900177001953e-01
-3.746654391288757324e-01 3.595786914229393005e-02 -1.627288609743118286e-01
-1.956631541252136230e-01 2.186772413551807404e-03 -4.836162328720092773e-01
2.573193609714508057e-01 -4.504109919071197510e-02 -3.036374449729919434e-01
-2.236234694719314575e-01 1.080630812793970108e-02 4.196511805057525635e-01
-1.274878829717636108e-01 -1.189664937555789948e-02 -9.171980619430541992e-01
-7.996058464050292969e-02 1.643291674554347992e-02 -2.502710223197937012e-01
2.129457890987396240e-02 6.058504059910774231e-02 6.382721662521362305e-01
-2.016953825950622559e-01 3.699977695941925049e-02 -6.437433362007141113e-01
1.704381555318832397e-01 -6.518420577049255371e-02 -7.053707838058471680e-01
-9.591117501258850098e-02 8.204279839992523193e-02 6.783527135848999023e-01
-6.515172123908996582e-02 5.981786921620368958e-02 1.415409892797470093e-01
6.655111163854598999e-02 1.217968668788671494e-02 -8.443005084991455078e-01
2.707475423812866211e-01 -4.531324654817581177e-02 4.360407590866088867e-01
-2.481645494699478149e-01 1.398050226271152496e-02 9.214748442173004150e-02
-7.350230962038040161e-02 -2.121622301638126373e-02 -7.929905652999877930e-01
1.429964303970336914e-01 -5.789504945278167725e-02 -1.180942431092262268e-01
2.199204564094543457e-01 -2.197282388806343079e-02 6.755077838897705078e-01
3.292821943759918213e-01 -4.752696305513381958e-02 -6.212300062179565430e-01
-1.009369175881147385e-02 8.801845251582562923e-04 -4.442543685436248779e-01
7.071605324745178223e-02 2.847619727253913879e-02 6.526061892509460449e-01
1.291481554508209229e-01 -2.243625000119209290e-02 -4.747938215732574463e-01
-1.204243749380111694e-01 2.892891131341457367e-02 8.614411950111389160e-01
-1.649144850671291351e-02 -3.218545392155647278e-02 -9.494495987892150879e-01
4.661196470260620117e-02 -4.159674793481826782e-02 -4.261247813701629639e-01
4.010481014847755432e-02 -5.273198708891868591e-03 -6.223229169845581055e-01
2.210651934146881104e-01 -2.202449366450309753e-02 7.149453163146972656e-01
5.134389176964759827e-02 -4.432777687907218933e-02 -9.035637378692626953e-01
-1.549196392297744751e-01 4.020113870501518250e-02 -2.851226627826690674e-01
-3.046088218688964844e-01 7.160583138465881348e-02 2.393379509449005127e-01
6.509799510240554810e-02 2.055096440017223358e-02 -1.808544397354125977e-01
-2.473154515027999878e-01 1.081357523798942566e-02 -6.764170527458190918e-01
-1.344168558716773987e-02 4.999756067991256714e-02 3.710428774356842041e-01
-1.671452447772026062e-02 3.409463912248611450e-02 1.422943547368049622e-02
7.744627445936203003e-02 -1.154344435781240463e-02 -9.311628341674804688e-02
2.804698050022125244e-01 -4.678278416395187378e-02 3.247917294502258301e-01
-3.478199839591979980e-01 7.629425078630447388e-02 8.895787000656127930e-01
-2.441918253898620605e-01 1.282830256968736649e-02 -1.759979501366615295e-02
2.473880648612976074e-01 1.535568968392908573e-03 -2.398280501365661621e-01
-3.694912493228912354e-01 3.607513010501861572e-02 1.049762442708015442e-01
-3.778676986694335938e-01 3.602724894881248474e-02 -2.941889166831970215e-01
-3.619608879089355469e-01 3.730586543679237366e-02 7.657923698425292969e-01
-2.856598608195781708e-02 4.221955686807632446e-02 -7.656862139701843262e-01
-1.158454418182373047e-01 3.281274437904357910e-02 -9.048140048980712891e-01
-1.492248475551605225e-01 -6.885962793603539467e-04 9.328804612159729004e-01
4.011914134025573730e-02 -5.363184958696365356e-03 3.561523854732513428e-01
3.476098477840423584e-01 -5.892281606793403625e-02 -7.501049041748046875e-01
1.058758497238159180e-01 1.858511194586753845e-02 -2.890117466449737549e-01
1.524977087974548340e-01 -2.308086305856704712e-02 4.406963586807250977e-01
-3.909624218940734863e-01 8.346176892518997192e-02 3.331402838230133057e-01
2.743539810180664062e-01 1.446646451950073242e-02 5.997902750968933105e-01
1.622249484062194824e-01 -2.897413447499275208e-02 -6.101529598236083984e-01
2.864453494548797607e-01 -8.165709674358367920e-02 4.677807092666625977e-01
3.445738255977630615e-01 -5.440062656998634338e-02 1.350309401750564575e-01
1.537041664123535156e-01 -5.816739797592163086e-02 3.086509704589843750e-01
-3.227015435695648193e-01 3.007165342569351196e-02 7.409626245498657227e-01
-1.945223957300186157e-01 5.402961000800132751e-02 8.565188050270080566e-01
-9.777560085058212280e-02 2.197750099003314972e-02 3.764489889144897461e-01
2.704180479049682617e-01 -3.100707754492759705e-02 7.078479528427124023e-01
2.427523881196975708e-01 -2.756979689002037048e-02 3.056676983833312988e-01
-2.271233946084976196e-01 8.285555988550186157e-02 4.466698765754699707e-01
1.218409277498722076e-02 -3.616663813591003418e-02 -6.362548470497131348e-01
-7.499145716428756714e-02 3.537803515791893005e-02 8.145599365234375000e-01
-3.355902433395385742e-01 7.338265329599380493e-02 -7.389552593231201172e-01
2.775213718414306641e-01 -7.890974730253219604e-02 7.550567984580993652e-01
-4.400673136115074158e-02 1.973581500351428986e-02 -9.119163155555725098e-01
1.109543815255165100e-01 -5.441118031740188599e-02 -7.135700583457946777e-01
-7.689070701599121094e-02 1.521014422178268433e-02 1.130202338099479675e-01
-3.926395624876022339e-02 4.594630002975463867e-02 4.096671342849731445e-01
5.927738174796104431e-02 -1.270029135048389435e-02 -6.939294338226318359e-01
-2.610034644603729248e-01 6.597752869129180908e-02 8.222684860229492188e-01
1.094643399119377136e-01 -5.138848721981048584e-02 -1.208369992673397064e-02
8.060215413570404053e-02 -1.173211727291345596e-02 4.318939987570047379e-03
1.589022278785705566e-01 -1.042763888835906982e-02 7.933236360549926758e-01
-2.488188212737441063e-03 4.891225695610046387e-02 2.647291123867034912e-01
-2.956331074237823486e-01 2.489457651972770691e-02 6.733208894729614258e-01
-3.742573261260986328e-01 8.102876693010330200e-02 4.854513704776763916e-01
-1.617243289947509766e-01 3.355960175395011902e-02 -1.988446563482284546e-01
2.383018732070922852e-01 -4.284271597862243652e-02 -8.728860318660736084e-02
-4.057422652840614319e-02 5.776253528892993927e-03 -6.059612035751342773e-01
-1.844905614852905273e-01 3.442979604005813599e-02 3.666898906230926514e-01
-7.639583665877580643e-03 4.493656102567911148e-03 5.359548330307006836e-02
1.998697221279144287e-01 -3.107616119086742401e-02 -6.487792134284973145e-01
-1.195165589451789856e-01 2.707215771079063416e-02 4.926960468292236328e-01
1.341381967067718506e-01 2.146217226982116699e-02 -4.039249420166015625e-01
-1.073117181658744812e-01 -1.376866549253463745e-02 -4.597550332546234131e-01
7.091184705495834351e-02 -4.167777672410011292e-02 6.784044504165649414e-01
-3.874854445457458496e-01 3.675311058759689331e-02 -5.558657646179199219e-01
2.226628363132476807e-01 -3.860998898744583130e-02 2.666403055191040039e-01
6.416389346122741699e-02 -4.169071838259696960e-02 3.624175786972045898e-01
-2.016675174236297607e-01 7.727304846048355103e-02 -3.127475082874298096e-01
1.717532426118850708e-02 1.130352076143026352e-02 -9.063102304935455322e-02
-1.778083145618438721e-01 7.761786133050918579e-02 -2.017930895090103149e-01
3.188153505325317383e-01 -8.981326222419738770e-02 -1.127468496561050415e-01
-2.699662148952484131e-01 6.449515372514724731e-02 3.327718377113342285e-02
1.153030246496200562e-02 2.316973870620131493e-03 4.256515800952911377e-01
-1.571235060691833496e-01 3.739047423005104065e-02 2.050168961286544800e-01
1.123386174440383911e-01 -1.871315203607082367e-02 2.291966080665588379e-01
-2.913826704025268555e-01 2.169848605990409851e-02 5.662971735000610352e-02
2.878060638904571533e-01 -5.128317326307296753e-02 -4.834798574447631836e-01
3.179752230644226074e-01 -8.924219757318496704e-02 -6.046592723578214645e-03
8.486474305391311646e-02 -1.413779612630605698e-02 1.243291944265365601e-01
-2.323055267333984375e-01 5.438178777694702148e-02 -7.985977530479431152e-01
-1.953884065151214600e-01 6.856085266917943954e-03 7.203574776649475098e-01
3.034659922122955322e-01 -7.619343698024749756e-02 -9.497910141944885254e-01
-7.939220219850540161e-02 -1.950165443122386932e-02 -6.285005211830139160e-01
8.710622042417526245e-02 2.288205316290259361e-03 7.101175189018249512e-01
3.458639085292816162e-01 -5.443726480007171631e-02 7.943807840347290039e-01
1.333838142454624176e-02 -3.274995833635330200e-02 2.883603572845458984e-01
-2.441121935844421387e-01 1.070377975702285767e-02 -5.559951663017272949e-01
1.185233443975448608e-01 2.329185232520103455e-02 -6.627359390258789062e-01
2.805200032889842987e-02 -3.291460126638412476e-02 9.266301989555358887e-01
-2.782162427902221680e-01 -5.294552445411682129e-02 -9.099533557891845703e-01
1.647762060165405273e-01 -1.307760551571846008e-02 3.901151120662689209e-01
1.888225674629211426e-01 1.203744299709796906e-02 -2.777485549449920654e-01
1.442576348781585693e-01 -5.510449036955833435e-02 6.521761417388916016e-01
-2.163398452103137970e-02 -2.990465238690376282e-02 -6.058935523033142090e-01
2.389598339796066284e-01 -3.931126371026039124e-02 4.954952001571655273e-01
-1.924071311950683594e-01 5.302831530570983887e-02 6.998407840728759766e-01
-2.945738472044467926e-02 2.896106615662574768e-02 -6.420750617980957031e-01
-2.207745760679244995e-01 8.538293093442916870e-02 2.195281088352203369e-01
-7.870536297559738159e-02 2.673192135989665985e-02 -2.916685342788696289e-01
1.504770070314407349e-01 -2.743183262646198273e-02 -7.608315944671630859e-01
2.902986109256744385e-01 -2.654431574046611786e-02 8.537883758544921875e-01
-2.391470670700073242e-01 4.853668063879013062e-02 -8.830531239509582520e-01
-3.111023688688874245e-03 1.449265633709728718e-03 3.592770099639892578e-01
-9.429162740707397461e-02 7.181128114461898804e-02 8.752835392951965332e-01
3.592672049999237061e-01 -7.607608288526535034e-02 -5.289316773414611816e-01
-1.532214581966400146e-01 -3.105474403128027916e-03 1.330410987138748169e-01
-3.516871929168701172e-01 7.686761021614074707e-02 -5.972303748130798340e-01
1.902393810451030731e-02 2.223203890025615692e-03 6.692506074905395508e-01
4.878347367048263550e-02 -7.191550917923450470e-03 -3.097940981388092041e-01
1.069942042231559753e-01 -4.882229864597320557e-02 5.279538035392761230e-01
6.188881117850542068e-03 4.694172367453575134e-02 1.612652242183685303e-01
2.766732871532440186e-01 -8.510573208332061768e-02 -8.645712137222290039e-01
1.114345639944076538e-01 -5.486648157238960266e-02 -8.074789047241210938e-01
4.065268859267234802e-02 1.467679720371961594e-02 4.467056989669799805e-01
3.016513586044311523e-01 -3.768704086542129517e-02 4.545475840568542480e-01
3.191286697983741760e-02 -4.273897502571344376e-03 -3.470994532108306885e-01
1.137401610612869263e-01 -1.142962928861379623e-02 -5.993247628211975098e-01
1.430770754814147949e-01 1.105347997508943081e-03 -2.035249723121523857e-03
2.287697345018386841e-01 -7.355359196662902832e-02 -1.377637237310409546e-01
-1.661181002855300903e-01 7.641529291868209839e-02 3.644600138068199158e-02
-3.728099763393402100e-01 7.856670022010803223e-02 -3.904410004615783691e-01
-2.420058995485305786e-01 4.970490559935569763e-02 -3.873878624290227890e-03
3.236083090305328369e-01 -8.851036429405212402e-02 4.416778087615966797e-01
-2.432422190904617310e-01 5.034844577312469482e-02 3.845049142837524414e-01
-2.949980497360229492e-01 2.013467997312545776e-02 -5.083752870559692383e-01
-7.843063026666641235e-02 1.736034825444221497e-02 5.508970841765403748e-02
2.297333031892776489e-01 -7.165094465017318726e-02 3.922582268714904785e-01
-3.492163866758346558e-02 2.469041757285594940e-02 -1.141215264797210693e-01
1.318308264017105103e-01 1.127992849797010422e-02 4.070500284433364868e-02
-8.534166961908340454e-03 -3.117301687598228455e-02 -3.224040865898132324e-01
1.532542407512664795e-01 -5.745278671383857727e-02 4.700761437416076660e-01
-2.278858572244644165e-01 9.010570123791694641e-03 -2.359936982393264771e-01
1.483587473630905151e-01 3.381612151861190796e-02 6.431308388710021973e-01
2.054530382156372070e-01 6.413621827960014343e-03 -8.773453831672668457e-01
2.653045952320098877e-01 -4.397420585155487061e-02 5.253936052322387695e-01
-2.004879415035247803e-01 3.638390451669692993e-02 1.246238350868225098e-01
-4.342858865857124329e-02 7.221106439828872681e-03 -3.707416653633117676e-01
3.629363477230072021e-01 -9.211219102144241333e-02 -6.819186806678771973e-01
3.444253653287887573e-02 -3.817298915237188339e-03 1.591768413782119751e-01
1.615162044763565063e-01 -1.909717544913291931e-02 -7.063572406768798828e-01
2.787626981735229492e-01 -1.124689239077270031e-03 8.027144074440002441e-01
-1.539937686175107956e-02 1.432979479432106018e-02 5.408265590667724609e-01
2.121133804321289062e-01 4.833492916077375412e-03 -1.254742890596389771e-01
1.761578470468521118e-01 -2.028490975499153137e-02 -9.185567498207092285e-01
2.336612194776535034e-01 -7.595862448215484619e-02 -5.245448946952819824e-01
3.531394004821777344e-01 -6.475716829299926758e-02 -4.105096459388732910e-01
-2.268695384263992310e-01 2.259555831551551819e-02 -9.516823291778564453e-01
8.823657408356666565e-03 -3.329833596944808960e-02 -6.022126600146293640e-02
-2.979196012020111084e-01 2.546156756579875946e-02 7.120217680931091309e-01
-3.006558492779731750e-02 4.144750162959098816e-02 -2.486116439104080200e-01
-1.765141263604164124e-02 3.993855789303779602e-03 -5.337346196174621582e-01
-2.259019911289215088e-01 7.785686105489730835e-02 -2.515292167663574219e-01
-2.576339542865753174e-01 1.671302504837512970e-02 3.491157889366149902e-01
-1.910862177610397339e-01 1.173950222437269986e-04 -7.994219660758972168e-01
-1.619492769241333008e-01 3.489027544856071472e-02 -1.040739640593528748e-01
-3.234730064868927002e-01 7.061936706304550171e-02 -8.839998245239257812e-01
1.802490055561065674e-01 -5.044351797550916672e-03 2.009197473526000977e-01
-2.451952099800109863e-01 1.141968462616205215e-02 -4.235376715660095215e-01
-2.313160896301269531e-01 8.192834444344043732e-03 -6.035851836204528809e-01
9.388951212167739868e-02 -4.841129109263420105e-02 2.573239989578723907e-02
-2.517538703978061676e-02 6.007589399814605713e-03 1.623273342847824097e-01
2.221442162990570068e-01 -3.404917940497398376e-02 8.305901288986206055e-01
-3.036541938781738281e-01 2.053484134376049042e-02 -8.063192367553710938e-01
-1.026979386806488037e-01 1.671302504837512970e-02 -6.971217393875122070e-01
2.217669636011123657e-01 -7.106176018714904785e-02 1.733954101800918579e-01
5.281541869044303894e-02 -6.896937265992164612e-03 -4.961975291371345520e-02
-6.752191483974456787e-02 -1.631619408726692200e-02 7.331565022468566895e-01
7.089164108037948608e-02 3.223460167646408081e-02 -4.149293303489685059e-01
3.496126532554626465e-01 -5.924244970083236694e-02 5.437203049659729004e-01
-3.429075479507446289e-01 2.913496270775794983e-02 -4.334391355514526367e-01
-3.005265891551971436e-01 6.837161630392074585e-02 -3.953663110733032227e-01
2.804857492446899414e-01 -7.893343269824981689e-02 8.863784670829772949e-01
1.098616123199462891e-01 3.395240008831024170e-02 6.656422019004821777e-01
3.317136690020561218e-02 5.873674526810646057e-02 7.158282399177551270e-01
8.485627174377441406e-02 2.932839794084429741e-03 7.704300284385681152e-01
3.389128744602203369e-01 -8.989140391349792480e-02 7.964233756065368652e-01
-7.727295160293579102e-02 1.612483337521553040e-02 -1.259291917085647583e-01
-3.685157299041748047e-01 3.242422640323638916e-02 -7.764198184013366699e-01
-1.462614834308624268e-01 -4.531611688435077667e-03 9.177370369434356689e-02
-3.063169419765472412e-01 7.124299556016921997e-02 6.870296597480773926e-02
-2.269501686096191406e-01 5.366309732198715210e-02 -5.137197375297546387e-01
1.445443034172058105e-01 3.692842554301023483e-03 -1.379996538162231445e-01
-1.134892925620079041e-01 -9.697599336504936218e-03 2.925371229648590088e-01
-1.404839195311069489e-02 -2.880491316318511963e-02 2.620154246687889099e-02
2.482819408178329468e-01 -4.490781202912330627e-02 -6.879977583885192871e-01
1.502301543951034546e-01 -5.805601179599761963e-02 1.760740876197814941e-01
7.335162162780761719e-02 -4.485495388507843018e-02 -1.837433315813541412e-02
-1.380799897015094757e-02 -3.003644570708274841e-02 -2.768467366695404053e-01
-1.993830204010009766e-01 6.132912822067737579e-03 3.507154285907745361e-01
2.917588651180267334e-01 -8.225106447935104370e-02 5.624879002571105957e-01
2.955435030162334442e-02 -5.110945086926221848e-03 -6.688597798347473145e-01
-3.695808351039886475e-01 6.012127548456192017e-02 8.184520006179809570e-01
-3.125761449337005615e-01 2.602009847760200500e-02 1.779255568981170654e-01
-3.365757167339324951e-01 7.511866092681884766e-02 -3.423642218112945557e-01
-2.047025561332702637e-01 4.582765325903892517e-02 -7.265453338623046875e-01
-1.472439616918563843e-01 3.980825096368789673e-02 -5.744223594665527344e-01
-2.454319782555103302e-02 4.055273253470659256e-03 -3.025225698947906494e-01
-1.852679848670959473e-01 2.453047083690762520e-03 6.605127453804016113e-02
-1.618875861167907715e-01 3.110350482165813446e-02 -2.479108572006225586e-01
9.505095332860946655e-02 2.783783338963985443e-02 -5.894691348075866699e-01
2.630977630615234375e-01 -8.008673042058944702e-02 -2.135698944330215454e-01
-7.257258147001266479e-02 3.646403923630714417e-02 -7.295455336570739746e-01
1.979744434356689453e-01 -1.765574701130390167e-02 7.579085826873779297e-01
-2.917778491973876953e-01 6.766068190336227417e-02 -1.705279499292373657e-01
-2.370467185974121094e-01 4.441763460636138916e-02 4.809779822826385498e-01
-1.053963880985975266e-02 2.980209514498710632e-02 -3.790474236011505127e-01
-3.538172319531440735e-02 8.017739281058311462e-03 2.022824734449386597e-01
6.386228650808334351e-02 -4.408330470323562622e-02 -2.610832750797271729e-01
-1.940933763980865479e-01 6.695413589477539062e-02 -8.607120811939239502e-02
9.061855822801589966e-02 -4.453891143202781677e-02 8.617656826972961426e-01
-1.368119567632675171e-01 -9.234540164470672607e-03 -6.701279282569885254e-01
-4.788647964596748352e-02 -2.548572607338428497e-02 -6.951329112052917480e-01
1.377167254686355591e-01 -7.465510163456201553e-03 5.675924420356750488e-01
2.625980675220489502e-01 -8.194626867771148682e-02 -7.108356356620788574e-01
-1.731198877096176147e-01 -1.107966061681509018e-03 -2.794527411460876465e-01
3.641577437520027161e-02 -8.671052753925323486e-03 -7.256236076354980469e-01
3.246445357799530029e-01 -8.988115936517715454e-02 1.400090306997299194e-01
-1.776807568967342377e-02 4.528595134615898132e-03 4.640429019927978516e-01
1.686095744371414185e-01 -3.091111965477466583e-02 -2.724519371986389160e-01
2.579773068428039551e-01 -7.513789832592010498e-02 8.115447759628295898e-01
2.315837740898132324e-01 1.500231446698307991e-03 -3.646524855867028236e-03
2.862552106380462646e-01 -8.268188685178756714e-02 1.975552290678024292e-01
-3.116253763437271118e-02 1.308113988488912582e-02 -9.454947710037231445e-01
9.285277873277664185e-02 -1.061427034437656403e-02 8.168244957923889160e-01
1.447394043207168579e-01 -5.732487514615058899e-02 1.081416755914688110e-01
-1.569761782884597778e-01 4.032715782523155212e-02 3.189346492290496826e-01
2.832460701465606689e-01 -4.896872863173484802e-02 -1.046662405133247375e-01
-1.081050708889961243e-01 -1.311870664358139038e-02 -3.306929171085357666e-01
7.853934913873672485e-02 -4.459037259221076965e-02 2.889078259468078613e-01
1.037921383976936340e-01 -1.851098239421844482e-02 -6.479998230934143066e-01
-2.916731871664524078e-02 -2.665271610021591187e-02 -1.253777295351028442e-01
8.086414635181427002e-02 -4.485515505075454712e-02 3.290809690952301025e-01
-1.366644818335771561e-02 -3.119222633540630341e-02 -5.651460289955139160e-01
-1.407986134290695190e-01 4.263672977685928345e-02 4.417883157730102539e-01
-3.210431635379791260e-01 7.123114913702011108e-02 -6.159731149673461914e-01
-1.239889711141586304e-01 -7.450669072568416595e-03 3.792102932929992676e-01
-1.084783524274826050e-01 4.403788596391677856e-02 6.174848079681396484e-01
-3.286272883415222168e-01 2.479533292353153229e-02 -8.761001825332641602e-01
