-2.376578450202941895e-01 6.805542856454849243e-02 2.493393793702125549e-02
6.738038267940282822e-03 4.739183187484741211e-02 9.846554994583129883e-01
-5.471952632069587708e-02 2.404719218611717224e-02 3.748435899615287781e-02
1.066059619188308716e-01 -3.985002636909484863e-02 4.361710846424102783e-01
-4.850110784173011780e-02 8.120896667242050171e-02 6.171740218997001648e-02
-4.529708623886108398e-01 8.428767323493957520e-02 -9.786844253540039062e-03
1.785914897918701172e-01 -1.111678183078765869e-01 4.085016846656799316e-01
-1.999517343938350677e-02 8.617486059665679932e-02 4.262096807360649109e-02
3.960685133934020996e-01 5.553792044520378113e-02 -1.417798362672328949e-02
-8.591665327548980713e-02 -1.331534236669540405e-01 -3.463391065597534180e-01
-8.765164017677307129e-02 1.062688231468200684e-02 -1.841102987527847290e-01
3.753600269556045532e-02 3.864397108554840088e-02 7.547538280487060547e-01
-2.223763018846511841e-01 8.516094088554382324e-02 6.051663681864738464e-02
-7.663528085686266422e-04 -1.355374306440353394e-01 -4.032526016235351562e-01
6.239804029464721680e-01 1.385993957519531250e-01 -1.871903985738754272e-02
-1.178891956806182861e-01 -1.607437431812286377e-02 2.113100886344909668e-01
-4.471763968467712402e-03 6.440789904445409775e-03 -3.685818612575531006e-02
3.483077585697174072e-01 3.967183455824851990e-02 7.888641953468322754e-02
-1.972292810678482056e-01 5.378987174481153488e-03 3.177163898944854736e-01
-1.921337842941284180e-01 -4.587648902088403702e-03 2.210179902613162994e-02
2.523574512451887131e-03 -9.900690615177154541e-02 1.198721583932638168e-03
1.534822732210159302e-01 -5.104210600256919861e-02 -1.217727735638618469e-01
-1.034059897065162659e-01 -1.244744434952735901e-01 -4.253527224063873291e-01
6.247050762176513672e-01 6.716244667768478394e-02 1.599366962909698486e-02
4.419011473655700684e-01 -7.677543908357620239e-02 2.297666482627391815e-02
1.197295337915420532e-01 -1.035867854952812195e-01 4.268769621849060059e-01
-3.896528482437133789e-01 8.996050804853439331e-02 -1.317072845995426178e-02
-1.336943060159683228e-01 -1.573792286217212677e-02 -2.257303297519683838e-01
-1.089892461895942688e-01 2.268069237470626831e-02 5.581574440002441406e-01
2.846573479473590851e-02 1.836977340281009674e-02 6.939870119094848633e-01
-2.113740593194961548e-01 2.069236338138580322e-02 -1.364600360393524170e-01
-6.199238896369934082e-01 -5.265766009688377380e-02 6.241318956017494202e-02
-4.003863781690597534e-02 -2.015012204647064209e-01 -2.269785851240158081e-01
-3.762855008244514465e-02 7.317746989428997040e-03 -2.902189195156097412e-01
3.560699820518493652e-01 -8.348150551319122314e-02 2.315822802484035492e-02
1.168377697467803955e-01 8.700463920831680298e-02 -3.222793713212013245e-02
-1.433895826339721680e-01 1.530033163726329803e-02 4.597364068031311035e-01
-6.886221170425415039e-01 -3.031011857092380524e-02 6.382796913385391235e-02
6.306695938110351562e-01 1.510920822620391846e-01 8.803393691778182983e-02
-1.693329364061355591e-01 -7.162319123744964600e-02 -2.977282702922821045e-01
6.762444227933883667e-02 9.307368658483028412e-03 5.753213167190551758e-01
-9.222754836082458496e-02 -3.112377040088176727e-02 3.965126350522041321e-02
-7.105737924575805664e-01 3.526635095477104187e-02 3.452112153172492981e-02
1.498709321022033691e-01 -3.247005864977836609e-02 -4.264486432075500488e-01
-4.933396726846694946e-02 -7.005442678928375244e-02 2.802760601043701172e-01
5.882982164621353149e-03 4.047711938619613647e-02 7.688518166542053223e-01
1.676519215106964111e-01 -9.981019794940948486e-02 -6.980327889323234558e-03
2.527624368667602539e-02 5.958514288067817688e-03 -2.515602111816406250e-01
3.608210682868957520e-01 -7.993087917566299438e-02 -4.147459566593170166e-02
-9.648989140987396240e-02 -9.460818767547607422e-02 3.243594244122505188e-02
-1.364127695560455322e-01 -9.266216307878494263e-02 -3.029442429542541504e-01
-3.425481021404266357e-01 -3.483923524618148804e-02 3.202526867389678955e-01
-2.564093470573425293e-01 -9.060365706682205200e-02 -4.593342915177345276e-02
-2.573818862438201904e-01 -8.810716867446899414e-02 -4.491857588291168213e-01
-1.844293251633644104e-02 4.679968208074569702e-02 1.124709323048591614e-01
-3.310690447688102722e-02 -3.299603238701820374e-02 -2.576723508536815643e-02
5.436428785324096680e-01 3.802403435111045837e-02 3.405139222741127014e-02
-6.172322854399681091e-02 -6.129439454525709152e-03 -4.386185407638549805e-01
1.317725926637649536e-01 -5.482023116201162338e-03 3.905315697193145752e-01
-3.849674761295318604e-01 -1.036315783858299255e-01 4.099749028682708740e-01
-2.874770760536193848e-02 1.008637715131044388e-02 -1.609302014112472534e-01
7.093756198883056641e-01 1.424613893032073975e-01 2.885312773287296295e-03
3.408013880252838135e-01 4.929353669285774231e-02 -7.276608049869537354e-02
2.937563927844166756e-03 -3.322385018691420555e-03 -4.654706716537475586e-01
-1.084895152598619461e-02 -1.186035200953483582e-01 4.257919490337371826e-01
1.199153736233711243e-01 -1.189549118280410767e-01 -3.371673822402954102e-01
5.045183300971984863e-01 1.395251303911209106e-01 3.570158034563064575e-02
3.595499098300933838e-01 -3.791534528136253357e-02 9.581285715103149414e-02
-1.210685372352600098e-01 -6.910636089742183685e-03 -4.143703579902648926e-01
6.752061843872070312e-02 -1.236950457096099854e-01 4.184378683567047119e-01
6.085406541824340820e-01 1.463651806116104126e-01 -2.480643391609191895e-01
-1.154146119952201843e-01 -6.298503279685974121e-02 4.539898931980133057e-01
7.471762597560882568e-02 -9.751876443624496460e-02 2.881255187094211578e-02
-5.141377449035644531e-02 -1.452909875661134720e-02 1.145573109388351440e-01
-2.861541807651519775e-01 -1.277379784733057022e-02 4.205421507358551025e-01
4.301622509956359863e-01 6.674417853355407715e-02 -1.846710219979286194e-02
1.314446032047271729e-01 2.116150036454200745e-02 1.264902651309967041e-01
-9.707120060920715332e-02 6.998254358768463135e-02 -9.235583245754241943e-02
-2.801717817783355713e-01 5.845771357417106628e-02 1.027696728706359863e-01
2.909632399678230286e-02 7.688135839998722076e-03 -5.852034687995910645e-01
4.279848188161849976e-02 8.563903719186782837e-02 3.999030217528343201e-02
6.876945495605468750e-02 -6.421889178454875946e-03 -1.209177151322364807e-01
3.323194980621337891e-01 6.670675426721572876e-02 -2.208899706602096558e-02
5.205613374710083008e-01 1.783091574907302856e-01 -1.291643176227807999e-02
-3.481830954551696777e-01 -4.082632064819335938e-02 4.247388243675231934e-01
-1.204105690121650696e-01 -7.506033778190612793e-02 -8.949623256921768188e-02
8.995047211647033691e-02 -3.841305151581764221e-02 -1.294633150100708008e-01
-3.656923770904541016e-01 -7.335719466209411621e-02 8.265105634927749634e-02
-6.608889102935791016e-01 -6.101113185286521912e-02 -4.633269086480140686e-02
-1.188268736004829407e-01 4.549099504947662354e-02 1.158463656902313232e-01
-6.246282160282135010e-02 -1.173020992428064346e-02 3.620767891407012939e-01
-4.714894294738769531e-01 3.211817145347595215e-02 1.009769365191459656e-01
-1.283967345952987671e-01 -8.601581305265426636e-02 -4.554299712181091309e-01
6.314430236816406250e-01 2.690954804420471191e-01 -1.153816841542720795e-02
2.976822257041931152e-01 -8.026532828807830811e-02 -5.822175741195678711e-02
8.351077139377593994e-02 -6.741516757756471634e-03 -3.591559827327728271e-01
4.527023136615753174e-01 1.375913806259632111e-02 8.374092727899551392e-02
-2.772253751754760742e-01 -8.313069120049476624e-03 1.578227579593658447e-01
5.702482461929321289e-01 6.671830266714096069e-02 -2.532099187374114990e-02
-6.535547226667404175e-02 -7.489862386137247086e-03 4.149549305438995361e-01
-4.022417962551116943e-01 -3.326887637376785278e-02 3.814783096313476562e-01
-1.757344305515289307e-01 2.070082351565361023e-02 3.563492298126220703e-01
4.895032197237014771e-02 5.671951919794082642e-02 -9.955530166625976562e-01
2.686859667301177979e-01 -7.131859660148620605e-02 7.509699463844299316e-02
1.972603797912597656e-01 -9.220527112483978271e-02 -3.812610507011413574e-01
-3.028472065925598145e-01 9.233286976814270020e-02 2.247467823326587677e-02
-6.527713537216186523e-01 5.550495535135269165e-02 5.808431655168533325e-03
7.038659602403640747e-02 4.268060624599456787e-02 9.411451816558837891e-01
-1.593858301639556885e-01 9.088677354156970978e-03 -2.846429683268070221e-02
4.810197353363037109e-01 6.841646879911422729e-02 1.691671274602413177e-02
-2.379166483879089355e-01 -3.299603238701820374e-02 -1.838149875402450562e-02
1.478112339973449707e-01 -5.688416212797164917e-02 1.110584512352943420e-01
2.526887357234954834e-01 -5.494809523224830627e-02 -1.043003499507904053e-01
-4.784512892365455627e-02 -8.812409639358520508e-02 -3.027093112468719482e-01
-1.407657004892826080e-02 -8.983021974563598633e-02 5.297840386629104614e-02
-5.656093955039978027e-01 -7.823668420314788818e-02 -3.759966418147087097e-02
-7.691416889429092407e-02 1.276631839573383331e-02 -3.939973115921020508e-01
-3.512220978736877441e-01 -1.204585097730159760e-02 -3.679563999176025391e-01
5.704426392912864685e-02 5.929495394229888916e-02 -5.724261049181222916e-03
1.113052889704704285e-01 -1.337516605854034424e-01 3.656184673309326172e-01
3.067912533879280090e-02 3.942198306322097778e-02 -7.681497931480407715e-01
-2.692182958126068115e-01 -1.802298426628112793e-02 1.107326149940490723e-02
3.202999383211135864e-02 -1.261795908212661743e-01 4.155263006687164307e-01
4.187479317188262939e-01 5.070346593856811523e-02 4.207807406783103943e-02
1.607527583837509155e-02 7.368706166744232178e-02 -8.102887868881225586e-02
5.476176142692565918e-01 1.544392406940460205e-01 -3.716925159096717834e-02
5.401610136032104492e-01 2.385105192661285400e-01 -5.072656087577342987e-03
5.521148443222045898e-01 -1.442876271903514862e-02 7.442270219326019287e-02
5.379929542541503906e-01 1.514022648334503174e-01 -9.957882761955261230e-02
-4.069550931453704834e-01 6.168390437960624695e-02 -9.390310198068618774e-02
3.655711933970451355e-02 -9.612917155027389526e-02 -3.075917959213256836e-01
-8.960662782192230225e-02 1.161801815032958984e-01 3.195555880665779114e-02
-5.388487577438354492e-01 6.766453385353088379e-02 4.245274513959884644e-02
6.791887879371643066e-01 1.476668715476989746e-01 -1.064036488533020020e-01
-2.364951930940151215e-02 -1.688746809959411621e-01 -2.194980829954147339e-01
7.260974645614624023e-01 2.056251764297485352e-01 -2.312924480065703392e-03
-4.911666810512542725e-01 6.273357570171356201e-02 -7.143969833850860596e-02
-5.521205663681030273e-01 7.237770408391952515e-02 -2.388302609324455261e-02
-4.059019088745117188e-01 -1.067790612578392029e-01 -3.950454890727996826e-01
-7.637605667114257812e-01 7.529269438236951828e-03 4.314196482300758362e-02
-2.156304270029067993e-01 -7.712283730506896973e-02 7.682502269744873047e-02
-3.059459030628204346e-01 6.938948063179850578e-04 3.517543971538543701e-01
9.373581409454345703e-02 3.824929147958755493e-02 -8.862800002098083496e-01
-3.574274778366088867e-01 -7.955063134431838989e-02 3.143369555473327637e-01
-3.306708633899688721e-01 -1.356489062309265137e-01 -3.720375895500183105e-01
-2.237599343061447144e-01 -2.932183444499969482e-03 3.662814199924468994e-01
8.820123970508575439e-02 4.243829473853111267e-02 -9.364356994628906250e-01
6.146056652069091797e-01 1.530307531356811523e-01 1.570400409400463104e-02
-3.326746225357055664e-01 -1.210711449384689331e-01 4.123240709304809570e-01
-5.155830979347229004e-01 -6.862401962280273438e-02 6.408408284187316895e-02
3.051946163177490234e-01 4.197434335947036743e-02 -9.079951792955398560e-02
5.521466732025146484e-01 1.168705001473426819e-01 1.559530664235353470e-02
2.764651179313659668e-01 1.029610820114612579e-02 -1.182619631290435791e-01
-1.517062485218048096e-01 5.710902437567710876e-02 -1.108202785253524780e-01
5.986462235450744629e-01 1.838201843202114105e-02 1.792327128350734711e-02
-6.021409034729003906e-01 6.541511416435241699e-02 -4.849853925406932831e-03
-2.330690026283264160e-01 -1.364970058202743530e-01 -4.004435837268829346e-01
2.977648377418518066e-01 2.224112115800380707e-02 1.026432588696479797e-01
-1.777640730142593384e-01 1.162408478558063507e-02 -4.960148334503173828e-01
-4.933426529169082642e-02 1.379848271608352661e-01 1.149292662739753723e-02
1.563749462366104126e-01 1.465420890599489212e-02 1.275503784418106079e-01
-1.828784868121147156e-02 -5.415574461221694946e-02 -1.180519312620162964e-01
6.757018566131591797e-01 2.513069473206996918e-02 -2.588509209454059601e-02
-4.014185965061187744e-01 -6.595034897327423096e-02 -3.810788989067077637e-01
-5.202177166938781738e-01 7.654049992561340332e-02 -2.266354858875274658e-02
6.361702084541320801e-01 1.522413790225982666e-01 3.722117468714714050e-02
-1.937553137540817261e-01 -4.348416253924369812e-02 2.935796976089477539e-01
-7.963959872722625732e-02 -1.641779020428657532e-02 2.430437356233596802e-01
-4.143848121166229248e-01 6.807743757963180542e-02 7.504583150148391724e-02
-6.419283747673034668e-01 -9.554942138493061066e-03 -8.594400435686111450e-02
6.450422406196594238e-01 1.744439899921417236e-01 -1.649499870836734772e-02
2.178544104099273682e-01 -4.871085658669471741e-02 -4.151039421558380127e-01
1.929432898759841919e-01 -1.230311021208763123e-01 -3.709764778614044189e-01
-1.414515227079391479e-01 -1.537758391350507736e-02 -2.785208523273468018e-01
-7.085013389587402344e-01 -1.651199907064437866e-01 -9.755330160260200500e-03
6.113894581794738770e-01 2.190490020439028740e-03 5.602445453405380249e-02
1.537619829177856445e-01 -4.027626290917396545e-02 -3.251229524612426758e-01
2.447627019137144089e-03 1.605734042823314667e-02 -6.806294322013854980e-01
2.576438784599304199e-01 -8.967493474483489990e-02 3.086648136377334595e-02
-2.929717302322387695e-01 -1.397460103034973145e-01 3.681428432464599609e-01
-3.997343406081199646e-02 2.861661836504936218e-02 7.911748290061950684e-01
1.930816471576690674e-01 -7.280828431248664856e-03 1.265509873628616333e-01
5.689063668251037598e-01 1.443852037191390991e-01 -2.388846725225448608e-01
-1.847976297140121460e-01 -7.593531161546707153e-02 -8.619455248117446899e-02
5.684206485748291016e-01 1.544243097305297852e-01 1.324375253170728683e-02
-2.613485753536224365e-01 -6.897739320993423462e-02 9.142509847879409790e-02
4.889212846755981445e-01 -3.266048058867454529e-02 8.174712210893630981e-02
-5.605238303542137146e-02 -2.271389812231063843e-01 -2.167776226997375488e-01
-7.023198157548904419e-02 -1.635228842496871948e-02 1.558996438980102539e-01
3.735613450407981873e-02 3.110414557158946991e-02 2.313841879367828369e-02
5.004361271858215332e-01 4.920313507318496704e-02 -7.347892969846725464e-03
-5.527765154838562012e-01 -6.500869244337081909e-02 -6.908625364303588867e-02
-1.601114720106124878e-01 -3.946987912058830261e-02 -1.273371130228042603e-01
2.237810790538787842e-01 -6.271925568580627441e-02 -1.000619977712631226e-01
1.934987306594848633e-02 -3.097664378583431244e-02 4.444807469844818115e-01
-4.562875255942344666e-02 -3.724524006247520447e-02 4.498002231121063232e-01
6.076775863766670227e-02 -1.750732306391000748e-03 1.145573109388351440e-01
-7.527473568916320801e-02 -5.920744687318801880e-02 -1.117271035909652710e-01
-6.759614497423171997e-02 -5.969719588756561279e-02 -4.596146941184997559e-01
-2.615765333175659180e-01 -1.695750281214714050e-02 -1.365675479173660278e-01
-2.813503332436084747e-02 3.961748257279396057e-02 8.971371650695800781e-01
6.388568282127380371e-01 -4.701757058501243591e-02 -4.129860550165176392e-02
-8.402238041162490845e-02 -1.141669899225234985e-01 3.118185997009277344e-01
-2.128950133919715881e-02 -2.326117455959320068e-01 2.326407283544540405e-01
1.698587834835052490e-02 6.232286617159843445e-02 2.672049961984157562e-02
-7.908814400434494019e-02 -2.151293456554412842e-01 2.115758657455444336e-01
-1.078285947442054749e-01 -5.524429958313703537e-03 4.294819533824920654e-01
1.157607361674308777e-01 -1.002591252326965332e-01 3.128229379653930664e-01
-3.540470823645591736e-02 -3.330746898427605629e-03 -3.195058405399322510e-01
-1.510134339332580566e-01 -5.802347324788570404e-03 4.057832360267639160e-01
1.035406962037086487e-01 -6.795763969421386719e-03 -2.981762290000915527e-01
5.968196988105773926e-01 2.272375077009201050e-01 7.501633372157812119e-03
-1.398220509290695190e-01 -8.970935828983783722e-03 4.240387305617332458e-02
3.253509057685732841e-03 -1.288671940565109253e-01 -3.371216058731079102e-01
6.936471462249755859e-01 1.426858454942703247e-01 1.267948597669601440e-01
-8.175981789827346802e-02 6.645610928535461426e-02 9.193145483732223511e-02
4.758246839046478271e-01 7.676592096686363220e-03 -9.012512117624282837e-02
-1.201925519853830338e-02 4.619783535599708557e-02 -8.465999960899353027e-01
-4.242502525448799133e-02 8.587495237588882446e-02 -5.161164700984954834e-02
-2.973246872425079346e-01 -9.536470472812652588e-02 3.936893772333860397e-03
1.364817004650831223e-02 1.740313321352005005e-02 3.589133918285369873e-01
9.010893851518630981e-02 5.436392500996589661e-02 9.622787237167358398e-01
-1.054953560233116150e-01 -9.608238935470581055e-02 -3.049350380897521973e-01
-5.912521108984947205e-02 -7.725720107555389404e-02 -8.701885491609573364e-02
-6.311979144811630249e-02 2.429289976134896278e-03 -5.396436452865600586e-01
2.337640523910522461e-02 -2.173881046473979950e-03 2.559678070247173309e-02
1.252480894327163696e-01 -1.297321915626525879e-01 -3.967764973640441895e-01
-2.688848376274108887e-01 -1.329812258481979370e-01 4.021051824092864990e-01
-1.389281600713729858e-01 -1.274985074996948242e-01 3.276734650135040283e-01
7.941257208585739136e-02 4.480353742837905884e-02 -8.530133962631225586e-01
3.415001928806304932e-02 3.368793055415153503e-02 8.540797233581542969e-01
-4.189159274101257324e-01 -5.222863703966140747e-02 1.009540408849716187e-01
-2.006883323192596436e-01 -2.644175849854946136e-02 1.284114122390747070e-01
-4.197510480880737305e-01 8.489457517862319946e-02 2.929900772869586945e-02
-1.821697354316711426e-01 -1.386167667806148529e-02 -2.572559416294097900e-01
4.865010082721710205e-02 2.966478466987609863e-02 -8.152247071266174316e-01
4.310272634029388428e-01 -7.959641516208648682e-02 -1.026689074933528900e-02
-6.602240353822708130e-02 -2.045441865921020508e-01 2.410151064395904541e-01
-3.780453801155090332e-01 -2.902285754680633545e-02 1.231845244765281677e-01
-1.600318402051925659e-01 7.397781312465667725e-02 -8.742258697748184204e-02
1.268496066331863403e-01 -8.720035851001739502e-02 -4.400061070919036865e-01
-7.153895497322082520e-02 -1.800616271793842316e-02 -3.064938783645629883e-01
6.549445986747741699e-01 1.388500332832336426e-01 -7.669665664434432983e-02
-1.032646447420120239e-01 2.354520745575428009e-02 -7.173600196838378906e-01
6.967488676309585571e-02 3.974788263440132141e-02 -7.895002961158752441e-01
2.019069641828536987e-01 8.154332637786865234e-02 1.355063635855913162e-02
-3.565485477447509766e-01 6.454223394393920898e-02 -9.954030066728591919e-02
-3.456448391079902649e-02 -2.473254315555095673e-02 1.204358693212270737e-02
2.435449212789535522e-01 3.699428215622901917e-02 -1.077713444828987122e-01
-9.652370586991310120e-03 -1.499691628850996494e-03 -4.933690130710601807e-01
-1.460005491971969604e-01 -1.551883667707443237e-02 1.918647736310958862e-01
5.503121614456176758e-01 1.107820868492126465e-01 -2.239916846156120300e-02
-6.635785847902297974e-02 -7.246630638837814331e-02 8.935423940420150757e-02
2.783772945404052734e-01 -6.453388184309005737e-02 -9.005027264356613159e-02
6.956578493118286133e-01 1.960762143135070801e-01 -9.942586533725261688e-03
-4.119808226823806763e-02 -9.829021245241165161e-02 2.701497375965118408e-01
5.031227469444274902e-01 2.303406409919261932e-02 6.809827685356140137e-02
6.708124279975891113e-01 1.379730850458145142e-01 2.692877054214477539e-01
-5.384556055068969727e-01 -1.954393461346626282e-03 -1.052420064806938171e-01
-3.582805395126342773e-02 8.236706256866455078e-03 -2.487690895795822144e-01
-2.979397960007190704e-02 -9.578575938940048218e-02 4.431917071342468262e-01
-7.714599967002868652e-01 -1.556502562016248703e-02 -5.119575932621955872e-02
-3.431592881679534912e-01 8.126511424779891968e-02 -6.948013603687286377e-02
6.368958353996276855e-01 1.477938890457153320e-01 1.880135387182235718e-01
-2.947256155312061310e-02 2.027648314833641052e-02 -3.871279954910278320e-01
-3.205117285251617432e-01 9.112394601106643677e-02 -3.677486628293991089e-02
-2.161291390657424927e-01 -1.261284016072750092e-02 -1.881446838378906250e-01
-2.312055975198745728e-02 8.921946398913860321e-03 1.988266706466674805e-01
1.159815192222595215e-01 6.137666478753089905e-02 -9.963507205247879028e-02
-1.733693331480026245e-01 -1.448729261755943298e-02 -2.231512367725372314e-01
-6.445263326168060303e-02 -1.723864823579788208e-01 2.410151064395904541e-01
5.020437836647033691e-01 1.506616622209548950e-01 6.400205940008163452e-02
1.719929091632366180e-02 1.414475962519645691e-02 -4.033203125000000000e-01
-2.907340526580810547e-01 7.447074353694915771e-02 7.921221107244491577e-02
-3.294166624546051025e-01 -8.247016370296478271e-02 -4.432004094123840332e-01
-5.879015922546386719e-01 2.767545729875564575e-02 7.918653637170791626e-02
-1.983501166105270386e-01 3.098708577454090118e-02 -4.224972054362297058e-02
2.322659492492675781e-01 -2.009941264986991882e-02 1.190456151962280273e-01
-6.639060378074645996e-01 -2.123830318450927734e-01 -1.263138651847839355e-02
-2.179507166147232056e-01 4.210377577692270279e-03 2.717931866645812988e-01
5.022567510604858398e-01 1.272630318999290466e-02 1.103792432695627213e-02
6.504234671592712402e-01 1.370516270399093628e-01 -1.984919756650924683e-01
-1.218917369842529297e-01 1.691757328808307648e-02 -4.769218564033508301e-01
-2.979637384414672852e-01 -5.769442394375801086e-02 -1.105764061212539673e-01
2.510035876184701920e-03 1.896582730114459991e-02 -7.106718420982360840e-01
-1.083302795886993408e-01 1.070821098983287811e-02 -1.375689357519149780e-01
-1.219355128705501556e-02 -1.543502416461706161e-02 1.837780624628067017e-01
5.248523876070976257e-02 -9.226299822330474854e-02 -5.430999770760536194e-02
2.194809168577194214e-01 -1.153236478567123413e-01 -3.969347476959228516e-01
-4.996535778045654297e-01 -4.590350389480590820e-02 -9.880449622869491577e-02
1.863925009965896606e-01 2.613267302513122559e-02 -1.238909959793090820e-01
-1.883651763200759888e-01 7.845307886600494385e-02 -8.023612946271896362e-02
2.020712047815322876e-01 6.153101474046707153e-02 -8.498094975948333740e-02
1.808709837496280670e-02 6.874889135360717773e-03 2.214781939983367920e-01
1.797292381525039673e-01 -9.555183351039886475e-02 -3.911457955837249756e-02
-1.582371145486831665e-01 1.043905131518840790e-02 1.826831102371215820e-01
-2.327833175659179688e-01 -1.054093688726425171e-01 -4.418456256389617920e-01
5.704426392912864685e-02 -2.926710061728954315e-03 -2.212563157081604004e-02
-4.594947397708892822e-02 -8.976551890373229980e-02 5.160583183169364929e-02
4.847955889999866486e-03 -1.484155841171741486e-02 -1.495974510908126831e-01
-2.255198210477828979e-01 6.637727469205856323e-02 9.613138437271118164e-02
4.408584535121917725e-02 -1.003855466842651367e-01 -4.462771713733673096e-01
-1.139015853404998779e-01 1.495395302772521973e-01 -3.263376187533140182e-03
-1.373494565486907959e-01 6.159523618407547474e-04 -1.396752148866653442e-01
-4.894495755434036255e-02 -9.847933053970336914e-02 -5.049144383519887924e-03
-4.396373406052589417e-02 1.172269582748413086e-01 -2.105745673179626465e-02
-6.124543547630310059e-01 -3.001976013183593750e-02 -8.645067363977432251e-02
1.155839562416076660e-01 6.318240612745285034e-02 9.023607522249221802e-02
-2.214874178171157837e-01 1.226467713713645935e-01 1.605856977403163910e-02
-8.148409426212310791e-02 5.434928927570581436e-03 -5.641416311264038086e-01
-1.722922921180725098e-01 5.608658120036125183e-02 1.060764268040657043e-01
-5.212648585438728333e-02 -2.194534242153167725e-01 -2.473775148391723633e-01
-7.489150017499923706e-02 1.343473419547080994e-02 -3.377536833286285400e-01
-3.176100850105285645e-01 -2.683415077626705170e-02 -3.220182657241821289e-01
-1.074861809611320496e-01 4.871725570410490036e-03 -4.689788445830345154e-02
-2.230790853500366211e-01 -6.101168226450681686e-03 -4.317541718482971191e-01
-3.326009958982467651e-02 -1.181840524077415466e-02 3.575904965400695801e-01
-1.507566124200820923e-01 7.350494153797626495e-03 5.408940911293029785e-01
-1.054157242178916931e-01 -9.711661934852600098e-02 4.410539288073778152e-03
7.646396756172180176e-02 2.348662819713354111e-03 -2.553139030933380127e-01
1.881922036409378052e-01 -1.166943237185478210e-01 3.440200686454772949e-01
2.121955007314682007e-01 -1.179933324456214905e-01 3.841231167316436768e-01
1.329775452613830566e-01 -2.688621543347835541e-02 -1.349977850914001465e-01
-1.271504759788513184e-01 -3.299603238701820374e-02 -1.213444047607481480e-03
-2.214505970478057861e-01 5.961899645626544952e-03 2.219958156347274780e-01
4.175484478473663330e-01 1.471791602671146393e-02 8.859842270612716675e-02
-9.120027720928192139e-02 -5.560428835451602936e-04 -5.004165172576904297e-01
-2.460262477397918701e-01 4.779451061040163040e-03 1.873187422752380371e-01
-1.184565667062997818e-02 -1.399092674255371094e-01 3.736663460731506348e-01
-4.634664356708526611e-01 -7.718155533075332642e-02 -6.496765464544296265e-02
-3.660304937511682510e-03 -1.852068863809108734e-02 -3.096542954444885254e-01
4.980464279651641846e-02 7.276734337210655212e-03 3.650470972061157227e-01
-2.055260390043258667e-01 -1.325641423463821411e-01 -3.454760611057281494e-01
-3.794917166233062744e-01 -9.269700199365615845e-02 -3.223202005028724670e-02
-2.340176105499267578e-01 -1.266235411167144775e-01 -3.350919485092163086e-01
5.460087209939956665e-02 -3.844639658927917480e-02 -4.524607062339782715e-01
6.528463363647460938e-01 3.362382203340530396e-02 -1.438366714864969254e-03
8.843825012445449829e-02 2.510979212820529938e-02 -7.432636022567749023e-01
5.130529999732971191e-01 -6.780479848384857178e-02 -4.000218585133552551e-02
-7.401155680418014526e-02 2.015733160078525543e-02 -7.044037580490112305e-01
5.056285485625267029e-02 8.575380593538284302e-02 -4.540775716304779053e-02
-3.153057396411895752e-01 -1.332888007164001465e-01 3.422880768775939941e-01
2.541251480579376221e-01 7.597182691097259521e-02 1.043012738227844238e-02
4.732664823532104492e-01 1.272630318999290466e-02 1.042495109140872955e-02
6.141139268875122070e-01 -5.039210245013237000e-02 3.853252157568931580e-02
-1.194430291652679443e-01 -1.046215742826461792e-02 -3.736411929130554199e-01
5.196615457534790039e-01 1.370147913694381714e-01 5.915279500186443329e-03
-4.450682997703552246e-01 -2.228811942040920258e-02 1.134105995297431946e-01
-5.405837893486022949e-01 5.037163943052291870e-02 7.126516103744506836e-02
1.233978271484375000e-01 -4.716946557164192200e-02 -3.145019114017486572e-01
-3.402128815650939941e-01 7.521472126245498657e-02 7.505687326192855835e-02
1.993985176086425781e-01 -7.607863843441009521e-02 -8.536010235548019409e-02
3.279048949480056763e-02 1.134327892214059830e-02 -3.478879630565643311e-01
4.566789865493774414e-01 1.272630318999290466e-02 -1.558977179229259491e-02
-8.103316277265548706e-02 -5.500084906816482544e-02 1.098768934607505798e-01
-1.895029246807098389e-01 -3.044768609106540680e-02 3.817636519670486450e-02
6.460515856742858887e-01 8.215789496898651123e-02 -1.984634064137935638e-02
-2.639485895633697510e-01 1.748575270175933838e-02 1.300140172243118286e-01
4.976948201656341553e-01 -6.804767996072769165e-02 3.715796396136283875e-02
1.406293511390686035e-01 -7.503943890333175659e-02 8.997448533773422241e-02
-3.298825025558471680e-02 -1.506062340922653675e-03 4.908449351787567139e-01
4.562958702445030212e-02 -9.846540540456771851e-02 -2.029546909034252167e-02
6.065747141838073730e-01 -6.908544804900884628e-03 -6.512930244207382202e-02
-1.189134716987609863e-01 -1.588315889239311218e-02 3.019112646579742432e-01
-2.902274131774902344e-01 5.971914157271385193e-02 -1.073682010173797607e-01
6.734333634376525879e-01 2.331362962722778320e-01 5.346063990145921707e-03
1.944623142480850220e-02 -1.431150175631046295e-02 2.729528248310089111e-01
9.141442179679870605e-02 3.589140949770808220e-03 -1.652204096317291260e-01
-2.643666565418243408e-01 -6.800587475299835205e-02 -3.032965958118438721e-01
-4.986531659960746765e-02 4.242560267448425293e-02 -8.137494921684265137e-01
8.590373396873474121e-02 2.236435376107692719e-02 -6.095741391181945801e-01
6.601983904838562012e-01 1.503296047449111938e-01 5.834285914897918701e-02
-3.173652291297912598e-02 -1.736934632062911987e-01 2.410151064395904541e-01
-1.534024178981781006e-01 -3.009063191711902618e-02 1.265440136194229126e-01
-2.509724497795104980e-01 8.798880875110626221e-02 -5.520088970661163330e-02
1.496022008359432220e-02 8.462664671242237091e-03 -1.670141369104385376e-01
2.948413603007793427e-02 -1.786531135439872742e-02 3.056758940219879150e-01
6.481499969959259033e-02 8.140675723552703857e-02 5.296904593706130981e-02
2.969307266175746918e-02 -4.858643189072608948e-02 -1.231026351451873779e-01
-7.061731219291687012e-01 4.138772189617156982e-02 -2.852103672921657562e-02
5.307503938674926758e-01 -4.958881437778472900e-02 6.184968724846839905e-02
-3.615295588970184326e-01 -8.659116178750991821e-02 5.300547555088996887e-02
-1.651840806007385254e-01 -1.477257814258337021e-02 2.183884531259536743e-01
-1.419800966978073120e-01 -9.493965655565261841e-02 -2.847086824476718903e-02
-2.680417001247406006e-01 -8.346857130527496338e-02 -7.041243463754653931e-02
-4.241875931620597839e-02 -1.609249413013458252e-02 1.797247678041458130e-01
-1.645261198282241821e-01 -1.155963912606239319e-01 -4.364405870437622070e-01
1.020406186580657959e-01 1.655061030760407448e-03 1.703221201896667480e-01
-4.093530029058456421e-02 1.362326554954051971e-02 4.070583581924438477e-01
6.170045733451843262e-01 1.494595110416412354e-01 1.520623266696929932e-01
-6.244758963584899902e-01 4.855676740407943726e-02 -5.247108265757560730e-02
8.497273176908493042e-02 2.862896211445331573e-02 6.714349985122680664e-01
-5.664644241333007812e-01 1.084517594426870346e-02 -9.771741181612014771e-02
-7.187043875455856323e-02 -1.404692325741052628e-02 -1.209177151322364807e-01
5.383174419403076172e-01 1.388905495405197144e-01 -1.251661330461502075e-01
5.543146729469299316e-01 1.486444622278213501e-01 -1.642886996269226074e-01
-2.638520300388336182e-01 1.267941668629646301e-02 -1.372802555561065674e-01
-4.298823475837707520e-01 7.683634012937545776e-02 -5.918322503566741943e-02
-5.308705568313598633e-02 2.022167900577187538e-03 3.178925812244415283e-01
-1.899389177560806274e-01 2.962731523439288139e-03 1.332600563764572144e-01
-3.864446580410003662e-01 -4.312153905630111694e-02 -1.197978779673576355e-01
-7.633523941040039062e-01 -4.376327991485595703e-02 2.758590877056121826e-02
-2.057052031159400940e-02 1.254846751689910889e-01 1.775156334042549133e-02
-1.005650982260704041e-01 3.168785199522972107e-02 7.034195661544799805e-01
-2.762537822127342224e-02 -1.054909974336624146e-01 -3.122901320457458496e-01
2.842604648321866989e-03 1.020383369177579880e-02 -6.197402477264404297e-01
-5.326672792434692383e-01 -8.623579889535903931e-02 8.271682076156139374e-03
-3.545646965503692627e-01 -8.650256693363189697e-02 -5.969585850834846497e-02
-6.839237213134765625e-01 4.780059680342674255e-02 1.713848859071731567e-02
-2.578095998615026474e-03 2.133101783692836761e-02 -5.430768132209777832e-01
5.905067920684814453e-01 1.507268697023391724e-01 -1.312849074602127075e-01
5.097104310989379883e-01 2.547351270914077759e-02 -2.531153522431850433e-02
-2.040727064013481140e-02 -1.567491330206394196e-02 -2.252157181501388550e-01
-4.375101625919342041e-02 2.312175929546356201e-02 7.381205558776855469e-01
-3.437176719307899475e-02 1.608212478458881378e-02 -6.791024804115295410e-01
2.297664582729339600e-01 -9.071315079927444458e-02 3.519809991121292114e-02
-5.760492682456970215e-01 5.615542083978652954e-02 -5.721888318657875061e-02
-3.355772495269775391e-01 -6.117591634392738342e-03 3.631647825241088867e-01
-8.650493621826171875e-02 8.031091094017028809e-02 6.641642749309539795e-02
6.771014630794525146e-02 3.131850855425000191e-03 5.044541358947753906e-01
-4.334896802902221680e-01 5.408839508891105652e-02 9.021189063787460327e-02
-2.413687258958816528e-01 -9.203705191612243652e-02 3.469134122133255005e-02
6.876955926418304443e-02 -5.896755680441856384e-02 4.489760398864746094e-01
7.426173090934753418e-01 1.094203069806098938e-02 -2.387824654579162598e-02
2.379238605499267578e-01 5.796464905142784119e-02 7.621165364980697632e-02
2.397792935371398926e-01 2.601163275539875031e-02 1.093652546405792236e-01
-2.484739758074283600e-02 1.656559482216835022e-02 6.790927648544311523e-01
-9.193688631057739258e-02 -3.738465951755642891e-03 4.559707641601562500e-01
-1.658888310194015503e-01 8.128108456730842590e-03 2.563195228576660156e-01
4.580476582050323486e-01 -4.821813479065895081e-02 -8.145053684711456299e-02
-6.358761340379714966e-03 9.798006154596805573e-03 1.425332874059677124e-01
-1.662023812532424927e-01 5.379548668861389160e-02 4.351026937365531921e-02
-7.157877832651138306e-02 1.438973005861043930e-02 -6.523309946060180664e-01
3.864150494337081909e-02 -8.242736756801605225e-02 -7.997404038906097412e-02
6.252107620239257812e-01 2.042429894208908081e-02 3.988309577107429504e-02
1.686771959066390991e-01 -9.755261242389678955e-02 2.419305406510829926e-02
-4.262600243091583252e-01 -9.259845316410064697e-02 3.952268743887543678e-04
-3.756753206253051758e-01 -2.130146697163581848e-02 3.838314712047576904e-01
-1.803949177265167236e-01 6.059468910098075867e-02 -1.077116131782531738e-01
5.571829155087471008e-02 1.080434173345565796e-01 1.060293056070804596e-02
5.842874646186828613e-01 1.482678055763244629e-01 -1.950717270374298096e-01
-4.641074538230895996e-01 -4.772391542792320251e-02 9.728796035051345825e-02
-9.435075521469116211e-02 1.768742315471172333e-02 -6.716817021369934082e-01
6.557419300079345703e-01 1.387362778186798096e-01 8.366010338068008423e-02
3.172958269715309143e-02 -7.247824966907501221e-02 4.491422474384307861e-01
-2.737862057983875275e-02 -1.329891681671142578e-01 4.031742811203002930e-01
-7.733224332332611084e-02 -1.641997881233692169e-02 2.745454907417297363e-01
-2.200221717357635498e-01 -5.363668780773878098e-03 -3.655524849891662598e-01
5.704426392912864685e-02 -5.490284878760576248e-03 8.379982784390449524e-03
-2.181259244680404663e-01 9.343408793210983276e-02 -1.577651128172874451e-02
4.840736687183380127e-01 1.483419686555862427e-01 -6.628566980361938477e-02
7.099021673202514648e-01 1.138565093278884888e-01 -1.000210177153348923e-02
9.400667250156402588e-02 -6.588067114353179932e-02 -1.068336665630340576e-01
6.011626496911048889e-02 3.669217601418495178e-02 8.803893923759460449e-01
6.006321310997009277e-02 5.441996734589338303e-03 1.832684129476547241e-01
2.642086520791053772e-02 4.561357665807008743e-03 3.277680277824401855e-01
5.749127268791198730e-01 4.091888293623924255e-02 -1.152406353503465652e-02
1.350893974304199219e-01 -1.137240231037139893e-01 3.275798857212066650e-01
-1.939862519502639771e-01 1.860717870295047760e-02 3.822915554046630859e-01
9.286951273679733276e-02 -5.147312209010124207e-02 3.003225922584533691e-01
-2.234553247690200806e-01 -1.668475754559040070e-02 -3.554075956344604492e-02
-2.187281474471092224e-02 8.849307149648666382e-02 -2.687126630917191505e-03
3.421033918857574463e-01 6.016756221652030945e-02 -4.728529974818229675e-02
-5.072057247161865234e-01 6.677006185054779053e-02 5.420544371008872986e-02
6.924874186515808105e-01 1.425056755542755127e-01 -2.488467395305633545e-01
-2.729849219322204590e-01 -4.683479492086917162e-04 -1.957685202360153198e-01
3.120599500834941864e-02 1.073821559548377991e-01 -2.399182505905628204e-02
-2.384949773550033569e-01 -3.595522837713360786e-03 -3.357021510601043701e-01
-3.063759207725524902e-01 -9.418015927076339722e-02 -2.310580946505069733e-02
7.369305491447448730e-01 3.772192820906639099e-02 -6.287712138146162033e-03
-2.684966288506984711e-02 -1.399560421705245972e-01 -3.761028349399566650e-01
7.987772673368453979e-02 2.865677000954747200e-03 3.404754102230072021e-01
2.956128120422363281e-02 3.245312720537185669e-02 -8.480224609375000000e-01
2.515301108360290527e-02 -3.299603238701820374e-02 -2.702652849256992340e-02
4.217709898948669434e-01 1.331054372712969780e-03 -1.000178009271621704e-01
5.106679797172546387e-01 -2.196749486029148102e-02 -8.879416435956954956e-02
-1.671848595142364502e-01 1.069437153637409210e-02 -1.748101860284805298e-01
1.376556605100631714e-01 -1.205296441912651062e-01 4.059912860393524170e-01
2.328313514590263367e-02 6.509372964501380920e-03 5.683444738388061523e-01
-1.470447331666946411e-01 9.616245515644550323e-03 -5.690878033638000488e-01
1.547066271305084229e-01 7.859960198402404785e-02 5.427562072873115540e-02
3.064338862895965576e-01 -8.912149816751480103e-02 -9.119014255702495575e-03
6.832122206687927246e-01 2.733359336853027344e-01 -9.120159782469272614e-03
1.950306817889213562e-02 -8.032263256609439850e-03 3.879783451557159424e-01
-1.227049902081489563e-01 1.865077950060367584e-02 -6.625239253044128418e-01
4.178828895092010498e-01 1.272630318999290466e-02 5.954816937446594238e-03
-2.365549355745315552e-01 -4.019469022750854492e-03 4.197856485843658447e-01
-2.206234037876129150e-01 -1.415741164237260818e-02 3.004964441061019897e-02
-1.842352151870727539e-01 -1.092138290405273438e-01 -3.151300251483917236e-01
-2.205696552991867065e-01 -1.253579184412956238e-02 1.605531722307205200e-01
-2.587555348873138428e-01 -2.020880579948425293e-02 -3.179410696029663086e-01
-3.554692026227712631e-03 2.595788054168224335e-02 -7.814833521842956543e-01
-6.142709255218505859e-01 -5.212013423442840576e-02 -7.047564536333084106e-02
-7.969315648078918457e-01 3.802157938480377197e-03 -3.661759570240974426e-02
-1.270797997713088989e-01 1.210599839687347412e-01 -3.884323313832283020e-02
-6.796454787254333496e-01 2.742959186434745789e-02 -2.676642872393131256e-02
5.656942129135131836e-01 1.489195972681045532e-01 1.630795300006866455e-01
-6.950554251670837402e-01 -5.898945778608322144e-02 -1.595737785100936890e-02
5.856243371963500977e-01 2.066867239773273468e-02 -5.655892938375473022e-02
-3.662893082946538925e-03 -3.925503231585025787e-03 4.533627927303314209e-01
-3.356329351663589478e-02 -1.756036430597305298e-01 -2.473775148391723633e-01
4.634726643562316895e-01 -7.387879490852355957e-02 -3.318214043974876404e-02
5.539842247962951660e-01 1.654041185975074768e-02 6.316064298152923584e-02
6.462308168411254883e-01 5.068262293934822083e-02 1.415196340531110764e-02
-3.818886727094650269e-02 4.786036908626556396e-02 -1.181564480066299438e-01
-5.696019157767295837e-02 2.199923805892467499e-02 5.347524285316467285e-01
5.399439334869384766e-01 -7.100404798984527588e-02 1.607476151548326015e-03
-1.369711905717849731e-01 -4.556745290756225586e-02 -4.603403210639953613e-01
7.783723622560501099e-02 -2.645739167928695679e-02 4.379787445068359375e-01
-2.119842469692230225e-01 5.458139255642890930e-02 -3.300326317548751831e-02
7.385679334402084351e-02 -8.658917248249053955e-02 -7.317250967025756836e-02
6.245139837265014648e-01 1.495537757873535156e-01 -1.488917171955108643e-01
2.827680483460426331e-02 5.617756024003028870e-02 1.010894179344177246e-01
-5.652191638946533203e-01 6.459349393844604492e-02 3.700128570199012756e-02
-3.496981039643287659e-02 -1.627618819475173950e-01 2.706125974655151367e-01
-7.132793664932250977e-01 -4.908469971269369125e-03 6.321867555379867554e-02
5.082615092396736145e-02 -1.286128908395767212e-02 1.515576690435409546e-01
-7.851011157035827637e-01 1.626577600836753845e-02 2.266290970146656036e-02
-4.536188393831253052e-02 3.216953203082084656e-02 -1.063409727066755295e-02
-6.723280996084213257e-02 -1.957895606756210327e-01 -2.190103381872177124e-01
-1.282832622528076172e-01 8.151864260435104370e-02 6.582137197256088257e-02
1.206903159618377686e-01 -7.996471226215362549e-02 8.031860738992691040e-02
6.636862754821777344e-01 1.467642337083816528e-01 1.843016445636749268e-01
6.748647242784500122e-02 -1.125880226027220488e-04 4.600151181221008301e-01
-2.572275996208190918e-01 4.780704528093338013e-02 1.152232438325881958e-01
-7.235917448997497559e-02 1.128285750746726990e-02 -1.512976139783859253e-01
1.764632910490036011e-01 -3.097694739699363708e-02 -3.392049968242645264e-01
2.252791821956634521e-02 -1.415771618485450745e-02 -3.038968443870544434e-01
-1.077648848295211792e-01 -9.701362811028957367e-03 -2.429273724555969238e-02
-4.593115672469139099e-02 -1.374167650938034058e-01 3.504693508148193359e-01
7.709984481334686279e-02 4.140315204858779907e-02 1.153586134314537048e-01
2.390884757041931152e-01 -7.096821069717407227e-02 3.746697306632995605e-01
-4.564756900072097778e-02 9.466635063290596008e-03 6.057211160659790039e-01
6.002906709909439087e-02 -7.614587433636188507e-03 -3.699412345886230469e-01
-1.677373051643371582e-01 1.143316552042961121e-02 -1.463474482297897339e-01
-1.687993854284286499e-02 2.787702903151512146e-02 -6.176956295967102051e-01
5.251939892768859863e-01 1.533851027488708496e-01 4.574048146605491638e-02
-1.445183902978897095e-01 -1.393648562952876091e-04 -4.782189130783081055e-01
2.134009450674057007e-01 -3.225833550095558167e-02 -3.942083418369293213e-01
-4.679965376853942871e-01 -7.961036264896392822e-02 5.305057018995285034e-02
-3.831011056900024414e-02 7.987060584127902985e-03 2.558885216712951660e-01
-4.655747115612030029e-02 1.763834804296493530e-02 -4.779620766639709473e-01
3.390643894672393799e-01 -5.733906850218772888e-02 8.262328803539276123e-02
-1.145157516002655029e-01 -1.604182459414005280e-02 2.671655118465423584e-01
9.668163210153579712e-02 2.152940444648265839e-02 -6.959547400474548340e-01
-1.332802027463912964e-01 -9.397809207439422607e-02 3.275825455784797668e-02
1.117141097784042358e-01 2.787653170526027679e-02 7.134134173393249512e-01
1.060421690344810486e-01 -9.824641048908233643e-02 -3.231284767389297485e-02
8.055440336465835571e-02 2.233140356838703156e-02 -7.178875803947448730e-01
6.240262389183044434e-01 3.218585625290870667e-02 -2.572552859783172607e-02
3.933530151844024658e-01 -7.627374678850173950e-02 -4.482225701212882996e-02
-1.325137168169021606e-02 4.627417400479316711e-02 9.644985198974609375e-01
-1.360365003347396851e-01 -1.729902625083923340e-02 -4.516872465610504150e-01
-5.385352298617362976e-02 -1.626140810549259186e-02 -2.096634358167648315e-01
4.004944115877151489e-03 -2.799131348729133606e-02 1.285288631916046143e-01
-9.625098854303359985e-02 1.768095232546329498e-02 4.712274074554443359e-01
-7.097048163414001465e-01 -2.324739098548889160e-02 -6.884944438934326172e-02
-3.587503731250762939e-01 -1.053436771035194397e-01 3.252934217453002930e-01
6.110390424728393555e-01 2.451230138540267944e-01 -1.286798529326915741e-02
-4.180180653929710388e-02 4.889021068811416626e-02 -9.212019443511962891e-01
6.609111428260803223e-01 1.480080038309097290e-01 1.446226537227630615e-01
3.988645970821380615e-01 5.775899812579154968e-02 2.596707269549369812e-02
5.926617980003356934e-01 1.522722244262695312e-01 8.087565004825592041e-02
-4.252496957778930664e-01 3.186026215553283691e-02 -1.165558323264122009e-01
-2.033271640539169312e-01 1.083843410015106201e-01 -3.656981512904167175e-02
5.313864350318908691e-01 6.857006251811981201e-02 -2.534428611397743225e-02
-6.171725988388061523e-01 2.687893249094486237e-02 -7.959598302841186523e-02
5.331482887268066406e-01 -2.590559190139174461e-03 -8.409006148576736450e-02
-5.550291761755943298e-02 -1.912594437599182129e-01 2.206161767244338989e-01
4.463354870676994324e-02 1.491749845445156097e-02 -4.810269474983215332e-01
-9.153772145509719849e-02 1.053933985531330109e-03 2.457160688936710358e-02
7.433379441499710083e-02 3.234362974762916565e-02 7.025047540664672852e-01
5.837101340293884277e-01 6.471215188503265381e-02 1.869809627532958984e-02
-6.230046749114990234e-01 -7.600597292184829712e-02 -1.114210486412048340e-02
-3.894836306571960449e-01 -4.744987189769744873e-02 -3.371534645557403564e-01
3.171823322772979736e-01 -8.511098474264144897e-02 -3.604045510292053223e-02
3.795666098594665527e-01 -8.331427723169326782e-02 5.766186863183975220e-03
-9.551239758729934692e-02 1.763396896421909332e-02 -4.765754640102386475e-01
-3.260909914970397949e-01 -1.354862377047538757e-02 4.092980325222015381e-01
6.025552153587341309e-01 -6.353449821472167969e-02 8.868331089615821838e-03
8.805063366889953613e-02 4.821868613362312317e-02 8.907476067543029785e-01
-4.820328205823898315e-02 2.706288360059261322e-02 -6.043751239776611328e-01
-1.469222549349069595e-02 1.400500535964965820e-02 -6.604216694831848145e-01
-2.731650769710540771e-01 8.007818460464477539e-02 -7.615724205970764160e-02
-1.308464407920837402e-01 -7.843478024005889893e-02 7.660195231437683105e-02
-3.848878145217895508e-01 -2.532680332660675049e-02 3.572470843791961670e-01
-5.746327638626098633e-01 6.891815364360809326e-02 1.204527914524078369e-02
-1.871139407157897949e-01 -6.269934773445129395e-02 9.996560215950012207e-02
6.138839721679687500e-01 -4.571208730340003967e-02 -4.949749633669853210e-02
-1.652985513210296631e-01 1.296221464872360229e-02 4.453925490379333496e-01
-2.475084215402603149e-01 -4.045732319355010986e-02 2.995153367519378662e-01
-2.587226927280426025e-01 5.087739601731300354e-02 -1.182420551776885986e-01
1.729853264987468719e-02 8.226181566715240479e-02 5.341319739818572998e-02
-1.109551638364791870e-02 4.641993343830108643e-02 8.429749608039855957e-01
-1.791407167911529541e-01 -1.280275918543338776e-02 3.122585713863372803e-01
-6.613139510154724121e-01 -1.589862853288650513e-01 -7.743289228528738022e-03
-6.087215244770050049e-02 -1.357260812073945999e-02 -4.420171678066253662e-02
5.235943198204040527e-01 3.637971356511116028e-02 1.921242661774158478e-02
1.788963680155575275e-03 1.345593761652708054e-02 -4.284703135490417480e-01
-1.510104537010192871e-01 -3.225704282522201538e-02 -2.846429683268070221e-02
-1.832517422735691071e-02 8.166132494807243347e-03 2.259217053651809692e-01
8.149527013301849365e-02 6.606351584196090698e-02 -9.259632974863052368e-02
-5.133184790611267090e-01 -6.430295109748840332e-02 -7.829587906599044800e-02
1.344345211982727051e-01 -3.663754090666770935e-02 4.277230501174926758e-01
-2.393789142370223999e-01 -7.160527259111404419e-02 -9.304954111576080322e-02
-8.403830975294113159e-02 -1.103123091161251068e-02 -3.754777312278747559e-01
-2.791863083839416504e-01 9.460887312889099121e-02 4.736585076898336411e-03
-5.351827144622802734e-01 1.979310996830463409e-02 9.463747590780258179e-02
3.936745524406433105e-01 -6.211703270673751831e-02 6.920048594474792480e-02
5.674123167991638184e-01 1.536648124456405640e-01 -5.416676029562950134e-02
-7.073065731674432755e-03 -1.022778227925300598e-01 3.037388324737548828e-01
-2.856913208961486816e-01 -2.193415164947509766e-02 1.288702934980392456e-01
-3.482945859432220459e-01 -1.234113499522209167e-01 -4.088348746299743652e-01
8.203318715095520020e-02 -1.066910382360219955e-02 2.564429640769958496e-01
-1.565080881118774414e-01 -1.155097931623458862e-01 3.126208782196044922e-01
-2.648474276065826416e-01 -1.131456941366195679e-01 -4.347762465476989746e-01
5.410233139991760254e-02 3.971234709024429321e-02 -9.203966259956359863e-01
-6.359698772430419922e-01 4.061468690633773804e-02 5.497300252318382263e-02
3.502995893359184265e-02 4.510715603828430176e-02 -9.769020676612854004e-01
-1.158028170466423035e-01 1.514509553089737892e-03 5.066918134689331055e-01
4.407604038715362549e-01 4.107834771275520325e-02 -2.027277462184429169e-02
-3.456448391079902649e-02 7.785035669803619385e-02 2.594198659062385559e-02
-1.964270025491714478e-01 -8.951468020677566528e-02 -5.130485817790031433e-02
3.996768593788146973e-01 5.547323822975158691e-02 -3.985416889190673828e-02
2.619988024234771729e-01 5.198167636990547180e-02 -8.761430531740188599e-02
5.290859937667846680e-01 1.472884267568588257e-01 -1.478863507509231567e-01
