3.367621898651123047e-01 -1.246991753578186035e-01 -4.783710241317749023e-01
1.797656118869781494e-01 -1.983106881380081177e-01 -3.581568598747253418e-01
5.772946029901504517e-02 7.462364435195922852e-01 2.697488069534301758e-01
8.841226994991302490e-02 3.843214511871337891e-01 2.106482386589050293e-01
7.215330004692077637e-02 -1.983106881380081177e-01 1.209279671311378479e-01
1.764331907033920288e-01 6.555477380752563477e-01 3.435755372047424316e-01
-3.323788344860076904e-01 -1.983106881380081177e-01 -4.186585247516632080e-01
-2.840075194835662842e-01 -8.664523810148239136e-02 1.996543258428573608e-01
2.576876878738403320e-01 5.079046487808227539e-01 3.289366662502288818e-01
-3.164843618869781494e-01 -7.502011656761169434e-01 -4.625365734100341797e-01
2.571424543857574463e-01 -2.803976237773895264e-01 2.176527976989746094e-01
-2.516487846150994301e-03 -4.481123387813568115e-02 -3.225646540522575378e-02
-1.904058307409286499e-01 -1.251159459352493286e-01 -5.392856001853942871e-01
-1.787324845790863037e-01 -1.983106881380081177e-01 2.422147691249847412e-01
3.207626044750213623e-01 -2.345000505447387695e-01 -4.625365734100341797e-01
-1.142057999968528748e-01 1.492047607898712158e-01 2.933695316314697266e-01
-1.361448690295219421e-02 -1.829623878002166748e-01 2.604347169399261475e-01
-2.705042064189910889e-01 -3.800231814384460449e-01 -4.640493392944335938e-01
6.663011386990547180e-03 3.024447262287139893e-01 3.085639178752899170e-01
1.876279115676879883e-01 5.134086012840270996e-01 2.286438792943954468e-01
-1.259922794997692108e-02 -1.983106881380081177e-01 -1.196529269218444824e-01
9.124187380075454712e-02 -4.481123387813568115e-02 1.292501240968704224e-01
1.195445135235786438e-01 2.443163692951202393e-01 1.911313384771347046e-01
-1.672102212905883789e-01 4.926698207855224609e-01 3.274258077144622803e-01
-2.786236405372619629e-01 3.171980679035186768e-01 2.611948549747467041e-01
3.253412842750549316e-01 -5.551759004592895508e-01 -4.651914536952972412e-01
-9.647468477487564087e-02 2.686043381690979004e-01 3.052089810371398926e-01
2.158479690551757812e-01 6.112332940101623535e-01 2.422804683446884155e-01
-2.666471600532531738e-01 -4.481123387813568115e-02 1.944126095622777939e-03
-6.055983901023864746e-02 -2.406096458435058594e-02 1.537192016839981079e-01
3.234784677624702454e-02 4.775111079216003418e-01 2.236391603946685791e-01
1.957426816225051880e-01 -7.402226924896240234e-01 2.457358241081237793e-01
-5.088275671005249023e-02 -9.759823232889175415e-02 2.688985764980316162e-01
-2.785279154777526855e-01 -1.983106881380081177e-01 -6.046655774116516113e-02
2.397548593580722809e-02 -1.983106881380081177e-01 -3.537039160728454590e-01
-2.033564001321792603e-01 -3.203060328960418701e-01 2.336214035749435425e-01
-3.891802206635475159e-02 -1.983106881380081177e-01 -4.912474453449249268e-01
9.571170061826705933e-02 -9.700813889503479004e-02 -5.392856001853942871e-01
-2.487472295761108398e-01 -4.165082424879074097e-02 2.744457423686981201e-01
-3.309326767921447754e-01 -3.701666593551635742e-01 -5.239363908767700195e-01
-2.819128930568695068e-01 2.381958067417144775e-01 1.902782768011093140e-01
-1.698679178953170776e-01 4.887847006320953369e-01 2.252110391855239868e-01
-2.062637209892272949e-01 -4.882467687129974365e-01 2.691256999969482422e-01
1.251132488250732422e-01 6.185689941048622131e-02 1.656965911388397217e-01
2.259353399276733398e-01 -4.099924862384796143e-01 2.633232772350311279e-01
2.652018368244171143e-01 -6.188570857048034668e-01 -5.239363908767700195e-01
-1.268598288297653198e-01 4.017446637153625488e-01 3.184101283550262451e-01
2.588354051113128662e-01 -4.481123387813568115e-02 2.564366906881332397e-02
2.677196860313415527e-01 4.337869882583618164e-01 3.108058869838714600e-01
-5.916005000472068787e-02 -1.983106881380081177e-01 -2.231027930974960327e-03
6.333348900079727173e-02 2.267458289861679077e-01 3.010582327842712402e-01
2.258161455392837524e-01 -7.916430234909057617e-01 2.299839854240417480e-01
-1.855615675449371338e-01 4.439211636781692505e-02 2.829771637916564941e-01
3.247631788253784180e-01 -1.978076845407485962e-01 -3.412178456783294678e-01
-3.319067955017089844e-01 -2.271895408630371094e-01 -4.848978817462921143e-01
-2.651982009410858154e-01 -4.481123387813568115e-02 -1.832449138164520264e-01
-2.772056460380554199e-01 -1.010078042745590210e-01 -5.392856001853942871e-01
1.409138888120651245e-01 -4.481123387813568115e-02 -3.030878007411956787e-01
-3.726748377084732056e-02 5.048658847808837891e-01 3.286354243755340576e-01
-2.394462823867797852e-01 3.833023011684417725e-01 2.105065137147903442e-01
2.337929457426071167e-01 -1.312633454799652100e-01 2.655605375766754150e-01
1.838281601667404175e-01 -4.481123387813568115e-02 -1.229906007647514343e-01
-1.391440927982330322e-01 3.613313734531402588e-01 2.074434161186218262e-01
2.782208658754825592e-02 -4.481123387813568115e-02 -4.397614002227783203e-01
2.386550456285476685e-01 -1.060536429286003113e-01 -5.392856001853942871e-01
-3.503538668155670166e-02 2.152170091867446899e-01 1.870753765106201172e-01
-1.395946089178323746e-02 6.428382992744445801e-01 3.423151671886444092e-01
2.846567928791046143e-01 -1.110154911875724792e-01 1.172098368406295776e-01
-7.342608878389000893e-04 1.102122664451599121e-01 1.724374741315841675e-01
6.226413324475288391e-02 -1.983106881380081177e-01 -4.822083413600921631e-01
1.957426816225051880e-01 -4.688068628311157227e-01 2.621361315250396729e-01
2.296919375658035278e-01 -1.635074615478515625e-01 -5.392856001853942871e-01
2.680152952671051025e-01 -4.499121606349945068e-01 -4.625365734100341797e-01
-1.206951513886451721e-01 -4.481123387813568115e-02 -1.263579428195953369e-01
3.179735243320465088e-01 -4.433974623680114746e-01 -5.239363908767700195e-01
-3.276190161705017090e-01 -7.155660539865493774e-02 -2.988216578960418701e-01
-3.223684132099151611e-01 -1.446061879396438599e-01 -2.388107627630233765e-01
-1.411871016025543213e-01 -5.011592060327529907e-03 1.563750058412551880e-01
2.856825292110443115e-01 -4.481123387813568115e-02 -4.563221931457519531e-01
-2.869232594966888428e-01 -2.402846217155456543e-01 -5.239363908767700195e-01
-9.440400451421737671e-02 -4.481123387813568115e-02 -3.953465521335601807e-01
3.133272826671600342e-01 -1.929709166288375854e-01 -2.105053216218948364e-01
2.604654729366302490e-01 -1.983106881380081177e-01 -4.555676579475402832e-01
2.761666476726531982e-01 3.184189796447753906e-01 2.142509222030639648e-01
-7.848052680492401123e-02 5.497847199440002441e-01 3.330883681774139404e-01
8.033628016710281372e-02 -1.983106881380081177e-01 1.982391178607940674e-01
-2.774965763092041016e-01 2.105219513177871704e-01 2.740722298622131348e-01
-1.507367193698883057e-01 -1.221073791384696960e-01 2.664680182933807373e-01
5.444715172052383423e-02 2.494571954011917114e-01 1.918483227491378784e-01
-2.841379642486572266e-01 -1.983106881380081177e-01 -3.449369072914123535e-01
2.690316438674926758e-01 2.657664716243743896e-01 2.958160638809204102e-01
-3.319067955017089844e-01 -6.711060404777526855e-01 -4.991257190704345703e-01
2.537321150302886963e-01 6.360664963722229004e-01 2.457423955202102661e-01
3.193455636501312256e-01 -9.252348542213439941e-02 -5.392856001853942871e-01
-2.152793854475021362e-01 -4.481123387813568115e-02 -3.993096351623535156e-01
-1.413250416517257690e-01 7.416314482688903809e-01 2.658382952213287354e-01
1.632235944271087646e-01 3.620492815971374512e-01 2.075438499450683594e-01
3.032464683055877686e-01 -1.582953035831451416e-01 -9.527469426393508911e-02
1.932407766580581665e-01 7.606453299522399902e-01 2.997800707817077637e-01
3.035552054643630981e-02 1.639956086874008179e-01 2.948363423347473145e-01
1.019767746329307556e-01 -4.481123387813568115e-02 -4.931609630584716797e-01
-1.390633881092071533e-01 -1.983106881380081177e-01 -3.131752014160156250e-01
-4.342013224959373474e-02 -4.481123387813568115e-02 -5.006741285324096680e-01
-3.387865424156188965e-01 -1.167966052889823914e-01 -4.264664053916931152e-01
2.838046550750732422e-01 -4.481123387813568115e-02 -4.075604379177093506e-01
-1.615472254343330860e-03 -1.983106881380081177e-01 -2.749907374382019043e-01
9.548740833997726440e-02 -4.481123387813568115e-02 -1.947192251682281494e-01
-6.915818154811859131e-02 5.049597620964050293e-01 2.274651974439620972e-01
-1.090846955776214600e-01 -1.983106881380081177e-01 -6.430555880069732666e-02
-5.507944733835756779e-04 4.292157888412475586e-01 3.211334943771362305e-01
-2.647562026977539062e-01 -6.251559257507324219e-01 2.641153037548065186e-01
2.322529852390289307e-01 4.688291810452938080e-03 2.790403962135314941e-01
-1.197914406657218933e-01 6.264839768409729004e-01 2.444060593843460083e-01
1.243540495634078979e-01 -1.983106881380081177e-01 5.401199311017990112e-02
1.521733999252319336e-01 -1.983106881380081177e-01 -2.335704714059829712e-01
-1.416798308491706848e-02 3.815088868141174316e-01 2.102568745613098145e-01
-2.492943406105041504e-01 4.785190224647521973e-01 2.237799167633056641e-01
2.715053856372833252e-01 5.965220928192138672e-02 2.675275206565856934e-01
-1.370415673591196537e-03 -4.481123387813568115e-02 -2.969494462013244629e-01
-1.543000191450119019e-01 1.226579546928405762e-01 1.741726547479629517e-01
-2.937851846218109131e-01 -1.926283985376358032e-01 8.790306746959686279e-02
1.911968290805816650e-01 -1.983106881380081177e-01 -9.463194757699966431e-02
2.647532522678375244e-01 -3.023084998130798340e-01 -4.625365734100341797e-01
-1.655876487493515015e-01 -1.983106881380081177e-01 2.164243608713150024e-01
-2.766744792461395264e-01 4.060680866241455078e-01 2.834661006927490234e-01
3.284888267517089844e-01 -1.198128759860992432e-01 -3.838064968585968018e-01
8.243183046579360962e-02 3.996481597423553467e-01 3.182017803192138672e-01
-2.519492208957672119e-01 -4.789636731147766113e-01 2.068024724721908569e-01
-2.490193843841552734e-01 -4.481123387813568115e-02 -4.551275372505187988e-01
-1.328499168157577515e-01 -2.298373915255069733e-02 2.762963473796844482e-01
2.096185535192489624e-01 2.071998417377471924e-01 1.859576851129531860e-01
3.711243346333503723e-02 -4.481123387813568115e-02 -1.853865534067153931e-01
8.469668030738830566e-02 5.766918659210205078e-01 3.357563614845275879e-01
-2.891211211681365967e-01 -4.481123387813568115e-02 1.140500977635383606e-01
2.639414966106414795e-01 -6.322111487388610840e-01 -4.646208584308624268e-01
2.566047310829162598e-01 -4.481123387813568115e-02 -1.978136599063873291e-01
-4.107101261615753174e-02 -4.481123387813568115e-02 8.588634431362152100e-02
-2.178385108709335327e-01 -7.407876253128051758e-01 2.262132912874221802e-01
2.571424543857574463e-01 -7.444025278091430664e-01 2.302796095609664917e-01
-2.647562026977539062e-01 -2.142492979764938354e-01 1.928890645503997803e-01
1.642568260431289673e-01 -1.491698473691940308e-01 -5.392856001853942871e-01
1.210385262966156006e-01 -7.742199301719665527e-02 2.708993554115295410e-01
-1.965216994285583496e-01 -4.481123387813568115e-02 -1.728602647781372070e-01
2.345305681228637695e-01 -1.983106881380081177e-01 1.515607684850692749e-01
-1.605575829744338989e-01 -1.983106881380081177e-01 -1.340149194002151489e-01
6.707845628261566162e-02 -2.217785827815532684e-02 2.763770520687103271e-01
-2.705042064189910889e-01 -6.584529876708984375e-01 -4.647400379180908203e-01
-2.142292559146881104e-01 -2.069604769349098206e-02 2.765234708786010742e-01
2.300982922315597534e-01 6.762423515319824219e-01 2.513430416584014893e-01
2.056855261325836182e-01 -2.417664378881454468e-01 2.508503496646881104e-01
-1.245399713516235352e-01 2.072908878326416016e-01 1.859698891639709473e-01
3.229998648166656494e-01 -7.031822204589843750e-02 -3.210591077804565430e-01
-9.662099182605743408e-02 -4.481123387813568115e-02 -5.817553028464317322e-02
1.342969089746475220e-01 5.409585833549499512e-01 2.324840128421783447e-01
3.253412842750549316e-01 -3.300330340862274170e-01 -4.875518083572387695e-01
1.973258256912231445e-01 6.387737393379211426e-02 1.659781485795974731e-01
-2.461233437061309814e-01 1.056448444724082947e-01 1.718002557754516602e-01
5.399913713335990906e-02 4.625033959746360779e-02 1.635212749242782593e-01
-2.255099127069115639e-03 -8.454039692878723145e-02 -5.392856001853942871e-01
-1.199143752455711365e-01 -1.983106881380081177e-01 -2.451443523168563843e-01
-2.284073084592819214e-01 -3.880957067012786865e-01 2.000653445720672607e-01
2.540605664253234863e-01 -1.983106881380081177e-01 -7.782182842493057251e-02
-1.331220716238021851e-01 -1.983106881380081177e-01 -4.861272573471069336e-01
1.486870497465133667e-01 5.465197563171386719e-02 2.839944362640380859e-01
-2.777246236801147461e-01 5.191735029220581055e-01 2.294472008943557739e-01
-2.033564001321792603e-01 -5.381421446800231934e-01 2.149481922388076782e-01
-1.450882107019424438e-01 7.536501884460449219e-01 3.326125741004943848e-01
-2.586863338947296143e-01 -4.481123387813568115e-02 -4.283442497253417969e-01
-1.188426688313484192e-01 6.177226305007934570e-01 3.398254811763763428e-01
-2.652657926082611084e-01 6.998771429061889648e-01 2.546370029449462891e-01
7.439008355140686035e-02 7.236187905073165894e-02 2.857502698898315430e-01
3.141878247261047363e-01 -1.260530799627304077e-01 -2.203364819288253784e-01
-5.136854946613311768e-03 7.275997996330261230e-01 2.585015296936035156e-01
1.415501683950424194e-01 -4.481123387813568115e-02 3.043819218873977661e-02
1.135234311223030090e-01 -1.983106881380081177e-01 -2.002398669719696045e-02
2.919785380363464355e-01 -1.688368767499923706e-01 3.351161256432533264e-02
2.452138513326644897e-01 2.914123535156250000e-01 1.976967155933380127e-01
-2.738544344902038574e-01 2.620622888207435608e-02 1.607265770435333252e-01
8.360568434000015259e-03 6.407662034034729004e-01 2.463974207639694214e-01
-1.140399370342493057e-02 -4.481123387813568115e-02 -7.205404341220855713e-02
-2.705042064189910889e-01 -6.218450665473937988e-01 -5.094749331474304199e-01
-1.835148185491561890e-01 -4.481123387813568115e-02 -2.454802989959716797e-01
-6.218655034899711609e-02 -1.983106881380081177e-01 -5.384156703948974609e-01
6.773997098207473755e-02 7.212127447128295898e-01 3.500864505767822266e-01
-2.705042064189910889e-01 -5.020888447761535645e-01 -4.970423281192779541e-01
1.534252762794494629e-01 6.081467270851135254e-01 3.388757705688476562e-01
-2.746521532535552979e-01 -1.983106881380081177e-01 1.149657834321260452e-02
-2.839577794075012207e-01 -1.983106881380081177e-01 -4.911648929119110107e-01
3.787398710846900940e-02 5.433169007301330566e-01 3.324474096298217773e-01
1.631363183259963989e-01 -4.195572808384895325e-02 1.512247920036315918e-01
2.389506697654724121e-01 4.648458659648895264e-01 2.218739390373229980e-01
-4.827781766653060913e-02 6.298736929893493652e-01 3.410295248031616211e-01
-2.837184667587280273e-01 -4.481123387813568115e-02 -4.855614006519317627e-01
2.951964735984802246e-02 -1.983106881380081177e-01 -4.367705881595611572e-01
-1.744907051324844360e-01 7.194606661796569824e-01 3.499128520488739014e-01
2.797252535820007324e-01 -4.920851439237594604e-02 1.735804975032806396e-01
2.865092754364013672e-01 -5.570077896118164062e-01 -5.239363908767700195e-01
-1.322924941778182983e-01 -1.983106881380081177e-01 1.237601935863494873e-01
-2.741660177707672119e-01 4.676574170589447021e-01 3.121319115161895752e-01
-2.504533231258392334e-01 -4.481123387813568115e-02 -5.141870677471160889e-02
-8.290559053421020508e-02 2.763803005218505859e-01 1.956011652946472168e-01
-1.901824772357940674e-01 1.664459109306335449e-01 2.950793802738189697e-01
1.350101381540298462e-01 -1.983106881380081177e-01 -4.787135124206542969e-01
3.253412842750549316e-01 -6.730796098709106445e-01 -4.690615832805633545e-01
2.191250324249267578e-01 -1.983106881380081177e-01 5.560547858476638794e-02
-2.703652977943420410e-01 -4.481123387813568115e-02 5.281453207135200500e-02
2.571424543857574463e-01 -7.094435095787048340e-01 2.840207219123840332e-01
2.234569042921066284e-01 5.819631218910217285e-01 3.362790942192077637e-01
-1.408980488777160645e-01 1.160625517368316650e-01 2.900840342044830322e-01
2.040535658597946167e-01 -3.693464696407318115e-01 2.603099346160888672e-01
-2.246319502592086792e-01 6.564092040061950684e-01 3.436609208583831787e-01
-2.578492164611816406e-01 -1.395000815391540527e-01 -5.392856001853942871e-01
2.254867553710937500e-01 -6.113551259040832520e-01 2.782530188560485840e-01
5.190564692020416260e-02 5.527239441871643066e-01 2.341244071722030640e-01
2.654364407062530518e-01 6.358008980751037598e-01 3.369162976741790771e-01
-2.647562026977539062e-01 -7.381534576416015625e-01 2.733533978462219238e-01
7.173831760883331299e-02 -1.983106881380081177e-01 2.525987029075622559e-01
-3.319067955017089844e-01 -5.375283956527709961e-01 -5.035017132759094238e-01
2.695271372795104980e-01 1.262747347354888916e-01 2.901440858840942383e-01
1.852320581674575806e-01 1.775214523077011108e-01 2.961773574352264404e-01
-2.751645147800445557e-01 7.194034457206726074e-01 3.007156848907470703e-01
-2.791651189327239990e-01 -1.983106881380081177e-01 -2.813815176486968994e-01
-1.029369309544563293e-01 -1.983106881380081177e-01 -3.957763612270355225e-01
-2.687192559242248535e-01 -2.978212200105190277e-02 1.529215276241302490e-01
-2.705042064189910889e-01 -3.145599067211151123e-01 -5.183385610580444336e-01
-2.320982366800308228e-01 -7.654154300689697266e-02 2.709866166114807129e-01
2.156734168529510498e-01 -5.076097846031188965e-01 2.705615162849426270e-01
-2.033564001321792603e-01 -2.430502325296401978e-01 2.457226961851119995e-01
1.441243290901184082e-01 7.347864508628845215e-01 2.612915337085723877e-01
-2.213623821735382080e-01 -6.053884625434875488e-01 2.161747515201568604e-01
-3.319067955017089844e-01 -7.656602263450622559e-01 -5.111603736877441406e-01
-2.287958413362503052e-01 -1.983106881380081177e-01 -2.173418998718261719e-01
2.148194313049316406e-01 -4.481123387813568115e-02 6.766546517610549927e-02
-3.321799039840698242e-01 -1.018991395831108093e-01 -3.509523570537567139e-01
-1.147857606410980225e-01 4.197027683258056641e-01 2.155807018280029297e-01
2.727122306823730469e-01 2.050723880529403687e-01 2.537351548671722412e-01
1.562781631946563721e-01 3.826669752597808838e-01 3.165181875228881836e-01
-3.319067955017089844e-01 -2.188195288181304932e-01 -5.235252976417541504e-01
-3.149837553501129150e-01 -7.109760493040084839e-02 -1.543979942798614502e-01
-1.911293715238571167e-01 -4.157306253910064697e-02 1.512783020734786987e-01
1.708710193634033203e-01 7.231928706169128418e-01 3.502825796604156494e-01
7.039703894406557083e-03 -1.063714027404785156e-01 2.680286467075347900e-01
3.276658058166503906e-01 -7.997728884220123291e-02 -3.743966519832611084e-01
-4.194611310958862305e-02 -4.481123387813568115e-02 -3.541553020477294922e-01
2.429324835538864136e-01 -4.481123387813568115e-02 -2.567848563194274902e-01
1.169553324580192566e-01 4.816459417343139648e-01 3.263325095176696777e-01
2.349678874015808105e-01 -1.983106881380081177e-01 -3.405675292015075684e-01
2.595111131668090820e-01 4.609024822711944580e-01 3.242754042148590088e-01
-1.402880549430847168e-01 1.973789930343627930e-01 2.981462180614471436e-01
-1.181707382202148438e-01 -4.481123387813568115e-02 -4.648911356925964355e-01
2.709188461303710938e-01 1.480908244848251343e-01 1.777181178331375122e-01
1.898633092641830444e-01 -1.983106881380081177e-01 -2.030089944601058960e-01
-1.011153981089591980e-01 -4.481123387813568115e-02 3.283124044537544250e-02
-3.123720586299896240e-01 -1.909589171409606934e-01 -1.245515197515487671e-01
2.334504276514053345e-01 -1.983106881380081177e-01 2.376698702573776245e-01
-2.051310092210769653e-01 -7.891589403152465820e-01 2.297991216182708740e-01
-4.861603304743766785e-02 1.355400234460830688e-01 2.920153439044952393e-01
8.977771550416946411e-02 -1.983106881380081177e-01 -3.592923581600189209e-01
-9.014523029327392578e-02 5.402557253837585449e-01 2.323864251375198364e-01
-2.348112761974334717e-01 -4.481123387813568115e-02 -3.352728188037872314e-01
2.770647406578063965e-01 9.344691038131713867e-02 2.039871215820312500e-01
6.491392850875854492e-02 -1.983106881380081177e-01 4.660951718688011169e-02
-2.754554450511932373e-01 5.792885422706604004e-01 2.973982691764831543e-01
-1.951731443405151367e-01 -1.983106881380081177e-01 -4.592032134532928467e-01
1.735005527734756470e-01 -1.270487755537033081e-01 2.659781277179718018e-01
-2.053158879280090332e-01 -6.744244098663330078e-01 2.212930470705032349e-01
-1.013425067067146301e-01 -1.983106881380081177e-01 2.047500759363174438e-01
-2.656120657920837402e-01 6.324093341827392578e-01 2.452328205108642578e-01
-2.950098812580108643e-01 -4.481123387813568115e-02 -2.311830520629882812e-01
2.444274276494979858e-01 5.531631112098693848e-01 2.341854125261306763e-01
3.112871050834655762e-01 -7.910874485969543457e-01 -4.625365734100341797e-01
-2.551408708095550537e-01 1.964555829763412476e-01 1.844599246978759766e-01
-7.824149727821350098e-02 -1.326185651123523712e-02 2.772610783576965332e-01
-5.458971858024597168e-02 8.745305240154266357e-02 2.872470915317535400e-01
-2.193334698677062988e-01 2.806877791881561279e-01 3.064064383506774902e-01
2.699015736579895020e-01 5.373765230178833008e-01 2.858656942844390869e-01
2.556531131267547607e-01 -4.481123387813568115e-02 -5.326724052429199219e-01
-3.319067955017089844e-01 -3.952232301235198975e-01 -4.828990101814270020e-01
2.381632775068283081e-01 -1.983106881380081177e-01 -4.591340199112892151e-02
2.703651785850524902e-01 -2.980132102966308594e-01 -5.239363908767700195e-01
-2.339488416910171509e-01 -2.671692669391632080e-01 1.911003738641738892e-01
-1.835073083639144897e-01 -1.983106881380081177e-01 6.045819073915481567e-02
2.571424543857574463e-01 -5.764693021774291992e-01 2.164234369993209839e-01
-3.457854986190795898e-01 -9.680636972188949585e-02 -5.064606070518493652e-01
-3.000352680683135986e-01 -5.439417958259582520e-01 -4.625365734100341797e-01
3.560453653335571289e-02 3.251110613346099854e-01 2.023945599794387817e-01
1.743179261684417725e-01 1.388282142579555511e-02 2.799525260925292969e-01
-3.408952355384826660e-01 -1.443443596363067627e-01 -4.505657553672790527e-01
-2.382169216871261597e-01 1.997476518154144287e-01 2.983817756175994873e-01
2.251310944557189941e-01 -2.528057806193828583e-02 1.535493433475494385e-01
1.826184839010238647e-01 -4.481123387813568115e-02 -3.714658915996551514e-01
-2.296714484691619873e-02 7.599856257438659668e-01 2.950953543186187744e-01
3.386099934577941895e-01 -6.649725139141082764e-02 -4.994935691356658936e-01
2.571424543857574463e-01 -4.505765736103057861e-01 2.612483501434326172e-01
-1.578754931688308716e-01 -4.481123387813568115e-02 -5.082530379295349121e-01
-7.248572260141372681e-02 5.881915688514709473e-01 2.390681505203247070e-01
1.957426816225051880e-01 -3.383570611476898193e-01 2.034381330013275146e-01
-1.052567660808563232e-01 4.924099147319793701e-01 3.273994922637939453e-01
-2.551634013652801514e-01 8.865133859217166901e-03 2.794551849365234375e-01
4.366739466786384583e-02 -4.481123387813568115e-02 2.034237980842590332e-02
2.081010788679122925e-01 2.356423139572143555e-01 3.019403815269470215e-01
7.726267725229263306e-02 -1.983106881380081177e-01 -1.509697586297988892e-01
8.632103353738784790e-02 -4.481123387813568115e-02 6.823603808879852295e-02
1.536514461040496826e-01 1.450483649969100952e-01 1.772939264774322510e-01
-3.085488677024841309e-01 -1.414886564016342163e-01 -8.084569871425628662e-02
-4.533719271421432495e-02 7.267533540725708008e-01 3.506354689598083496e-01
-1.591958999633789062e-01 4.569066166877746582e-01 3.238793909549713135e-01
-2.301791012287139893e-01 -1.983106881380081177e-01 -3.212336301803588867e-01
1.249968446791172028e-02 2.583198845386505127e-01 3.041888773441314697e-01
2.486607246100902557e-02 -4.481123387813568115e-02 1.061446070671081543e-01
-2.048673033714294434e-01 3.202001452445983887e-01 2.017104476690292358e-01
-1.328011304140090942e-01 -1.124461591243743896e-01 -5.392856001853942871e-01
-2.822113037109375000e-01 1.818383187055587769e-01 2.201922237873077393e-01
3.578791022300720215e-02 -4.481123387813568115e-02 -1.150634512305259705e-01
-2.420345693826675415e-02 -4.481123387813568115e-02 2.644040435552597046e-02
-2.110019326210021973e-01 -1.983106881380081177e-01 -9.629305452108383179e-02
-2.647562026977539062e-01 -3.002166748046875000e-01 2.224538773298263550e-01
-1.832661330699920654e-01 2.135775387287139893e-01 1.868463903665542603e-01
3.393391668796539307e-01 -1.668755263090133667e-01 -5.078279376029968262e-01
-3.280563652515411377e-01 -3.629959821701049805e-01 -4.625365734100341797e-01
6.681686732918024063e-03 -1.983106881380081177e-01 -2.215649187564849854e-01
2.013902515172958374e-01 -7.441829442977905273e-01 2.881020307540893555e-01
-1.470242440700531006e-01 -1.983106881380081177e-01 -1.822488754987716675e-02
-2.616039812564849854e-01 -5.393433570861816406e-01 2.729142010211944580e-01
2.718075513839721680e-01 -2.367628365755081177e-02 2.640721499919891357e-01
3.097442984580993652e-01 -5.880320072174072266e-02 -1.695469766855239868e-01
-2.464884333312511444e-02 -1.983106881380081177e-01 -3.194149136543273926e-01
1.162195950746536255e-01 -1.983106881380081177e-01 1.220503523945808411e-01
1.860766112804412842e-02 -4.481123387813568115e-02 -4.937746822834014893e-01
-2.248168140649795532e-01 -1.905685067176818848e-01 2.596802115440368652e-01
1.961415112018585205e-01 4.232810735702514648e-01 2.160799652338027954e-01
1.847299933433532715e-01 -1.983106881380081177e-01 -4.179884791374206543e-01
2.451246976852416992e-01 -1.983106881380081177e-01 -2.021127790212631226e-01
-1.317979246377944946e-01 -4.481123387813568115e-02 -2.728538513183593750e-01
1.985261142253875732e-01 -4.901011586189270020e-01 2.076283097267150879e-01
7.674127072095870972e-02 2.851585447788238525e-01 3.068503439426422119e-01
-1.668592542409896851e-01 3.266998231410980225e-01 3.109691739082336426e-01
3.185769617557525635e-01 -4.949688613414764404e-01 -4.625365734100341797e-01
-2.811706066131591797e-01 2.697426676750183105e-01 2.320832908153533936e-01
-9.768725186586380005e-02 -1.983106881380081177e-01 -1.641791462898254395e-01
1.969898641109466553e-01 4.810359179973602295e-01 3.262724280357360840e-01
2.700470387935638428e-01 2.993169128894805908e-01 2.842008769512176514e-01
-2.234129011631011963e-01 4.901360571384429932e-01 3.271742761135101318e-01
2.818311154842376709e-01 -7.646354436874389648e-01 -5.239363908767700195e-01
1.957426816225051880e-01 -2.298312485218048096e-01 2.117790579795837402e-01
1.381576806306838989e-01 -3.170635551214218140e-02 2.754320502281188965e-01
2.384250797331333160e-02 -1.983106881380081177e-01 -6.844580173492431641e-02
1.596725136041641235e-01 -1.983106881380081177e-01 1.472964733839035034e-01
-2.241524495184421539e-02 -1.983106881380081177e-01 1.471763551235198975e-01
-2.054481953382492065e-01 -1.983106881380081177e-01 -1.696355640888214111e-01
-1.574588268995285034e-01 -1.983106881380081177e-01 -3.522784113883972168e-01
-1.472841799259185791e-01 -4.481123387813568115e-02 -9.580944664776325226e-03
-3.170849755406379700e-02 -4.972400516271591187e-02 2.736452519893646240e-01
1.415886431932449341e-01 1.936890184879302979e-01 1.840742230415344238e-01
3.073775172233581543e-01 -1.983106881380081177e-01 -2.973426580429077148e-01
-6.401276588439941406e-02 -4.481123387813568115e-02 -2.478996068239212036e-01
9.538043290376663208e-02 -1.983106881380081177e-01 -2.492932230234146118e-01
-1.281126439571380615e-01 -4.481123387813568115e-02 -3.408274948596954346e-01
3.011218309402465820e-01 -1.983106881380081177e-01 -1.207538172602653503e-01
2.664480805397033691e-01 -3.529274165630340576e-01 -4.625365734100341797e-01
-2.827837765216827393e-01 -1.431159228086471558e-01 2.136493772268295288e-01
-2.679075002670288086e-01 6.814695000648498535e-01 3.461459279060363770e-01
2.310029566287994385e-01 3.897100090980529785e-01 3.172173500061035156e-01
-2.040029913187026978e-01 5.342233777046203613e-01 2.315455675125122070e-01
-2.568366527557373047e-01 7.611314654350280762e-01 3.071403205394744873e-01
-9.519943594932556152e-02 3.206299543380737305e-01 2.017695754766464233e-01
-3.255141079425811768e-01 -8.044574856758117676e-01 -4.745496511459350586e-01
-2.659020423889160156e-01 3.891197144985198975e-01 3.171582221984863281e-01
2.219150364398956299e-01 3.504913449287414551e-01 2.059325426816940308e-01
-2.812456488609313965e-01 -1.983106881380081177e-01 -1.655940413475036621e-01
2.639414966106414795e-01 -4.662167429924011230e-01 -5.208929777145385742e-01
-2.051375806331634521e-01 -4.481123387813568115e-02 -8.681984990835189819e-02
1.692403806373476982e-03 -4.481123387813568115e-02 -3.853295743465423584e-01
-2.197707891464233398e-01 -8.554941415786743164e-02 -5.392856001853942871e-01
2.458651363849639893e-01 3.047419525682926178e-02 1.613215655088424683e-01
1.798059642314910889e-01 -4.481123387813568115e-02 -2.602176964282989502e-01
3.945554792881011963e-02 6.366549134254455566e-01 3.417023718357086182e-01
3.240096271038055420e-01 -6.302732825279235840e-01 -5.239363908767700195e-01
-3.341515660285949707e-01 -1.593763977289199829e-01 -3.734910488128662109e-01
-2.200804799795150757e-01 4.428298473358154297e-01 2.188052088022232056e-01
-2.823145389556884766e-01 6.235146149992942810e-02 2.190107256174087524e-01
1.089053377509117126e-01 2.300341278314590454e-01 3.013848066329956055e-01
2.677347064018249512e-01 6.945664882659912109e-01 3.106388449668884277e-01
2.021578997373580933e-01 7.283205389976501465e-01 2.586028575897216797e-01
-2.626982331275939941e-02 6.571825146675109863e-01 2.486853748559951782e-01
6.436587870121002197e-02 6.314380168914794922e-01 2.450967431068420410e-01
-2.936237752437591553e-01 -1.309311240911483765e-01 8.973960578441619873e-02
-2.801871001720428467e-01 -1.983106881380081177e-01 1.400985717773437500e-01
1.341495811939239502e-01 -4.481123387813568115e-02 -5.386167392134666443e-02
3.290405869483947754e-02 4.097270965576171875e-01 2.141899168491363525e-01
-3.034558892250061035e-01 -7.142869383096694946e-02 -2.264028601348400116e-02
1.505789756774902344e-01 -4.481123387813568115e-02 -4.782799482345581055e-01
-2.344612479209899902e-01 5.630120635032653809e-01 3.344003260135650635e-01
2.709535956382751465e-01 4.768457710742950439e-01 2.738442122936248779e-01
-1.824506744742393494e-02 4.327705502510070801e-02 1.631064862012863159e-01
-2.088434994220733643e-01 -4.481123387813568115e-02 -7.962127216160297394e-03
-6.918778643012046814e-03 2.582551240921020508e-01 1.930748522281646729e-01
-2.982334196567535400e-01 -1.669468730688095093e-01 3.705236688256263733e-02
2.714312076568603516e-02 2.794704958796501160e-02 2.813470661640167236e-01
-6.023738905787467957e-02 -1.983106881380081177e-01 -2.731447815895080566e-01
2.663467526435852051e-01 -5.133174061775207520e-01 -4.625365734100341797e-01
1.937081217765808105e-01 -1.640010625123977661e-01 2.623144388198852539e-01
-2.046955674886703491e-01 -4.481123387813568115e-02 -4.739809632301330566e-01
-6.078853830695152283e-02 -1.983106881380081177e-01 2.348760962486267090e-01
-2.146074473857879639e-01 6.187399029731750488e-01 2.433268278837203979e-01
-7.873292081058025360e-03 3.362654447555541992e-01 3.119179606437683105e-01
-5.038087815046310425e-02 -1.983106881380081177e-01 -5.434976145625114441e-02
5.336559191346168518e-02 1.233007982373237610e-01 2.908010184764862061e-01
8.066360652446746826e-02 5.365019440650939941e-01 3.317717313766479492e-01
-1.667212992906570435e-01 -6.738285720348358154e-02 -5.392856001853942871e-01
3.007924556732177734e-01 -1.983106881380081177e-01 -5.024299621582031250e-01
-2.875820696353912354e-01 -4.481123387813568115e-02 -5.345830321311950684e-01
-2.844945490360260010e-01 -4.481123387813568115e-02 -3.195744752883911133e-01
2.591253817081451416e-01 -8.179122209548950195e-02 2.704657912254333496e-01
-2.033564001321792603e-01 -3.669937849044799805e-01 2.403848022222518921e-01
1.957426816225051880e-01 -6.890003681182861328e-01 2.714614868164062500e-01
-1.224012523889541626e-01 2.880844660103321075e-02 1.610897779464721680e-01
1.999290883541107178e-01 5.396804213523864746e-01 3.320870399475097656e-01
-2.810091674327850342e-01 3.844068348407745361e-01 2.339348495006561279e-01
3.038330078125000000e-01 -8.188974857330322266e-02 -1.019772589206695557e-01
1.551126092672348022e-01 -1.983106881380081177e-01 -2.910541296005249023e-01
-8.177738636732101440e-02 3.751921951770782471e-01 2.093756943941116333e-01
1.020565479993820190e-01 -1.240348676219582558e-03 1.569005399942398071e-01
-1.637877076864242554e-01 6.432595103979110718e-02 1.660410165786743164e-01
2.493993341922760010e-01 7.545294761657714844e-01 3.309318125247955322e-01
-2.805531024932861328e-01 -7.628638297319412231e-02 2.391413450241088867e-01
2.762717604637145996e-01 3.873656317591667175e-02 2.130562663078308105e-01
-1.301547139883041382e-01 6.795315742492675781e-01 2.518010139465332031e-01
3.297923505306243896e-01 -1.971432566642761230e-01 -3.986996412277221680e-01
2.619960531592369080e-02 7.612018585205078125e-01 3.055411875247955322e-01
1.491205580532550812e-02 -1.983106881380081177e-01 -5.074844360351562500e-01
3.175090253353118896e-01 -8.605974167585372925e-02 -2.582966685295104980e-01
2.444105297327041626e-01 -4.481123387813568115e-02 -4.940712451934814453e-01
2.854084968566894531e-01 -6.734530925750732422e-01 -5.239363908767700195e-01
-4.528773576021194458e-02 -4.481123387813568115e-02 -1.634071767330169678e-01
-1.841989457607269287e-01 -1.780974715948104858e-01 -5.392856001853942871e-01
5.969100072979927063e-02 -3.024948574602603912e-02 1.528567820787429810e-01
-2.647562026977539062e-01 -4.200413823127746582e-01 2.157702744007110596e-01
2.725526988506317139e-01 4.355643987655639648e-01 2.555576264858245850e-01
7.106432318687438965e-02 -4.481123387813568115e-02 -4.238265454769134521e-01
2.031461000442504883e-01 -3.026979267597198486e-01 2.553680539131164551e-01
2.351283431053161621e-01 -4.481123387813568115e-02 -4.451839625835418701e-02
-2.157326973974704742e-02 -1.605250686407089233e-01 -5.392856001853942871e-01
4.033262282609939575e-02 -1.004223972558975220e-01 -5.392856001853942871e-01
8.316653966903686523e-02 7.578994631767272949e-01 3.238737583160400391e-01
1.288632899522781372e-01 -4.481123387813568115e-02 -1.458536088466644287e-01
-8.467137068510055542e-02 3.561107814311981201e-01 3.138849437236785889e-01
-1.794513314962387085e-01 -1.983106881380081177e-01 -2.353872954845428467e-01
2.610970735549926758e-01 2.019332945346832275e-01 1.852238178253173828e-01
-1.118334084749221802e-01 9.375942498445510864e-02 1.701439023017883301e-01
1.488268822431564331e-01 6.513143777847290039e-01 2.478679716587066650e-01
1.166841238737106323e-01 -4.481123387813568115e-02 -2.467415779829025269e-01
1.060177311301231384e-01 -1.983106881380081177e-01 1.630285978317260742e-01
3.067703545093536377e-01 -1.983106881380081177e-01 -2.468185424804687500e-01
-2.678267955780029297e-01 -4.481123387813568115e-02 -1.210401356220245361e-01
3.412939608097076416e-01 -1.983106881380081177e-01 -5.359531641006469727e-01
1.316748857498168945e-01 3.049494326114654541e-01 1.995839327573776245e-01
2.328535616397857666e-01 -6.175188422203063965e-01 2.170746922492980957e-01
5.780838802456855774e-02 3.521561622619628906e-01 3.134935796260833740e-01
1.725602298974990845e-01 1.143827289342880249e-01 2.899169623851776123e-01
-3.054754436016082764e-01 -2.888492643833160400e-01 -4.625365734100341797e-01
-2.284485995769500732e-01 -3.045128881931304932e-01 1.938687711954116821e-01
2.546030282974243164e-01 -1.983106881380081177e-01 1.473984867334365845e-02
-1.881460547447204590e-01 3.808360397815704346e-01 2.101630419492721558e-01
-1.954753249883651733e-01 7.598251700401306152e-01 3.173928260803222656e-01
2.194966524839401245e-01 -4.481123387813568115e-02 -4.040994644165039062e-01
-2.746671438217163086e-01 3.445669412612915039e-01 3.064073920249938965e-01
-5.833083763718605042e-02 3.666195273399353027e-01 3.149275481700897217e-01
-1.489884108304977417e-01 1.644873768091201782e-01 1.800032407045364380e-01
-7.201837003231048584e-02 -4.481123387813568115e-02 -4.715494215488433838e-01
1.331379264593124390e-01 5.716589689254760742e-01 3.352580666542053223e-01
-1.107251048088073730e-01 -4.481123387813568115e-02 1.476577669382095337e-01
-4.568601399660110474e-02 -1.983106881380081177e-01 -3.549970984458923340e-01
7.355196028947830200e-02 4.457737505435943604e-01 2.192153036594390869e-01
2.571424543857574463e-01 -4.220083653926849365e-01 2.112188041210174561e-01
-2.536233961582183838e-01 -1.057610288262367249e-01 2.680886983871459961e-01
2.022573798894882202e-01 -1.983106881380081177e-01 1.352815181016921997e-01
-3.038406670093536377e-01 -1.732813715934753418e-01 -2.703334577381610870e-02
1.440792828798294067e-01 4.171342551708221436e-01 2.152231633663177490e-01
-2.793603241443634033e-01 -1.983106881380081177e-01 -4.078185260295867920e-01
3.253412842750549316e-01 -3.690686821937561035e-01 -5.221120715141296387e-01
-1.889953464269638062e-01 -1.983106881380081177e-01 1.193108130246400833e-02
-2.716847360134124756e-01 6.309143900871276855e-01 3.404917716979980469e-01
6.870338320732116699e-02 5.074776411056518555e-01 2.278171181678771973e-01
2.725264132022857666e-01 5.868956446647644043e-01 2.558513581752777100e-01
-1.407319456338882446e-01 -1.974670439958572388e-01 2.589960694313049316e-01
1.322726756334304810e-01 -1.983106881380081177e-01 -6.826646625995635986e-02
1.115048378705978394e-01 7.136384844779968262e-01 2.565561234951019287e-01
-2.127399444580078125e-01 -4.481123387813568115e-02 -2.137786298990249634e-01
2.687707543373107910e-01 -1.983106881380081177e-01 1.896964311599731445e-01
-3.319067955017089844e-01 -2.696205079555511475e-01 -5.076505541801452637e-01
-3.278292417526245117e-01 -1.254965811967849731e-01 -5.392856001853942871e-01
-2.011557370424270630e-01 1.024916619062423706e-01 1.713610738515853882e-01
1.846370846033096313e-01 5.699031352996826172e-01 2.365193217992782593e-01
2.945986986160278320e-01 -7.282416522502899170e-02 3.577962284907698631e-03
-2.590598724782466888e-02 -1.983106881380081177e-01 4.414797574281692505e-02
-2.446349412202835083e-01 -1.983106881380081177e-01 1.028337627649307251e-01
-2.637380063533782959e-01 1.562552899122238159e-01 2.940686643123626709e-01
-8.771484345197677612e-02 1.936927735805511475e-01 2.977811694145202637e-01
-2.019374668598175049e-01 -1.315364241600036621e-01 2.655333280563354492e-01
2.825715541839599609e-01 -4.481123387813568115e-02 8.376451581716537476e-02
2.726080417633056641e-01 3.414053022861480713e-01 2.549269795417785645e-01
2.606155909597873688e-02 -1.983106881380081177e-01 8.329436182975769043e-02
3.005268871784210205e-01 -9.564513713121414185e-02 -6.418619304895401001e-02
2.903616130352020264e-01 -1.983106881380081177e-01 -4.146654307842254639e-01
-2.647562026977539062e-01 -3.987986743450164795e-01 2.562239170074462891e-01
2.747111320495605469e-01 3.726574778556823730e-01 2.308867871761322021e-01
2.145819962024688721e-01 -1.983106881380081177e-01 -3.842588067054748535e-01
3.328854739665985107e-01 -1.457998901605606079e-01 -4.340537488460540771e-01
-3.229193091392517090e-01 -1.983106881380081177e-01 -2.957801222801208496e-01
-6.030317768454551697e-02 -1.983106881380081177e-01 1.155853942036628723e-01
1.155626848340034485e-01 1.010502055287361145e-01 2.885956466197967529e-01
-1.943182758986949921e-02 -4.481123387813568115e-02 -4.560687839984893799e-01
2.912212312221527100e-01 -1.143135726451873779e-01 4.217348620295524597e-02
2.873172760009765625e-01 -4.481123387813568115e-02 -2.155459299683570862e-02
6.029053125530481339e-03 -4.481123387813568115e-02 -2.438511699438095093e-01
2.880783677101135254e-01 -1.423426419496536255e-01 7.809347659349441528e-02
-3.184044063091278076e-01 -1.316959708929061890e-01 -1.934981942176818848e-01
2.659647762775421143e-01 5.614777803421020508e-01 3.308717608451843262e-01
-1.531654298305511475e-01 -4.481123387813568115e-02 -1.643836349248886108e-01
1.423394083976745605e-01 -4.481123387813568115e-02 -5.284841060638427734e-01
-3.161070942878723145e-01 -4.481123387813568115e-02 -4.542040824890136719e-01
-5.492661893367767334e-02 3.812713548541069031e-02 2.823559045791625977e-01
-8.730512112379074097e-02 -1.983106881380081177e-01 5.199150741100311279e-02
2.571424543857574463e-01 -6.459772586822509766e-01 2.695170044898986816e-01
1.973868310451507568e-01 -1.983106881380081177e-01 -1.528036594390869141e-01
-2.265970408916473389e-01 -4.481123387813568115e-02 3.284530714154243469e-02
-2.863545715808868408e-01 7.793813198804855347e-02 1.728278696537017822e-01
-1.749317795038223267e-01 6.463856697082519531e-01 3.426671028137207031e-01
5.317067727446556091e-02 1.045590639114379883e-01 1.716491729021072388e-01
-3.230150043964385986e-01 -1.983106881380081177e-01 -3.674033582210540771e-01
2.398581355810165405e-01 -1.983106881380081177e-01 1.052718535065650940e-01
-1.082222610712051392e-01 -1.983106881380081177e-01 1.785527099855244160e-03
-2.785128951072692871e-01 5.564392209053039551e-01 2.624589502811431885e-01
1.781036257743835449e-01 -4.481123387813568115e-02 1.189072337001562119e-02
2.289965450763702393e-01 -4.481123387813568115e-02 -1.450091004371643066e-01
2.698818743228912354e-01 6.657918095588684082e-01 2.860928177833557129e-01
2.645786479115486145e-02 -1.983106881380081177e-01 1.429439485073089600e-01
1.430854648351669312e-01 4.459548592567443848e-01 3.227936029434204102e-01
1.305712759494781494e-01 6.935698390007019043e-01 3.473452627658843994e-01
-7.924310863018035889e-02 4.089406728744506836e-01 3.191233277320861816e-01
2.821342349052429199e-01 -1.510298550128936768e-01 1.460408270359039307e-01
-2.225607782602310181e-01 -1.983106881380081177e-01 2.093944549560546875e-01
-9.273947775363922119e-02 7.331694960594177246e-01 2.603849768638610840e-01
-1.946879625320434570e-01 5.331742167472839355e-01 3.314414024353027344e-01
1.056808233261108398e-01 7.571233510971069336e-01 2.859726846218109131e-01
1.570983678102493286e-01 -1.983106881380081177e-01 8.733537979423999786e-04
2.759179770946502686e-01 -2.543782293796539307e-01 -4.625365734100341797e-01
1.607076376676559448e-01 -1.983106881380081177e-01 -5.360301733016967773e-01
3.566966578364372253e-02 -1.983106881380081177e-01 -2.614723742008209229e-01
-2.502928376197814941e-01 3.049156665802001953e-01 1.995792388916015625e-01
5.097339302301406860e-02 -1.983106881380081177e-01 -3.901344239711761475e-01
-2.975080534815788269e-02 -1.983106881380081177e-01 -1.712669581174850464e-01
-1.352852489799261093e-02 -4.481123387813568115e-02 1.372447609901428223e-01
-1.247539371252059937e-01 4.858070015907287598e-01 2.247962504625320435e-01
1.486420184373855591e-01 -4.481123387813568115e-02 -3.360733091831207275e-01
2.641535699367523193e-01 -3.986814022064208984e-01 -4.625365734100341797e-01
4.393203556537628174e-02 -4.481123387813568115e-02 -2.345220595598220825e-01
2.094646543264389038e-01 -1.306373924016952515e-01 -5.392856001853942871e-01
-2.864577770233154297e-01 -7.420930266380310059e-01 -5.239363908767700195e-01
2.740260660648345947e-01 -1.267681717872619629e-01 2.387199848890304565e-01
-2.993229627609252930e-01 -3.988296389579772949e-01 -5.239363908767700195e-01
-1.525028795003890991e-01 -1.983106881380081177e-01 -6.626465916633605957e-02
2.180842906236648560e-01 -1.983106881380081177e-01 1.915780305862426758e-01
2.736675739288330078e-01 2.448353320360183716e-01 2.428135126829147339e-01
3.002397119998931885e-01 -1.804454624652862549e-01 -6.091392040252685547e-02
2.800987660884857178e-01 -3.880950855091214180e-03 1.693199425935745239e-01
-1.350449472665786743e-01 -1.983106881380081177e-01 1.703559905290603638e-01
-2.249988764524459839e-01 8.631190657615661621e-02 2.871335446834564209e-01
-1.401773095130920410e-01 -4.481123387813568115e-02 -3.781974017620086670e-01
6.682156119495630264e-03 4.892829656600952148e-01 3.270898163318634033e-01
1.018848121166229248e-01 1.955846846103668213e-01 1.843388527631759644e-01
1.345587372779846191e-01 -1.983106881380081177e-01 -3.398918509483337402e-01
-8.223421871662139893e-02 -4.481123387813568115e-02 -1.557151973247528076e-01
4.846492409706115723e-02 -1.983106881380081177e-01 -1.195265129208564758e-01
-2.320625782012939453e-01 2.383112609386444092e-01 1.902942508459091187e-01
-6.562577188014984131e-02 2.316173166036605835e-01 3.015415370464324951e-01
-8.356428146362304688e-02 -1.619909256696701050e-01 -5.392856001853942871e-01
1.447680890560150146e-01 -1.555362641811370850e-01 2.631534039974212646e-01
-2.592944204807281494e-01 -1.983106881380081177e-01 2.357507497072219849e-01
-1.400112211704254150e-01 3.565818965435028076e-01 3.139318525791168213e-01
2.902977764606475830e-01 -4.481123387813568115e-02 -3.236576616764068604e-01
-2.679422199726104736e-01 2.395762801170349121e-01 3.023307621479034424e-01
1.885475963354110718e-01 3.194465637207031250e-01 2.016053348779678345e-01
4.713706584880128503e-05 -4.481123387813568115e-02 -5.370596051216125488e-01
-2.607659399509429932e-01 -4.742676913738250732e-01 2.680896520614624023e-01
-2.913320958614349365e-01 -3.241198658943176270e-01 -4.625365734100341797e-01
-1.026769727468490601e-01 7.461313605308532715e-01 3.422879576683044434e-01
-1.784725338220596313e-01 7.189360857009887695e-01 2.572946846485137939e-01
-2.411552071571350098e-01 -1.983106881380081177e-01 -4.390200376510620117e-01
-2.616377472877502441e-01 -4.481123387813568115e-02 -3.825029730796813965e-01
-9.558071941137313843e-02 6.585657000541687012e-01 3.438749015331268311e-01
-7.315389811992645264e-02 -4.481123387813568115e-02 8.494790643453598022e-02
-3.176320791244506836e-01 -1.812638044357299805e-01 -1.846727728843688965e-01
1.863243617117404938e-02 1.436087936162948608e-01 1.770930886268615723e-01
-3.539781644940376282e-02 1.544356495141983032e-01 1.786021292209625244e-01
-1.005467027425765991e-01 -5.457643419504165649e-02 2.731647491455078125e-01
3.237665891647338867e-01 -1.061517074704170227e-01 -3.298288881778717041e-01
1.633559316396713257e-01 2.198895215988159180e-01 3.003787994384765625e-01
-8.184871077537536621e-02 2.080172300338745117e-01 1.860712319612503052e-01
-2.598725259304046631e-01 -7.099098563194274902e-01 2.239244282245635986e-01
3.246975243091583252e-01 -5.593248009681701660e-01 -5.239363908767700195e-01
6.962939165532588959e-03 2.048893868923187256e-01 2.988913357257843018e-01
-2.705042064189910889e-01 -6.109102964401245117e-01 -4.663260281085968018e-01
1.645692810416221619e-02 -1.712197251617908478e-02 2.768782079219818115e-01
-3.618770465254783630e-02 5.336996912956237793e-01 2.314723879098892212e-01
-2.969252169132232666e-01 -7.073338627815246582e-01 -4.625365734100341797e-01
2.805154323577880859e-01 -4.481123387813568115e-02 -1.534222066402435303e-01
2.845493145287036896e-03 2.016142010688781738e-01 1.851787567138671875e-01
1.345681101083755493e-01 -4.481123387813568115e-02 9.260469675064086914e-02
6.429089605808258057e-02 -8.656284213066101074e-02 2.699927985668182373e-01
1.445006430149078369e-01 3.132547140121459961e-01 3.096356391906738281e-01
1.403855532407760620e-01 1.058822795748710632e-01 1.718340367078781128e-01
3.158666938543319702e-02 -1.976631879806518555e-01 2.589763700962066650e-01
-3.080683648586273193e-01 -1.026075705885887146e-01 -7.535765320062637329e-02
2.642990350723266602e-01 7.129544019699096680e-01 2.564603984355926514e-01
-2.875792793929576874e-02 5.468820929527282715e-01 3.328011929988861084e-01
1.036068573594093323e-01 -1.427114456892013550e-01 -5.392856001853942871e-01
2.571424543857574463e-01 -2.285146415233612061e-01 2.450901716947555542e-01
-1.648462861776351929e-01 6.153868436813354492e-01 2.428594827651977539e-01
-5.976103246212005615e-02 2.408760339021682739e-01 1.906517893075942993e-01
2.366908490657806396e-01 5.031184479594230652e-02 2.835646271705627441e-01
1.643309742212295532e-01 2.432211935520172119e-01 1.909793019294738770e-01
2.314927801489830017e-02 2.881625294685363770e-01 1.972434371709823608e-01
-2.352373301982879639e-01 -4.481123387813568115e-02 -1.612928658723831177e-01
2.513033896684646606e-02 -1.951875388622283936e-01 -5.392856001853942871e-01
-2.684724628925323486e-01 -1.847970485687255859e-01 -5.392856001853942871e-01
