1.709026545286178589e-01 -6.677961945533752441e-01 -4.375575482845306396e-01
-2.723928987979888916e-01 -1.855448186397552490e-01 1.639549434185028076e-01
3.328956663608551025e-01 3.198090791702270508e-01 2.300202548503875732e-01
-9.440352767705917358e-02 -6.677961945533752441e-01 -4.029834270477294922e-02
3.011417984962463379e-01 -1.423067748546600342e-01 -5.516098737716674805e-01
1.172697171568870544e-01 7.612506151199340820e-01 4.328507483005523682e-01
-6.794681400060653687e-02 3.146715462207794189e-02 -1.071716547012329102e-01
1.453185826539993286e-01 -5.294056981801986694e-02 4.305182099342346191e-01
-4.365774095058441162e-01 1.005815714597702026e-01 2.514522969722747803e-01
1.019544154405593872e-02 2.618751227855682373e-01 2.300202548503875732e-01
8.169039338827133179e-02 2.602885365486145020e-01 2.300202548503875732e-01
-3.447178304195404053e-01 -1.167424097657203674e-01 -2.635682523250579834e-01
1.022813841700553894e-01 6.330243349075317383e-01 3.933414220809936523e-01
-3.099132562056183815e-03 1.042608916759490967e-01 5.807146057486534119e-02
-2.383680082857608795e-02 1.042608916759490967e-01 -5.417241454124450684e-01
-1.737359762191772461e-01 5.788733959197998047e-01 2.300202548503875732e-01
-6.237473711371421814e-02 -4.109716415405273438e-01 -6.559107303619384766e-01
1.020985543727874756e-01 -2.871516905725002289e-02 3.932970166206359863e-01
4.506560564041137695e-01 5.442008376121520996e-01 2.545949518680572510e-01
-3.399629592895507812e-01 -1.428336650133132935e-01 4.305093288421630859e-01
1.176170408725738525e-01 -6.677961945533752441e-01 -5.594650506973266602e-01
3.514278233051300049e-01 4.701484367251396179e-02 -4.891963303089141846e-01
-2.664194405078887939e-01 3.146715462207794189e-02 4.601400718092918396e-02
-3.878102451562881470e-02 5.793697237968444824e-01 4.305823147296905518e-01
-3.392515480518341064e-01 -4.793604090809822083e-02 7.644475251436233521e-02
-1.520690768957138062e-01 -3.066343069076538086e-01 -6.651245355606079102e-01
1.581101268529891968e-01 3.146715462207794189e-02 -4.181442856788635254e-01
3.082173764705657959e-01 -6.370378732681274414e-01 -4.283891618251800537e-01
-3.696763515472412109e-01 -1.995598673820495605e-01 -2.068784236907958984e-01
-4.114857017993927002e-01 7.416992187500000000e-01 2.373474836349487305e-01
-3.751400858163833618e-02 7.845998406410217285e-01 3.912249505519866943e-01
-1.179836317896842957e-01 1.042608916759490967e-01 -4.056375846266746521e-02
1.894979476928710938e-01 5.418890118598937988e-01 3.999108672142028809e-01
-1.409559100866317749e-01 -6.677961945533752441e-01 -6.730832457542419434e-01
2.437100857496261597e-01 1.042608916759490967e-01 -4.023383855819702148e-01
-2.979661226272583008e-01 -1.248116269707679749e-01 1.236937493085861206e-01
-2.332111448049545288e-01 1.546529307961463928e-02 4.062325954437255859e-01
1.639661639928817749e-01 5.574889108538627625e-02 2.300202548503875732e-01
-1.565536260604858398e-01 -7.886900752782821655e-02 2.300202548503875732e-01
-1.269082874059677124e-01 -6.677961945533752441e-01 -6.027543544769287109e-01
4.501030966639518738e-02 3.146715462207794189e-02 -1.256891191005706787e-01
-3.553070724010467529e-01 -1.118631809949874878e-01 -4.165221154689788818e-01
7.556389272212982178e-02 6.546675562858581543e-01 2.300202548503875732e-01
1.449643522500991821e-01 4.361545145511627197e-01 3.959798216819763184e-01
-2.203959077596664429e-01 -3.530722558498382568e-01 1.577486395835876465e-01
-2.921801507472991943e-01 -3.030595183372497559e-01 5.915681645274162292e-02
1.635089516639709473e-02 -6.677961945533752441e-01 -3.430328965187072754e-01
2.610315382480621338e-01 -9.312777221202850342e-02 -5.522276163101196289e-01
-3.684133887290954590e-01 -2.042296156287193298e-02 -2.455656789243221283e-02
-2.147085964679718018e-01 -1.329400241374969482e-01 -6.781074404716491699e-01
-3.460350632667541504e-01 -4.391031712293624878e-02 -2.127740383148193359e-01
2.035258412361145020e-01 7.592890858650207520e-01 3.044665753841400146e-01
-8.835052140057086945e-03 3.495500981807708740e-01 2.300202548503875732e-01
-5.607220903038978577e-02 7.541026920080184937e-03 4.305250942707061768e-01
-4.741153419017791748e-01 -8.901127427816390991e-02 3.137179017066955566e-01
-1.953416913747787476e-01 -5.309449508786201477e-02 1.780982613563537598e-01
3.817865252494812012e-01 -1.102647408843040466e-01 -2.610669732093811035e-01
3.348217308521270752e-01 4.728379249572753906e-01 2.300202548503875732e-01
-7.427145540714263916e-02 7.592890858650207520e-01 3.269653022289276123e-01
-4.755973219871520996e-01 1.790443360805511475e-01 3.251684904098510742e-01
-2.161639630794525146e-01 3.146715462207794189e-02 -3.095483779907226562e-01
1.722475290298461914e-01 1.042608916759490967e-01 -2.584324777126312256e-01
-1.741691380739212036e-01 6.603766083717346191e-01 4.305911958217620850e-01
-1.572551727294921875e-01 -2.782578766345977783e-01 2.590962350368499756e-01
3.509897291660308838e-01 -2.354322373867034912e-01 -3.353919386863708496e-01
1.784952878952026367e-01 -2.608660794794559479e-02 -6.527838706970214844e-01
-9.357804432511329651e-03 -1.769408285617828369e-01 -7.293900847434997559e-01
9.196872264146804810e-02 7.592890858650207520e-01 2.832999825477600098e-01
-1.391384154558181763e-01 2.337110787630081177e-02 4.305260777473449707e-01
2.728275060653686523e-01 -6.677961945533752441e-01 -3.512205183506011963e-01
-1.614663898944854736e-01 -1.362099349498748779e-01 1.225462108850479126e-01
1.101633440703153610e-02 -2.460501194000244141e-01 3.298681378364562988e-01
4.041224122047424316e-01 3.774896264076232910e-02 -1.817058026790618896e-01
3.995792567729949951e-02 3.146715462207794189e-02 1.176179200410842896e-02
-1.105607002973556519e-01 -1.063268184661865234e-01 4.305132627487182617e-01
-3.294763267040252686e-01 -8.029675483703613281e-02 -3.826981484889984131e-01
-8.130798488855361938e-02 1.042608916759490967e-01 -2.179327011108398438e-01
4.842254817485809326e-01 2.377434819936752319e-01 3.457125425338745117e-01
2.422043681144714355e-01 -5.245484113693237305e-01 -5.036574006080627441e-01
-4.097579717636108398e-01 3.547884821891784668e-01 4.238974750041961670e-01
1.054293513298034668e-01 3.146715462207794189e-02 -5.375021100044250488e-01
1.339912861585617065e-01 -2.833492457866668701e-01 -6.873232722282409668e-01
2.862229347229003906e-01 6.578348875045776367e-01 2.290444225072860718e-01
-1.232348307967185974e-01 1.986302882432937622e-01 3.949210941791534424e-01
-2.332506030797958374e-01 7.457298636436462402e-01 4.062424898147583008e-01
-6.718113273382186890e-02 -6.677961945533752441e-01 -9.216459095478057861e-02
2.572481706738471985e-02 8.220235258340835571e-02 2.300202548503875732e-01
-5.144802853465080261e-03 -6.677961945533752441e-01 -5.045888423919677734e-01
-1.774745732545852661e-01 5.777229070663452148e-01 3.997332453727722168e-01
3.104058802127838135e-01 -4.284073784947395325e-02 5.440291389822959900e-02
-1.801830530166625977e-01 9.727208316326141357e-02 2.300202548503875732e-01
-3.839479386806488037e-01 -2.608660794794559479e-02 -3.339622020721435547e-01
-1.868613995611667633e-02 4.012767374515533447e-01 3.909003138542175293e-01
-3.795137107372283936e-01 -3.184376982972025871e-03 -2.498373538255691528e-01
7.865995168685913086e-02 -2.032678872346878052e-01 2.579595744609832764e-01
2.494269907474517822e-01 1.769738644361495972e-01 4.069814980030059814e-01
-3.314625322818756104e-01 -1.714311093091964722e-01 3.231569007039070129e-02
-3.739822804927825928e-01 7.592890858650207520e-01 3.527604937553405762e-01
-1.766013503074645996e-01 1.242063753306865692e-02 -7.035495042800903320e-01
-4.685118496417999268e-01 1.935603655874729156e-02 3.667311668395996094e-01
-4.667111337184906006e-01 4.569313824176788330e-01 3.710410594940185547e-01
2.650029957294464111e-01 -2.382916957139968872e-01 -5.779260993003845215e-01
-9.146722406148910522e-02 -9.485449641942977905e-02 -7.815321087837219238e-01
-3.384878337383270264e-01 -2.593991458415985107e-01 -3.632533252239227295e-01
-2.011809647083282471e-01 -2.294528782367706299e-01 -6.649173498153686523e-01
1.523757353425025940e-02 1.465185433626174927e-01 2.300202548503875732e-01
-2.767235338687896729e-01 2.160864323377609253e-01 4.125030636787414551e-01
-5.954065173864364624e-02 -6.619290262460708618e-02 1.645686775445938110e-01
8.909486234188079834e-02 9.746488183736801147e-02 3.926457762718200684e-01
1.751010566949844360e-01 1.852116882801055908e-01 2.300202548503875732e-01
-4.656387958675622940e-03 3.146715462207794189e-02 -6.242535114288330078e-01
-5.410335585474967957e-02 3.146715462207794189e-02 -3.391019105911254883e-01
-2.975231111049652100e-01 3.146715462207794189e-02 -5.866791009902954102e-01
2.893517315387725830e-01 -4.284073784947395325e-02 -6.546487212181091309e-01
-1.522447168827056885e-01 1.390208452939987183e-01 3.974677622318267822e-01
2.464629560708999634e-01 1.042608916759490967e-01 -1.377229839563369751e-01
3.685381412506103516e-01 7.592890858650207520e-01 3.160355985164642334e-01
-3.072035908699035645e-01 -5.089753866195678711e-01 -2.888208031654357910e-01
2.202740460634231567e-01 3.146715462207794189e-02 -4.532292485237121582e-01
-2.461319416761398315e-01 -4.696316272020339966e-02 4.078113436698913574e-01
3.744425475597381592e-01 -1.796214655041694641e-02 -4.480905830860137939e-01
1.807025372982025146e-01 -1.156570389866828918e-01 -7.219730615615844727e-01
2.014656215906143188e-01 -3.270175158977508545e-01 1.864950507879257202e-01
2.323018759489059448e-01 -6.677961945533752441e-01 1.321230828762054443e-01
3.261674046516418457e-01 -1.105558127164840698e-01 -7.596932351589202881e-02
-8.782643708400428295e-04 7.014567255973815918e-01 3.905993700027465820e-01
1.419322341680526733e-01 6.568905711174011230e-01 4.305902421474456787e-01
-2.358179986476898193e-01 1.042608916759490967e-01 -1.363815516233444214e-01
-4.732736647129058838e-01 5.524901151657104492e-01 3.072125315666198730e-01
4.603987038135528564e-01 5.579997897148132324e-01 3.966004550457000732e-01
4.374990612268447876e-02 -6.206456571817398071e-02 1.789162456989288330e-01
-3.603234291076660156e-01 -2.147578075528144836e-02 -4.661875367164611816e-01
3.308756975457072258e-03 -1.764060258865356445e-01 -7.766371369361877441e-01
-2.260076440870761871e-02 5.219490826129913330e-02 1.795339137315750122e-01
4.831410944461822510e-01 -4.494732990860939026e-02 3.064330518245697021e-01
3.435668051242828369e-01 -1.554012000560760498e-01 -2.503474950790405273e-01
-2.739345096051692963e-02 -6.677961945533752441e-01 -6.533305048942565918e-01
4.651295021176338196e-02 -5.861371159553527832e-01 -7.049663662910461426e-01
3.008082807064056396e-01 -2.608660794794559479e-02 -5.846198797225952148e-01
1.150802373886108398e-01 7.288523912429809570e-01 3.940153419971466064e-01
-1.269507259130477905e-01 1.401978079229593277e-02 -6.671501994132995605e-01
3.547984063625335693e-01 3.829616308212280273e-01 4.244874715805053711e-01
2.395876646041870117e-01 5.108702182769775391e-01 4.305754303932189941e-01
-1.650392115116119385e-01 3.146715462207794189e-02 -1.126719117164611816e-01
2.941668033599853516e-01 -8.105257153511047363e-02 1.533657163381576538e-01
-1.484597474336624146e-01 1.042608916759490967e-01 -1.079750359058380127e-01
-1.749722957611083984e-01 -1.295793503522872925e-01 2.300202548503875732e-01
2.523318231105804443e-01 7.993973493576049805e-01 3.181639313697814941e-01
-1.387979984283447266e-01 -2.000226229429244995e-01 2.300202548503875732e-01
-2.163465023040771484e-01 1.887471377849578857e-01 2.300202548503875732e-01
-9.497877955436706543e-02 2.290844172239303589e-02 2.300202548503875732e-01
5.919812992215156555e-02 -6.677961945533752441e-01 -5.178905129432678223e-01
2.769430279731750488e-01 3.146715462207794189e-02 -1.908980756998062134e-01
2.684890031814575195e-01 -4.587376713752746582e-01 -3.826863169670104980e-01
4.075774177908897400e-02 -6.677961945533752441e-01 -6.885772943496704102e-01
4.110589027404785156e-01 7.592890858650207520e-01 2.568376958370208740e-01
-3.051848113536834717e-01 -2.288707047700881958e-01 8.195248991250991821e-02
2.907643094658851624e-02 6.571611762046813965e-02 -7.660962343215942383e-01
7.977146655321121216e-02 1.042608916759490967e-01 -2.056991308927536011e-01
3.986462354660034180e-01 -5.551881715655326843e-02 -3.113155364990234375e-01
1.335413604974746704e-01 -5.896891951560974121e-01 2.266191095113754272e-01
-4.570957720279693604e-01 6.565728783607482910e-01 2.726702988147735596e-01
3.892420232295989990e-01 3.237104713916778564e-01 2.304415851831436157e-01
-3.097887337207794189e-01 -4.921541512012481689e-01 -2.280751615762710571e-01
2.917148768901824951e-01 8.459796011447906494e-02 4.305329620838165283e-01
-1.471227705478668213e-01 -4.160166382789611816e-01 2.054376751184463501e-01
1.192786395549774170e-01 1.042608916759490967e-01 -3.040274977684020996e-02
-7.099235802888870239e-02 -3.431687653064727783e-01 2.776007652282714844e-01
-1.843370646238327026e-01 -1.992885321378707886e-01 4.305033981800079346e-01
2.243402153253555298e-01 7.592890858650207520e-01 2.511829435825347900e-01
-2.370109111070632935e-01 4.597040116786956787e-01 4.067003428936004639e-01
-3.842044770717620850e-01 6.068660020828247070e-01 2.310799807310104370e-01
3.286281824111938477e-01 -6.041482686996459961e-01 -1.987884044647216797e-01
3.139323592185974121e-01 -1.592019796371459961e-01 -3.336087241768836975e-02
1.884352862834930420e-01 8.166608214378356934e-02 4.305320382118225098e-01
-3.849889039993286133e-01 -8.434517681598663330e-02 -2.815241515636444092e-01
8.635796606540679932e-02 -6.677961945533752441e-01 1.981657147407531738e-01
-3.522877693176269531e-01 1.401978079229593277e-02 -2.005101889371871948e-01
3.414838910102844238e-01 -4.284073784947395325e-02 -4.492890834808349609e-02
-3.857012987136840820e-01 3.146715462207794189e-02 -7.827099412679672241e-02
2.218014448881149292e-01 2.151263952255249023e-01 4.035744369029998779e-01
4.393080472946166992e-01 7.010058164596557617e-01 2.459179162979125977e-01
-2.387534081935882568e-01 6.502531170845031738e-01 2.300202548503875732e-01
3.627932444214820862e-02 4.244138002395629883e-01 3.910157680511474609e-01
2.037596851587295532e-01 1.401978079229593277e-02 -6.410737633705139160e-01
-3.591680228710174561e-01 -4.478946700692176819e-02 2.841329574584960938e-02
-5.081103742122650146e-02 -2.589403390884399414e-01 3.166098892688751221e-01
1.288505941629409790e-01 -6.677961945533752441e-01 -3.326765298843383789e-01
-3.094227015972137451e-01 -2.498991936445236206e-01 -4.805903434753417969e-01
3.212338984012603760e-01 -1.990872472524642944e-01 7.248611748218536377e-02
-3.576751351356506348e-01 -1.681316047906875610e-01 -6.251462548971176147e-02
-3.744924366474151611e-01 -6.470891833305358887e-02 2.300202548503875732e-01
1.630248576402664185e-01 -1.051980480551719666e-01 1.225462108850479126e-01
-2.902116775512695312e-01 7.266177237033843994e-02 -5.387216806411743164e-01
2.137971343472599983e-03 -4.370382428169250488e-01 2.498489171266555786e-01
3.728875219821929932e-01 4.564185440540313721e-02 -4.181689023971557617e-01
3.619292378425598145e-01 -5.219067633152008057e-02 -4.992715716361999512e-01
1.353223472833633423e-01 4.753007292747497559e-01 2.300202548503875732e-01
3.975381553173065186e-01 5.656082630157470703e-01 4.290085732936859131e-01
-2.504369020462036133e-01 -2.545623481273651123e-01 -5.925548672676086426e-01
-2.151969969272613525e-01 4.544370472431182861e-01 2.300202548503875732e-01
3.524500429630279541e-01 -2.032728344202041626e-01 4.013899266719818115e-01
-7.858765870332717896e-02 6.196910738945007324e-01 2.300202548503875732e-01
5.388732999563217163e-02 3.597288727760314941e-01 4.305606186389923096e-01
3.014614582061767578e-01 1.567711234092712402e-01 4.305399060249328613e-01
-2.297330349683761597e-01 6.576702743768692017e-02 4.058093428611755371e-01
-3.125633299350738525e-01 -3.039248585700988770e-01 -8.624360896646976471e-03
3.448366820812225342e-01 -4.726508632302284241e-02 4.225042164325714111e-01
2.000122070312500000e-01 3.455934524536132812e-01 4.305586814880371094e-01
4.851559102535247803e-01 1.160264238715171814e-01 3.220002353191375732e-01
-3.582365810871124268e-01 -2.118541449308395386e-01 -3.216038346290588379e-01
4.100613296031951904e-01 -7.109876722097396851e-02 2.331362515687942505e-01
1.337742209434509277e-01 -6.677961945533752441e-01 -6.389197707176208496e-01
-2.805618047714233398e-01 6.390536669641733170e-03 1.125006377696990967e-01
5.667208880186080933e-02 7.592890858650207520e-01 3.518300354480743408e-01
-1.710669547319412231e-01 -6.429501175880432129e-01 2.072019129991531372e-01
-6.694126874208450317e-02 -1.708844900131225586e-01 -7.184624075889587402e-01
2.762247323989868164e-01 -1.085163056850433350e-01 2.300202548503875732e-01
-2.709701061248779297e-01 -6.056559681892395020e-01 -4.985394179821014404e-01
-3.143472969532012939e-01 1.401978079229593277e-02 -3.048733770847320557e-01
-1.388453543186187744e-01 1.042608916759490967e-01 -2.758832275867462158e-01
2.358411550521850586e-01 -4.228070974349975586e-01 6.902477890253067017e-02
-5.800613388419151306e-02 1.255532950162887573e-01 3.915713131427764893e-01
1.037554144859313965e-01 1.042608916759490967e-01 -1.158006265759468079e-01
-3.152777552604675293e-01 7.592890858650207520e-01 3.345105350017547607e-01
-3.814046084880828857e-02 -2.032678872346878052e-01 2.924900949001312256e-01
2.394830584526062012e-01 3.146715462207794189e-02 -1.072302684187889099e-01
4.644767343997955322e-01 3.476487398147583008e-01 3.912999331951141357e-01
-2.508779764175415039e-01 -4.853340983390808105e-01 6.193239241838455200e-02
2.695052921772003174e-01 1.042608916759490967e-01 -6.196730583906173706e-02
-2.981171011924743652e-01 -6.514189839363098145e-01 -4.276982042938470840e-03
3.728046119213104248e-01 -1.403136402368545532e-01 -1.514977663755416870e-01
2.459702081978321075e-02 -5.253861546516418457e-01 -6.827015280723571777e-01
-3.350856900215148926e-01 3.146715462207794189e-02 -3.719254136085510254e-01
6.758863106369972229e-03 -6.677961945533752441e-01 1.547974050045013428e-01
-2.104036360979080200e-01 -2.266573347151279449e-02 -6.027169227600097656e-01
3.415066003799438477e-01 -1.170660406351089478e-01 -1.890196949243545532e-01
4.785559177398681641e-01 7.103853225708007812e-01 2.938694655895233154e-01
3.067580461502075195e-01 -2.826832234859466553e-01 -4.434728026390075684e-01
-5.837733298540115356e-02 4.748764634132385254e-01 4.305724799633026123e-01
4.277123510837554932e-01 -1.764050573110580444e-01 4.205614328384399414e-01
3.985347151756286621e-01 6.034717559814453125e-01 2.316443622112274170e-01
2.116670757532119751e-01 1.042608916759490967e-01 -3.672057390213012695e-02
1.281579285860061646e-01 -1.395647376775741577e-01 -7.462162375450134277e-01
4.169224202632904053e-02 2.717233598232269287e-01 3.911105096340179443e-01
-3.165884315967559814e-02 -9.091658145189285278e-02 4.305151998996734619e-01
-3.808931112289428711e-01 -1.139589250087738037e-01 -2.230049073696136475e-01
1.577894538640975952e-01 -2.663947939872741699e-01 2.630292177200317383e-01
2.354938387870788574e-01 -3.200287520885467529e-01 -5.640038251876831055e-01
1.190068107098340988e-02 -6.677961945533752441e-01 -2.562864124774932861e-01
-1.190907061100006104e-01 -3.392690420150756836e-02 4.305201470851898193e-01
2.280991524457931519e-02 -5.258409976959228516e-01 2.585901021957397461e-01
-3.045336008071899414e-01 -3.487583994865417480e-01 -3.846518099308013916e-01
1.968814134597778320e-01 -2.032678872346878052e-01 2.699756026268005371e-01
-2.937736511230468750e-01 -5.219758674502372742e-02 -4.950050711631774902e-01
1.455573588609695435e-01 5.299144983291625977e-01 4.305773675441741943e-01
-1.803882867097854614e-01 3.146715462207794189e-02 1.129713058471679688e-01
-4.938812181353569031e-02 3.146715462207794189e-02 -7.931366562843322754e-01
-4.052546918392181396e-01 2.255104035139083862e-01 2.347445636987686157e-01
1.817138940095901489e-01 -2.032708525657653809e-01 3.505621552467346191e-01
3.670245707035064697e-01 -2.608660794794559479e-02 8.594499900937080383e-03
-1.001964285969734192e-01 -6.677961945533752441e-01 -2.614054083824157715e-01
-1.605398803949356079e-01 -2.032678872346878052e-01 3.083285093307495117e-01
2.586910724639892578e-01 -6.504806280136108398e-01 -5.602741241455078125e-01
-7.435186207294464111e-02 2.053434699773788452e-01 4.305448532104492188e-01
1.816349625587463379e-01 -3.282114267349243164e-01 -6.218795180320739746e-01
-4.734117984771728516e-01 5.145841240882873535e-01 3.522414565086364746e-01
-4.639711081981658936e-01 3.130827546119689941e-01 2.829230427742004395e-01
3.123062551021575928e-01 4.731065407395362854e-02 -5.698727369308471680e-01
-4.686815738677978516e-01 1.342226266860961914e-01 2.941999733448028564e-01
3.314284682273864746e-01 1.401978079229593277e-02 -3.340033441781997681e-02
-2.766771614551544189e-01 7.426335811614990234e-01 2.300202548503875732e-01
1.208504512906074524e-01 3.491356968879699707e-01 4.305596053600311279e-01
-2.295179218053817749e-01 3.146715462207794189e-02 -1.930918991565704346e-01
-3.172284364700317383e-01 -5.528864264488220215e-01 -1.787848770618438721e-01
6.527609378099441528e-02 -4.682601243257522583e-02 1.225462108850479126e-01
-2.128486633300781250e-01 -8.350747823715209961e-02 4.305151998996734619e-01
-4.591494426131248474e-02 7.089694738388061523e-01 4.305961430072784424e-01
6.133887171745300293e-02 4.026393592357635498e-01 2.300202548503875732e-01
-3.364512920379638672e-01 -1.885838508605957031e-01 -1.078538671135902405e-01
1.933500170707702637e-01 -4.284073784947395325e-02 1.260410994291305542e-01
1.293607205152511597e-01 3.146715462207794189e-02 -1.046553850173950195e-01
1.057372018694877625e-01 1.042608916759490967e-01 -3.875211179256439209e-01
3.010874986648559570e-01 -4.073030948638916016e-01 -1.847046762704849243e-01
4.699311554431915283e-01 7.758767157793045044e-02 3.842124640941619873e-01
-1.811460703611373901e-01 -6.677961945533752441e-01 -1.710009016096591949e-02
-1.732909828424453735e-01 3.487025201320648193e-01 4.305596053600311279e-01
4.670979827642440796e-02 -1.276355236768722534e-01 -7.218458056449890137e-01
4.524830356240272522e-02 1.401978079229593277e-02 9.333997219800949097e-02
-4.178429841995239258e-01 7.427244186401367188e-01 4.205199778079986572e-01
-1.628990769386291504e-01 3.146715462207794189e-02 -4.976928234100341797e-01
1.764597445726394653e-01 -6.688161194324493408e-02 3.987001776695251465e-01
3.157310783863067627e-01 1.002399995923042297e-01 -4.584330916404724121e-01
5.016386974602937698e-03 -2.608660794794559479e-02 1.759206354618072510e-01
7.247503846883773804e-02 -1.101473197340965271e-01 2.300202548503875732e-01
7.339266687631607056e-02 7.612989544868469238e-01 4.328458011150360107e-01
1.040573492646217346e-01 1.042608916759490967e-01 1.000268235802650452e-01
-2.049422562122344971e-01 -2.032678872346878052e-01 1.450646072626113892e-01
9.857606142759323120e-03 5.525532364845275879e-01 2.300202548503875732e-01
-3.188732564449310303e-01 -1.931956708431243896e-01 4.305043816566467285e-01
-1.033449843525886536e-01 9.957183897495269775e-02 2.300202548503875732e-01
-6.287243217229843140e-02 -8.084042370319366455e-02 -7.192350029945373535e-01
-1.789684295654296875e-01 3.146715462207794189e-02 -3.509027957916259766e-01
2.525942623615264893e-01 -2.117278426885604858e-01 -6.183066964149475098e-01
3.474524319171905518e-01 -1.934344768524169922e-01 -4.060749709606170654e-01
-2.752977609634399414e-01 -5.116345286369323730e-01 -4.367928206920623779e-01
3.348532617092132568e-01 -1.512736082077026367e-02 -1.647628247737884521e-01
-2.730076313018798828e-01 -6.677961945533752441e-01 -3.495026826858520508e-01
-2.816461622714996338e-01 -1.747178137302398682e-01 -5.178451538085937500e-01
-1.180280372500419617e-01 -2.032678872346878052e-01 -7.115239500999450684e-01
-5.293292924761772156e-02 5.177406072616577148e-01 3.914854228496551514e-01
-1.262047886848449707e-01 -6.677961945533752441e-01 -4.923419356346130371e-01
-2.757210433483123779e-01 -1.449501216411590576e-01 2.300202548503875732e-01
-8.033667504787445068e-02 9.710059314966201782e-02 -7.182877659797668457e-01
2.887774705886840820e-01 -3.348143994808197021e-01 -4.366803765296936035e-01
-2.416888624429702759e-01 -5.614815354347229004e-01 9.912991523742675781e-02
-2.985640764236450195e-01 -4.358581304550170898e-01 -1.223567426204681396e-01
3.079677522182464600e-01 -7.196410000324249268e-02 -4.493328034877777100e-01
-2.503777146339416504e-01 -6.677961945533752441e-01 -4.688753485679626465e-01
8.239164203405380249e-02 1.276146024465560913e-01 4.305369555950164795e-01
-2.485769838094711304e-01 3.146715462207794189e-02 1.845354735851287842e-01
-1.493951231241226196e-01 -5.516273975372314453e-01 2.100672721862792969e-01
5.948387831449508667e-02 -3.332504630088806152e-01 2.828539609909057617e-01
5.264034494757652283e-02 6.229955554008483887e-01 4.305872619152069092e-01
2.561302483081817627e-02 7.993973493576049805e-01 3.543412387371063232e-01
-3.558142185211181641e-01 -2.457906007766723633e-01 -2.388754487037658691e-01
2.325465828180313110e-01 -2.032728344202041626e-01 3.860013484954833984e-01
-3.699092268943786621e-01 6.192946806550025940e-02 -2.801605463027954102e-01
1.264218520373106003e-02 6.662710905075073242e-01 4.305911958217620850e-01
5.105817317962646484e-02 -6.677961945533752441e-01 -3.922188282012939453e-01
-3.315671384334564209e-01 -6.413744091987609863e-01 -2.064210921525955200e-01
-2.697761952877044678e-01 -1.474918425083160400e-01 -6.051520705223083496e-01
3.088735342025756836e-01 4.714015498757362366e-02 2.300202548503875732e-01
-1.048056688159704208e-02 3.146715462207794189e-02 -1.248945221304893494e-01
1.826088279485702515e-01 -1.802946031093597412e-01 1.850574612617492676e-01
1.415817183442413807e-03 1.042608916759490967e-01 -6.301411986351013184e-01
2.475962974131107330e-02 -2.587250247597694397e-02 -8.154025077819824219e-01
-2.919472754001617432e-01 -4.284073784947395325e-02 4.848470166325569153e-02
1.930980198085308075e-02 5.751101374626159668e-01 4.305823147296905518e-01
9.378168731927871704e-02 -3.842864334583282471e-01 2.469559609889984131e-01
3.328986465930938721e-01 3.073559701442718506e-01 4.202140867710113525e-01
-3.700733929872512817e-02 -6.677961945533752441e-01 -1.948889158666133881e-02
-1.101758852601051331e-01 1.031803488731384277e-01 3.942107260227203369e-01
-8.759413659572601318e-02 -1.978568583726882935e-01 1.225462108850479126e-01
-2.018114775419235229e-01 1.281384378671646118e-01 4.023696780204772949e-01
-1.593114435672760010e-01 1.042608916759490967e-01 2.070453017950057983e-03
2.659985721111297607e-01 3.146715462207794189e-02 5.242754518985748291e-02
8.453820645809173584e-02 3.146715462207794189e-02 -2.347633838653564453e-01
-4.692588150501251221e-01 2.286757081747055054e-01 3.649442791938781738e-01
-2.834942340850830078e-01 4.786417186260223389e-01 4.305724799633026123e-01
3.726793229579925537e-01 3.401538133621215820e-01 4.305586814880371094e-01
-1.507301479578018188e-01 -2.485916204750537872e-02 1.882375627756118774e-01
-1.895774006843566895e-01 1.016317084431648254e-01 -6.322991251945495605e-01
-3.843998610973358154e-01 5.302026271820068359e-01 4.294180274009704590e-01
-8.646592497825622559e-03 6.901728510856628418e-01 2.300202548503875732e-01
-2.550329566001892090e-01 8.076582103967666626e-02 1.395489871501922607e-01
-2.517334520816802979e-01 -2.325353175401687622e-01 1.817559450864791870e-01
-3.489369451999664307e-01 -1.077989786863327026e-01 6.476350245065987110e-04
1.787863671779632568e-01 7.058761715888977051e-01 2.300202548503875732e-01
-3.208673894405364990e-01 -1.063514947891235352e-01 -4.930156096816062927e-02
3.717755079269409180e-01 -1.964251399040222168e-01 -2.268096208572387695e-01
2.862821221351623535e-01 -5.751689672470092773e-01 4.440493416041135788e-03
-2.917825281620025635e-01 3.146715462207794189e-02 -4.249287843704223633e-01
3.134301006793975830e-01 -2.032688856124877930e-01 2.637781202793121338e-01
1.174512729048728943e-01 -5.248730778694152832e-01 -6.474290490150451660e-01
-3.006430268287658691e-01 5.382362604141235352e-01 4.305783808231353760e-01
2.765039205551147461e-01 -4.538041949272155762e-01 -5.736021324992179871e-02
-2.450663000345230103e-01 -1.024727821350097656e-01 1.225462108850479126e-01
2.485853433609008789e-01 -1.341516971588134766e-01 4.068778753280639648e-01
2.023733705282211304e-01 1.326791662722826004e-02 -5.947818160057067871e-01
-1.332636177539825439e-01 2.458679378032684326e-01 2.300202548503875732e-01
3.230198323726654053e-01 -3.160178065299987793e-01 -8.030299842357635498e-02
-1.171429604291915894e-01 -5.177195072174072266e-01 -6.476628780364990234e-01
-2.013388276100158691e-01 -6.596164703369140625e-01 -6.355867385864257812e-01
3.703872263431549072e-01 -1.484637409448623657e-01 -2.924173176288604736e-01
4.977734014391899109e-02 1.042608916759490967e-01 -4.322500824928283691e-01
-1.182658299803733826e-01 7.592890858650207520e-01 3.353689610958099365e-01
2.430332005023956299e-01 3.154508471488952637e-01 4.305556714534759521e-01
2.119265794754028320e-01 -4.004070460796356201e-01 1.318793743848800659e-01
-2.940903902053833008e-01 3.796325325965881348e-01 2.300202548503875732e-01
-4.139605443924665451e-03 -6.677961945533752441e-01 9.013912826776504517e-02
-2.917341291904449463e-01 -5.189429521560668945e-01 -4.092489182949066162e-02
-6.870992481708526611e-02 7.592890858650207520e-01 4.267342090606689453e-01
3.069534301757812500e-01 1.401978079229593277e-02 -1.263514757156372070e-01
4.742959514260292053e-02 1.042608916759490967e-01 -2.966956496238708496e-01
-2.816214859485626221e-01 -4.639059901237487793e-01 -2.882995456457138062e-02
-3.452526330947875977e-01 7.592890858650207520e-01 3.883941173553466797e-01
-2.982532680034637451e-01 -5.756505131721496582e-01 -3.905214369297027588e-02
-2.611820697784423828e-01 -5.392699837684631348e-01 5.507682636380195618e-02
2.680183351039886475e-01 -6.201130747795104980e-01 7.020882517099380493e-02
-2.517670094966888428e-01 -4.148494005203247070e-01 -4.702961742877960205e-01
1.115567460656166077e-01 7.021454572677612305e-01 2.300202548503875732e-01
-4.002692922949790955e-02 -1.682547666132450104e-02 3.912545442581176758e-01
-2.636833190917968750e-01 -6.677961945533752441e-01 -1.541653126478195190e-01
3.364473953843116760e-02 6.700760126113891602e-02 1.644226461648941040e-01
-1.531495302915573120e-01 4.219233691692352295e-01 4.305665493011474609e-01
-1.969075649976730347e-01 -6.677961945533752441e-01 -1.920460015535354614e-01
1.295570731163024902e-01 -4.284073784947395325e-02 1.373733282089233398e-01
-2.098530530929565430e-01 -5.411831736564636230e-01 1.439338773488998413e-01
1.414487510919570923e-01 -3.954153656959533691e-01 2.117239385843276978e-01
2.018879204988479614e-01 -8.271579281426966190e-04 2.300202548503875732e-01
2.758142352104187012e-01 -4.045473039150238037e-01 -3.869498074054718018e-01
-2.391382306814193726e-01 -7.193942368030548096e-02 -6.857632994651794434e-01
-3.671059906482696533e-01 2.040318697690963745e-01 4.288092553615570068e-01
1.737611144781112671e-01 3.146715462207794189e-02 9.578993916511535645e-02
2.510471343994140625e-01 -1.160773709416389465e-01 -6.474172472953796387e-01
-3.114256858825683594e-01 3.146715462207794189e-02 -4.853818118572235107e-01
-1.571643948554992676e-01 5.199961662292480469e-01 2.300202548503875732e-01
1.778480261564254761e-01 -6.677961945533752441e-01 1.319070160388946533e-01
3.329722583293914795e-02 -1.573529094457626343e-01 4.305083155632019043e-01
2.789726555347442627e-01 2.561749815940856934e-01 2.300202548503875732e-01
-2.986550331115722656e-03 -5.827388763427734375e-01 2.720713317394256592e-01
4.234666228294372559e-01 4.378536045551300049e-01 4.223345518112182617e-01
-2.637228071689605713e-01 1.042608916759490967e-01 -2.672002613544464111e-01
4.165721684694290161e-02 4.663385748863220215e-01 4.305714964866638184e-01
2.717825770378112793e-01 8.109014481306076050e-02 -5.860880613327026367e-01
3.713774681091308594e-02 8.247102797031402588e-02 3.910305798053741455e-01
-2.956848740577697754e-01 -9.223283082246780396e-02 2.300202548503875732e-01
3.416200578212738037e-01 6.563903093338012695e-01 2.300202548503875732e-01
-1.608052998781204224e-01 1.042608916759490967e-01 8.907250314950942993e-02
-8.654379844665527344e-02 -6.677961945533752441e-01 -1.425382196903228760e-01
-4.600341618061065674e-01 -1.379287987947463989e-01 2.765134572982788086e-01
-2.569106519222259521e-01 1.401978079229593277e-02 -5.139131546020507812e-01
-2.320221662521362305e-01 3.504361510276794434e-01 2.300202548503875732e-01
4.825279861688613892e-02 -6.677961945533752441e-01 -4.091206565499305725e-02
2.814867496490478516e-01 8.252490311861038208e-02 1.163201630115509033e-01
4.691714346408843994e-01 2.462076209485530853e-02 2.753235101699829102e-01
4.055211693048477173e-02 -3.524762690067291260e-01 -6.889641284942626953e-01
-3.134760260581970215e-01 -3.817279040813446045e-01 -2.840165793895721436e-01
2.503890395164489746e-01 -6.677961945533752441e-01 -3.052206933498382568e-01
3.414365053176879883e-01 -4.617380723357200623e-02 -2.736828923225402832e-01
-2.543160133063793182e-02 4.460570216178894043e-01 4.305694997310638428e-01
-4.702010750770568848e-01 -1.299611777067184448e-01 3.626876771450042725e-01
1.173397749662399292e-01 -2.032678872346878052e-01 1.777144372463226318e-01
1.637412160634994507e-01 3.146715462207794189e-02 -6.912996172904968262e-01
4.365531802177429199e-01 7.592890858650207520e-01 3.291350305080413818e-01
2.198181897401809692e-01 -5.220363140106201172e-01 1.222748830914497375e-01
4.399292543530464172e-02 -9.914070367813110352e-02 1.225462108850479126e-01
-1.014781519770622253e-01 -4.350509941577911377e-01 2.257606983184814453e-01
2.937415242195129395e-01 -8.474972844123840332e-02 2.871917560696601868e-02
-2.120948284864425659e-01 2.601819634437561035e-01 2.300202548503875732e-01
2.680588066577911377e-01 -2.962098717689514160e-01 1.046070680022239685e-01
-1.993595212697982788e-01 7.993973493576049805e-01 3.531048893928527832e-01
-1.263597011566162109e-01 -2.381446957588195801e-01 2.959513962268829346e-01
-2.345544099807739258e-02 -2.148882299661636353e-01 -7.646300196647644043e-01
3.331295251846313477e-01 -5.351680517196655273e-02 -1.002128720283508301e-01
3.031888045370578766e-02 -4.284073784947395325e-02 -7.685866355895996094e-01
3.195131123065948486e-01 -6.677961945533752441e-01 -2.603930234909057617e-01
-7.882831245660781860e-02 3.269458711147308350e-01 2.300202548503875732e-01
1.500951796770095825e-01 -2.032728344202041626e-01 3.896748423576354980e-01
3.566020727157592773e-01 1.343887746334075928e-01 4.305379092693328857e-01
-2.309762686491012573e-01 -6.677961945533752441e-01 -2.477228641510009766e-01
-1.908443272113800049e-01 -4.284073784947395325e-02 -6.793575882911682129e-01
-4.686904549598693848e-01 6.579157114028930664e-01 3.663029372692108154e-01
2.926768958568572998e-01 -4.225199818611145020e-01 -2.559233009815216064e-01
1.817444860935211182e-01 -1.779423058032989502e-01 3.991540074348449707e-01
1.918541938066482544e-01 3.146715462207794189e-02 1.831975132226943970e-01
1.180344074964523315e-01 9.687089361250400543e-03 4.305250942707061768e-01
-2.566304206848144531e-01 -3.351636826992034912e-01 -5.206739902496337891e-01
4.795850217342376709e-01 7.255785465240478516e-01 3.641657233238220215e-01
-4.779851436614990234e-01 7.883463501930236816e-01 3.159418404102325439e-01
-4.503153730183839798e-03 -8.003035187721252441e-02 2.300202548503875732e-01
3.748737275600433350e-01 7.421948015689849854e-02 -2.523110210895538330e-01
-1.379938423633575439e-01 6.776289343833923340e-01 2.300202548503875732e-01
7.411581277847290039e-02 -2.663149237632751465e-01 -7.277680039405822754e-01
3.258644640445709229e-01 -2.280724793672561646e-01 -4.496011435985565186e-01
1.833902895450592041e-01 3.256414532661437988e-01 2.300202548503875732e-01
-2.612560689449310303e-01 -6.453211903572082520e-01 -5.383191108703613281e-01
4.669503867626190186e-01 2.000754922628402710e-01 3.880862295627593994e-01
6.809055060148239136e-02 7.592890858650207520e-01 2.382976859807968140e-01
-3.906081318855285645e-01 4.674172773957252502e-02 -2.221481651067733765e-01
1.746590137481689453e-01 -6.664680838584899902e-01 2.171093374490737915e-01
-3.291132152080535889e-01 -3.396649956703186035e-01 -1.707246601581573486e-01
-1.080663353204727173e-01 1.042608916759490967e-01 -6.427186131477355957e-01
-2.986893951892852783e-01 -1.386678218841552734e-01 -4.857468605041503906e-01
4.177033007144927979e-01 -1.532196402549743652e-01 2.357805967330932617e-01
-4.124694168567657471e-01 -1.224701777100563049e-01 2.377589344978332520e-01
-1.341427713632583618e-01 -1.055137887597084045e-01 -7.531161904335021973e-01
3.596864640712738037e-01 6.037697792053222656e-01 4.305853247642517090e-01
-9.558065980672836304e-02 3.146715462207794189e-02 -2.937266528606414795e-01
-1.073855087161064148e-01 -1.891877055168151855e-01 4.305043816566467285e-01
3.326618373394012451e-01 1.042608916759490967e-01 -1.564987301826477051e-01
4.624085724353790283e-01 -1.674971431493759155e-01 2.665349841117858887e-01
-3.299045562744140625e-01 1.791538321413099766e-03 2.352618612349033356e-02
-5.791111662983894348e-02 -1.029809340834617615e-01 2.300202548503875732e-01
3.985278308391571045e-01 -1.956059038639068604e-02 -3.474602103233337402e-01
3.592700958251953125e-01 2.387134134769439697e-01 4.305478036403656006e-01
3.339603245258331299e-01 -6.530717015266418457e-01 -1.307858526706695557e-01
-2.958782911300659180e-01 5.491945743560791016e-01 2.300202548503875732e-01
-8.394513279199600220e-02 -1.128834336996078491e-01 1.826814711093902588e-01
-2.925323843955993652e-01 1.042608916759490967e-01 -3.513290584087371826e-01
2.620024383068084717e-01 -1.970733851194381714e-01 4.305043816566467285e-01
-2.925284504890441895e-01 6.224755644798278809e-01 4.150517284870147705e-01
4.757704734802246094e-01 2.723313495516777039e-02 3.733923435211181641e-01
-3.962573781609535217e-02 3.146715462207794189e-02 -6.761409640312194824e-01
3.194075226783752441e-01 -2.925136983394622803e-01 -3.834549486637115479e-01
2.187288701534271240e-01 2.128530442714691162e-01 2.300202548503875732e-01
1.446703076362609863e-01 -2.032678872346878052e-01 -6.878274679183959961e-01
3.700328059494495392e-03 8.189903944730758667e-02 4.305320382118225098e-01
-3.029223084449768066e-01 3.015097677707672119e-01 4.166797399520874023e-01
-2.566521465778350830e-01 1.042608916759490967e-01 -4.951530396938323975e-01
1.537025421857833862e-01 8.192627131938934326e-02 -7.034291028976440430e-01
-1.396672874689102173e-01 -3.262853622436523438e-01 2.492056339979171753e-01
2.576816976070404053e-01 7.382792830467224121e-01 4.079997837543487549e-01
-4.450255036354064941e-01 1.653404207900166512e-03 2.579122483730316162e-01
-2.230649292469024658e-01 -3.722129622474312782e-03 -6.785771250724792480e-01
-4.651097357273101807e-01 9.122382104396820068e-02 3.748733997344970703e-01
-4.565554484724998474e-02 -6.677961945533752441e-01 -4.056635499000549316e-01
-2.125782966613769531e-01 -2.032718211412429810e-01 3.788172006607055664e-01
-1.154349893331527710e-01 -4.480014145374298096e-01 -6.194049119949340820e-01
-1.010982692241668701e-01 -2.032708525657653809e-01 3.697524368762969971e-01
5.658289045095443726e-02 3.146715462207794189e-02 -4.925225079059600830e-01
-3.867916166782379150e-01 2.519844770431518555e-01 4.291091859340667725e-01
1.847371459007263184e-01 3.947063088417053223e-01 4.305635988712310791e-01
2.665024064481258392e-02 -6.677961945533752441e-01 -1.549476534128189087e-01
4.678126424551010132e-03 2.303313910961151123e-01 3.904671669006347656e-01
3.063791394233703613e-01 -3.738846778869628906e-01 -2.931227684020996094e-01
-1.351156532764434814e-01 1.042608916759490967e-01 -1.616171449422836304e-01
1.723975092172622681e-01 1.042608916759490967e-01 -5.962421894073486328e-01
1.170585677027702332e-01 -4.068229463882744312e-04 1.882533431053161621e-01
2.123676389455795288e-01 5.850935578346252441e-01 4.305832982063293457e-01
-1.964724361896514893e-01 3.146715462207794189e-02 -4.034207463264465332e-01
2.494329065084457397e-01 -1.340658664703369141e-01 1.120842471718788147e-01
7.680831849575042725e-02 5.662485957145690918e-01 3.920014500617980957e-01
-3.627191483974456787e-01 7.494832873344421387e-01 2.300202548503875732e-01
1.676958948373794556e-01 -5.972917079925537109e-01 -6.492840647697448730e-01
2.455232478678226471e-02 7.485212087631225586e-01 3.908105194568634033e-01
-1.026029810309410095e-01 -6.835968792438507080e-02 2.300202548503875732e-01
-3.412923961877822876e-02 1.042608916759490967e-01 -3.581402301788330078e-01
2.824645936489105225e-01 5.827738642692565918e-01 2.300202548503875732e-01
-2.592096626758575439e-01 -5.542309954762458801e-02 2.300202548503875732e-01
-3.333461284637451172e-01 -6.677961945533752441e-01 -2.467559128999710083e-01
3.087176680564880371e-01 -1.155307441949844360e-01 4.159939885139465332e-01
2.663449048995971680e-01 4.962604120373725891e-02 4.092972874641418457e-01
4.419346153736114502e-01 -6.899019330739974976e-02 4.125967919826507568e-01
-1.653569340705871582e-01 6.313982605934143066e-01 3.986725211143493652e-01
-7.986444234848022461e-02 4.492460191249847412e-01 2.300202548503875732e-01
2.002874910831451416e-01 7.993973493576049805e-01 3.517856299877166748e-01
1.752905100584030151e-01 -6.677961945533752441e-01 -5.025907754898071289e-01
-1.916287541389465332e-01 -4.553700685501098633e-01 -5.556533932685852051e-01
-3.337112367153167725e-01 6.184705495834350586e-01 4.305862486362457275e-01
-2.192306220531463623e-01 -1.095779910683631897e-01 1.825038790702819824e-01
-9.129987657070159912e-02 3.224169015884399414e-01 4.305566549301147461e-01
5.243333429098129272e-02 1.789987087249755859e-02 3.912989497184753418e-01
-2.908263802528381348e-01 -4.284073784947395325e-02 -6.362458467483520508e-01
4.510408639907836914e-01 2.764900922775268555e-01 2.548889517784118652e-01
-9.007035195827484131e-02 1.042608916759490967e-01 1.775400340557098389e-02
-5.556564033031463623e-02 -6.677961945533752441e-01 5.609806254506111145e-02
-3.897161781787872314e-01 7.592890858650207520e-01 2.757990658283233643e-01
2.109842896461486816e-01 -6.713914871215820312e-02 1.793573051691055298e-01
2.967124879360198975e-01 7.592890858650207520e-01 3.489913046360015869e-01
3.304279446601867676e-01 3.792131841182708740e-01 2.300202548503875732e-01
1.591057032346725464e-01 4.307138621807098389e-01 2.300202548503875732e-01
-1.214587762951850891e-01 7.993973493576049805e-01 4.165544807910919189e-01
-1.581994444131851196e-01 -1.233424171805381775e-01 -6.736910343170166016e-01
-4.016621410846710205e-01 1.141393259167671204e-01 4.271841645240783691e-01
-3.055755496025085449e-01 3.796088397502899170e-01 4.171109497547149658e-01
9.174375236034393311e-02 -2.112640738487243652e-01 -7.533224821090698242e-01
1.593010723590850830e-01 7.592890858650207520e-01 3.749779760837554932e-01
3.426087200641632080e-01 -2.032678872346878052e-01 -1.744622588157653809e-01
1.350135058164596558e-01 -6.677961945533752441e-01 -1.068706214427947998e-01
-3.105278015136718750e-01 -5.488271117210388184e-01 -3.232121467590332031e-01
-1.249477341771125793e-01 -6.677961945533752441e-01 2.289122045040130615e-01
2.980701923370361328e-01 -1.778831183910369873e-01 2.057496830821037292e-02
2.753120064735412598e-01 2.300245314836502075e-01 4.107289910316467285e-01
-1.948957145214080811e-01 5.106847286224365234e-01 4.305754303932189941e-01
5.269026756286621094e-02 1.723601669073104858e-01 3.913028836250305176e-01
-9.026996046304702759e-02 -2.032678872346878052e-01 2.197842746973037720e-01
-4.739613831043243408e-01 4.838514626026153564e-01 3.125278949737548828e-01
1.018510907888412476e-01 -6.677961945533752441e-01 -1.793582737445831299e-02
-3.181312680244445801e-01 -6.358903050422668457e-01 -3.700072765350341797e-01
-3.248783051967620850e-01 -3.197396099567413330e-01 -7.031130790710449219e-02
-3.108099699020385742e-01 -3.881315886974334717e-01 -1.130514964461326599e-01
1.576907783746719360e-01 -1.615352369844913483e-02 3.970543742179870605e-01
3.342060148715972900e-01 -2.029186040163040161e-01 -1.090842783451080322e-01
-2.509657740592956543e-01 5.690103769302368164e-01 4.305813610553741455e-01
3.850238621234893799e-01 4.920047894120216370e-02 -3.624432384967803955e-01
-1.837381273508071899e-01 -6.677961945533752441e-01 3.291362896561622620e-02
3.149466812610626221e-01 -1.917708963155746460e-01 4.305043816566467285e-01
-3.461081087589263916e-01 -2.658916115760803223e-01 -2.852568328380584717e-01
2.469642013311386108e-01 1.422925386577844620e-02 4.305250942707061768e-01
8.886289596557617188e-02 9.337472915649414062e-02 2.300202548503875732e-01
2.781773805618286133e-01 -1.746871918439865112e-01 1.588862836360931396e-01
-2.980282902717590332e-01 -3.081982433795928955e-01 -4.551148712635040283e-01
-3.059988319873809814e-01 -5.265129208564758301e-01 -9.017303586006164551e-02
-5.887570977210998535e-02 2.379240393638610840e-01 3.915860652923583984e-01
2.502045035362243652e-01 -5.032594799995422363e-01 5.409309640526771545e-02
-1.369153857231140137e-01 -1.491870135068893433e-01 4.305093288421630859e-01
2.244911789894104004e-01 -2.032678872346878052e-01 2.077633291482925415e-01
-2.573408484458923340e-01 7.592890858650207520e-01 3.578706383705139160e-01
2.975639998912811279e-01 6.694423556327819824e-01 4.305921792984008789e-01
6.831699609756469727e-02 -2.608660794794559479e-02 -8.032078742980957031e-01
-2.563442885875701904e-01 7.993973493576049805e-01 2.666888833045959473e-01
-2.902837097644805908e-01 6.733891367912292480e-01 4.146984815597534180e-01
-2.652817964553833008e-01 -7.556653767824172974e-02 -5.486646294593811035e-01
4.649193584918975830e-02 1.042608916759490967e-01 9.238582104444503784e-02
-2.772612869739532471e-01 -2.326685041189193726e-01 -5.571225881576538086e-01
-1.398439109325408936e-01 3.146715462207794189e-02 -2.273927628993988037e-01
2.958965003490447998e-01 -2.021489590406417847e-01 -5.479532480239868164e-01
-3.592202961444854736e-01 1.452869474887847900e-01 4.272670447826385498e-01
-2.802203893661499023e-01 -2.032698541879653931e-01 3.142467141151428223e-01
3.116205036640167236e-01 4.125527143478393555e-01 4.165061414241790771e-01
-2.933444380760192871e-01 -2.014681547880172729e-01 1.220913305878639221e-01
-2.817211449146270752e-01 3.270674496889114380e-02 4.132934212684631348e-01
3.034930825233459473e-01 -1.782955676317214966e-01 -4.649019241333007812e-01
-3.568502664566040039e-01 5.658273100852966309e-01 2.300202548503875732e-01
-1.091201230883598328e-01 -2.032678872346878052e-01 1.736107766628265381e-01
9.838411351665854454e-04 2.138357907533645630e-01 2.300202548503875732e-01
3.192427456378936768e-01 1.042608916759490967e-01 -2.962180674076080322e-01
-6.886217743158340454e-02 -6.007559895515441895e-01 -7.064454555511474609e-01
1.636001020669937134e-01 -6.677961945533752441e-01 -1.656521409749984741e-01
-3.630911111831665039e-01 -7.187924534082412720e-02 -4.440924227237701416e-01
3.526223450899124146e-02 -4.445497319102287292e-02 3.909980058670043945e-01
1.831959187984466553e-01 1.103884950280189514e-01 2.300202548503875732e-01
-1.448908597230911255e-01 1.342710703611373901e-01 2.300202548503875732e-01
-6.868970394134521484e-02 1.037777140736579895e-01 1.269093900918960571e-01
-1.270957738161087036e-01 6.118221879005432129e-01 2.300202548503875732e-01
3.200741484761238098e-02 -3.194278478622436523e-01 1.606051176786422729e-01
-3.708692789077758789e-01 -1.643555015325546265e-01 2.300202548503875732e-01
2.652082145214080811e-01 -2.842212468385696411e-02 4.091157317161560059e-01
-1.741336137056350708e-01 7.592890858650207520e-01 2.762371599674224854e-01
-3.924700617790222168e-01 -4.284073784947395325e-02 -9.550545364618301392e-02
-1.841930001974105835e-01 -3.076466619968414307e-01 2.226437330245971680e-01
-2.851262390613555908e-01 1.207092031836509705e-01 4.305359721183776855e-01
-1.971098482608795166e-01 3.146715462207794189e-02 -1.496575474739074707e-01
-3.461317718029022217e-01 3.922069966793060303e-01 4.247430562973022461e-01
1.046755090355873108e-01 -8.156344294548034668e-03 -6.751769781112670898e-01
1.451991945505142212e-01 5.783089995384216309e-01 4.305823147296905518e-01
