1.482664942741394043e-01 -5.822587609291076660e-01 -3.807428479194641113e-01
5.746553540229797363e-01 -2.864025346934795380e-02 6.995755434036254883e-02
-2.234054505825042725e-01 2.955646812915802002e-01 -4.338251352310180664e-01
3.658124208450317383e-01 2.408084720373153687e-01 -1.133012324571609497e-01
7.333816289901733398e-01 6.810323148965835571e-02 -3.909419104456901550e-02
-3.079950213432312012e-01 -7.618695497512817383e-01 3.001704216003417969e-01
3.804294168949127197e-01 -6.257333755493164062e-01 8.040460199117660522e-02
3.551809489727020264e-01 9.997574239969253540e-02 2.585051655769348145e-01
4.656187817454338074e-02 3.301365375518798828e-01 -4.072167575359344482e-01
-9.437362104654312134e-02 -4.263175427913665771e-01 -3.647592067718505859e-01
4.166281819343566895e-01 5.472463965415954590e-01 -2.063066214323043823e-01
-1.074456721544265747e-01 6.960366368293762207e-01 4.275411665439605713e-01
-5.084931254386901855e-01 3.992937207221984863e-01 4.742582142353057861e-02
-3.990008533000946045e-01 4.734589904546737671e-02 -2.726527452468872070e-01
-3.519085049629211426e-01 6.787900328636169434e-01 -3.817176520824432373e-01
-3.602379262447357178e-01 -5.316331386566162109e-01 -2.631075084209442139e-01
4.182012677192687988e-01 7.809536457061767578e-01 -2.410743981599807739e-01
4.248375296592712402e-01 -3.098637610673904419e-02 3.084174171090126038e-02
-4.755808115005493164e-01 8.439355492591857910e-01 2.481849044561386108e-01
-9.743262827396392822e-02 -8.202377557754516602e-01 2.258675247430801392e-01
4.215789437294006348e-01 8.133598566055297852e-01 2.377023249864578247e-01
3.507430255413055420e-01 3.592899143695831299e-01 1.669115424156188965e-01
-1.669032573699951172e-01 2.389338165521621704e-01 -3.849762380123138428e-01
4.435905069112777710e-02 6.781052947044372559e-01 -4.276805818080902100e-01
4.272346496582031250e-01 2.677760124206542969e-01 -1.345833241939544678e-01
-1.478425413370132446e-01 1.208981648087501526e-01 -4.524911344051361084e-01
8.762818179093301296e-04 4.511108994483947754e-02 4.587536156177520752e-01
3.804635256528854370e-02 6.829620003700256348e-01 -4.950552582740783691e-01
-1.590588390827178955e-01 -2.163721323013305664e-01 -3.598987162113189697e-01
1.455937474966049194e-01 2.423095405101776123e-01 -4.382121562957763672e-01
-4.493527710437774658e-01 2.964578270912170410e-01 -2.269836664199829102e-01
2.268046885728836060e-01 -8.202377557754516602e-01 -1.136978715658187866e-01
-4.478920400142669678e-01 -2.913165688514709473e-01 -1.335134506225585938e-01
2.846802473068237305e-01 -2.064417600631713867e-01 2.189671844244003296e-01
3.941360116004943848e-01 4.163164794445037842e-01 2.384341359138488770e-01
-7.125451415777206421e-02 3.905177116394042969e-01 -4.797486960887908936e-01
2.814687192440032959e-01 -7.825533151626586914e-01 1.626512855291366577e-01
-2.623315341770648956e-02 -1.146061345934867859e-01 3.904502391815185547e-01
5.483187437057495117e-01 3.536082804203033447e-01 -2.141114510595798492e-02
-2.007298618555068970e-01 6.881864666938781738e-01 4.694897234439849854e-01
1.286065131425857544e-01 -7.655227780342102051e-01 -3.763596713542938232e-01
7.784163951873779297e-02 -4.121615290641784668e-01 -3.571558594703674316e-01
-4.754233062267303467e-01 -5.676112696528434753e-02 7.796455919742584229e-02
4.578871726989746094e-01 6.192223429679870605e-01 -9.495619684457778931e-02
-4.284452497959136963e-01 -4.956322312355041504e-01 1.461797654628753662e-01
4.673426598310470581e-02 3.005951941013336182e-01 4.689893722534179688e-01
-2.917645573616027832e-01 -5.180436968803405762e-01 3.320320844650268555e-01
-3.721889257431030273e-01 6.998858451843261719e-01 2.666492164134979248e-01
2.994802594184875488e-02 -3.069698512554168701e-01 4.325006008148193359e-01
-2.258553951978683472e-01 3.475485742092132568e-02 3.472887277603149414e-01
3.228756189346313477e-01 7.811610698699951172e-01 2.624398469924926758e-01
1.753521859645843506e-01 7.560509443283081055e-01 -3.894468247890472412e-01
3.161366283893585205e-01 -6.681198477745056152e-01 -9.670774638652801514e-02
2.953193485736846924e-01 6.848337054252624512e-01 3.802182972431182861e-01
-4.138762354850769043e-01 6.865671873092651367e-01 -2.052866965532302856e-01
3.460986316204071045e-01 6.008172780275344849e-02 1.331829130649566650e-01
-4.472908377647399902e-01 4.158315062522888184e-01 -2.479459345340728760e-01
3.749101161956787109e-01 -5.089219808578491211e-01 1.321658641099929810e-01
1.364749222993850708e-01 5.366947054862976074e-01 -3.919025361537933350e-01
3.958627879619598389e-01 1.386880874633789062e-01 1.884519755840301514e-01
4.481325447559356689e-01 5.157209038734436035e-01 1.184083819389343262e-01
-3.266197144985198975e-01 -7.591718435287475586e-01 1.750527173280715942e-01
-4.877757430076599121e-01 1.131627485156059265e-01 -6.692167371511459351e-02
2.190947234630584717e-01 2.874465882778167725e-01 -3.276634514331817627e-01
1.550314426422119141e-01 -2.493996918201446533e-01 -4.006928801536560059e-01
-4.345186948776245117e-01 -7.573979496955871582e-01 -5.025441572070121765e-02
-2.757799327373504639e-01 -4.513864517211914062e-01 -3.501709997653961182e-01
3.053371012210845947e-01 5.627515166997909546e-02 -2.174172848463058472e-01
3.131459653377532959e-01 -2.832349240779876709e-01 1.611713469028472900e-01
-2.451235353946685791e-01 4.956662356853485107e-01 -3.676115274429321289e-01
-2.817755937576293945e-01 -2.973477840423583984e-01 2.814669609069824219e-01
2.615350186824798584e-01 -2.865626513957977295e-01 3.288186192512512207e-01
-5.117017626762390137e-01 5.437650680541992188e-01 -9.352052211761474609e-02
-1.338660866022109985e-01 -5.835360884666442871e-01 -4.094621539115905762e-01
-4.310987889766693115e-01 1.479144990444183350e-01 1.986840926110744476e-02
-3.172492384910583496e-01 4.666462838649749756e-01 -3.914261758327484131e-01
3.408174812793731689e-01 2.537477314472198486e-01 -2.937408089637756348e-01
-4.337859451770782471e-01 4.694007039070129395e-01 1.223545894026756287e-01
2.495244443416595459e-01 4.665877223014831543e-01 3.167274296283721924e-01
-4.156702458858489990e-01 4.351361691951751709e-01 -1.631892770528793335e-01
-2.993304133415222168e-01 -3.878955245018005371e-01 -2.594580352306365967e-01
3.259930312633514404e-01 -4.686637222766876221e-01 -1.028705239295959473e-01
3.836313486099243164e-01 -2.136350423097610474e-01 -1.604060977697372437e-01
2.603239715099334717e-01 -6.413501501083374023e-01 3.015063107013702393e-01
-3.946190699934959412e-02 5.250625610351562500e-01 4.919377565383911133e-01
-3.666586801409721375e-02 -3.762127459049224854e-02 -4.570308625698089600e-01
3.331622779369354248e-01 -7.558152675628662109e-01 -1.927786618471145630e-01
-4.525479674339294434e-01 -3.890931308269500732e-01 -9.150314331054687500e-02
-3.394043147563934326e-01 -9.724241495132446289e-02 2.317383587360382080e-01
9.413357079029083252e-02 8.439355492591857910e-01 4.464943408966064453e-01
3.291949331760406494e-01 2.212358564138412476e-01 1.981979459524154663e-01
3.635286092758178711e-01 -6.873083114624023438e-01 1.302057206630706787e-01
-4.237407445907592773e-02 -8.259721994400024414e-01 -4.066088497638702393e-01
3.235085010528564453e-01 4.732083529233932495e-02 -2.948846518993377686e-01
2.795527577400207520e-01 3.814786076545715332e-01 3.681693375110626221e-01
4.071203768253326416e-01 8.173329234123229980e-01 6.670089811086654663e-02
3.644818067550659180e-02 -5.152912735939025879e-01 -4.189411103725433350e-01
2.438740991055965424e-02 3.788058757781982422e-01 4.123911559581756592e-01
2.681750953197479248e-01 -6.343095302581787109e-01 -2.962848842144012451e-01
-5.251807570457458496e-01 7.416153550148010254e-01 8.629155158996582031e-02
-3.455565273761749268e-01 -1.841887235641479492e-01 -3.178973197937011719e-01
4.048548340797424316e-01 -3.269832432270050049e-01 3.941757231950759888e-02
2.548157609999179840e-02 -8.202377557754516602e-01 3.137243092060089111e-01
-2.617833018302917480e-01 -6.836252212524414062e-01 -2.693884074687957764e-01
3.223752379417419434e-01 -7.735208868980407715e-01 -1.042580604553222656e-02
2.271254509687423706e-01 -1.842502057552337646e-01 -2.873264253139495850e-01
-1.701243817806243896e-01 -8.202377557754516602e-01 -1.850370317697525024e-01
2.221986949443817139e-01 5.779623389244079590e-01 4.278187155723571777e-01
4.182128310203552246e-01 4.476144015789031982e-01 -1.860406398773193359e-01
-3.615689873695373535e-01 1.490467786788940430e-01 2.243895083665847778e-01
1.235529780387878418e-01 -5.814174413681030273e-01 3.271254897117614746e-01
-4.150556027889251709e-01 -3.628814220428466797e-01 2.004135400056838989e-01
-8.552906662225723267e-02 -3.671339750289916992e-01 3.687888085842132568e-01
-3.872678875923156738e-01 -4.052602052688598633e-01 7.297248393297195435e-02
1.676124483346939087e-01 -1.594310402870178223e-01 3.342236578464508057e-01
-3.297668695449829102e-01 -6.522735357284545898e-01 -1.948290914297103882e-01
-1.033052150160074234e-02 6.797590851783752441e-01 5.006532073020935059e-01
9.971147030591964722e-02 7.020916044712066650e-02 -4.454543888568878174e-01
-3.754699230194091797e-02 2.781961858272552490e-01 4.764649868011474609e-01
2.473511248826980591e-01 -3.332910537719726562e-01 -2.562042474746704102e-01
-1.244400292634963989e-01 6.004996895790100098e-01 -4.861208498477935791e-01
-4.912369847297668457e-01 2.406836301088333130e-01 1.017649471759796143e-01
2.006063908338546753e-01 4.422292485833168030e-02 3.236613869667053223e-01
-2.675302326679229736e-01 8.439355492591857910e-01 -4.114299714565277100e-01
2.655292451381683350e-01 5.350303649902343750e-01 3.094044923782348633e-01
-3.363435864448547363e-01 2.252022475004196167e-01 2.685440480709075928e-01
3.301188349723815918e-01 5.225011706352233887e-01 -2.291425913572311401e-01
-1.509522497653961182e-01 -1.630584001541137695e-01 -4.324882924556732178e-01
6.417294144630432129e-01 3.348145782947540283e-01 7.545853406190872192e-02
-3.688880801200866699e-02 1.388532817363739014e-01 -4.050943255424499512e-01
-1.260581761598587036e-01 4.732892513275146484e-01 4.121769666671752930e-01
-4.279698431491851807e-01 5.747421979904174805e-01 -1.544651538133621216e-01
-5.259941816329956055e-01 8.439355492591857910e-01 -2.255236729979515076e-02
-2.964531183242797852e-01 -8.202377557754516602e-01 5.247829854488372803e-02
2.720022201538085938e-01 2.176267504692077637e-01 3.609203994274139404e-01
2.822360694408416748e-01 8.439355492591857910e-01 -3.745791316032409668e-01
-4.024294316768646240e-01 -6.323657631874084473e-01 1.864236444234848022e-01
-1.429757475852966309e-02 -6.889294385910034180e-01 3.555825948715209961e-01
4.802439808845520020e-01 -1.910823583602905273e-01 5.407695472240447998e-02
2.552973330020904541e-01 -3.890278339385986328e-01 3.254486620426177979e-01
-2.790490686893463135e-01 5.072828847914934158e-03 -3.839966356754302979e-01
-3.342365026473999023e-01 -8.367774486541748047e-01 -2.501922845840454102e-01
-3.372290432453155518e-01 -8.202377557754516602e-01 -4.698796570301055908e-02
-4.370483458042144775e-01 7.571946978569030762e-01 -2.967074513435363770e-01
2.715047597885131836e-01 -5.408307313919067383e-01 3.009281754493713379e-01
2.415686398744583130e-01 5.492344498634338379e-01 -4.112350046634674072e-01
-1.920397765934467316e-02 -2.298511117696762085e-01 -3.834098577499389648e-01
-1.687164604663848877e-01 -2.227413803339004517e-01 3.549362421035766602e-01
-4.490771591663360596e-01 1.462722420692443848e-01 -2.028646171092987061e-01
-1.963130533695220947e-01 2.829135656356811523e-01 3.749640583992004395e-01
-3.611971624195575714e-03 2.431057095527648926e-01 -4.725227952003479004e-01
-2.591854631900787354e-01 6.614474058151245117e-01 -4.440147876739501953e-01
-4.808225929737091064e-01 4.851720929145812988e-01 1.815833151340484619e-01
-1.098927259445190430e-01 8.061175942420959473e-01 -5.011335015296936035e-01
-6.100588664412498474e-02 -4.525907933712005615e-01 -4.273944199085235596e-01
-3.461923003196716309e-01 5.307403206825256348e-01 3.737520575523376465e-01
-2.597213685512542725e-01 3.307704031467437744e-01 4.206235408782958984e-01
-1.903327405452728271e-01 -6.821539402008056641e-01 3.801271021366119385e-01
-4.121753871440887451e-01 2.507878243923187256e-01 -1.439384073019027710e-01
-2.581040859222412109e-01 6.519463658332824707e-01 3.684075474739074707e-01
-3.881994485855102539e-01 8.254731893539428711e-01 3.649809062480926514e-01
8.808412402868270874e-02 7.453221827745437622e-02 3.826269507408142090e-01
-4.475827813148498535e-01 -1.792427599430084229e-01 1.521898359060287476e-01
3.226936236023902893e-02 -1.722569465637207031e-01 -4.413420557975769043e-01
7.552831768989562988e-01 1.513382494449615479e-01 2.542998641729354858e-02
3.805336728692054749e-02 -1.059713289141654968e-01 4.442355334758758545e-01
6.305351853370666504e-01 3.655861914157867432e-01 -7.592775672674179077e-02
3.599070012569427490e-01 -7.806699872016906738e-01 -1.241093799471855164e-01
-1.928383857011795044e-01 7.817863225936889648e-01 4.791559875011444092e-01
-3.931665420532226562e-01 -4.505547583103179932e-01 -5.876062437891960144e-02
-1.730011589825153351e-02 -8.202377557754516602e-01 -4.287906363606452942e-02
-1.700437217950820923e-01 5.843738317489624023e-01 -4.051673114299774170e-01
1.521118730306625366e-01 3.404067829251289368e-03 4.186163544654846191e-01
2.262299321591854095e-02 7.671442627906799316e-01 4.351377785205841064e-01
-4.046277701854705811e-01 -6.597907096147537231e-02 9.082878381013870239e-02
-3.368400931358337402e-01 -4.110551476478576660e-01 3.055418431758880615e-01
4.647769927978515625e-01 6.478829979896545410e-01 5.592645704746246338e-02
-4.327890574932098389e-01 3.550738394260406494e-01 8.532059937715530396e-02
-5.191322565078735352e-01 7.067938446998596191e-01 -1.159528568387031555e-01
-2.538937330245971680e-01 -1.681887805461883545e-01 -3.127861618995666504e-01
3.885965347290039062e-01 3.959947824478149414e-01 2.186955884099006653e-02
-1.014719977974891663e-01 -8.367774486541748047e-01 -3.945070505142211914e-01
-2.529103457927703857e-01 4.367044568061828613e-01 -4.312513172626495361e-01
4.033297598361968994e-01 1.195831075310707092e-01 -1.678394526243209839e-01
-3.418523371219635010e-01 2.912660241127014160e-01 -3.585868179798126221e-01
-1.369661986827850342e-01 1.275310479104518890e-02 4.464684128761291504e-01
1.382593214511871338e-01 6.576443910598754883e-01 -4.696407020092010498e-01
3.056713044643402100e-01 -3.171998262405395508e-01 -1.746812164783477783e-01
-4.254305958747863770e-01 8.439355492591857910e-01 -2.126710712909698486e-01
6.851343810558319092e-02 -4.315285980701446533e-01 4.194893538951873779e-01
-4.100183844566345215e-01 -3.353366553783416748e-01 -2.176842838525772095e-01
3.404256403446197510e-01 -4.456923305988311768e-01 -2.216948270797729492e-01
1.968829929828643799e-01 -4.024475440382957458e-02 -3.976542353630065918e-01
3.997484743595123291e-01 6.031925678253173828e-01 2.839776128530502319e-02
-4.797296822071075439e-01 9.011721611022949219e-02 1.163205131888389587e-01
1.716038137674331665e-01 -6.824324131011962891e-01 -2.938349545001983643e-01
3.615655899047851562e-01 -3.059712983667850494e-02 3.933123499155044556e-02
5.677727609872817993e-02 5.477198958396911621e-01 -4.184868633747100830e-01
2.134006321430206299e-01 -8.202377557754516602e-01 1.104470156133174896e-02
-5.150342583656311035e-01 6.597552895545959473e-01 1.237577199935913086e-01
-4.565431773662567139e-01 -5.090891122817993164e-01 -3.097837325185537338e-03
1.696302145719528198e-01 -6.394091844558715820e-01 2.979000806808471680e-01
2.193674892187118530e-01 -6.529144197702407837e-02 3.013315200805664062e-01
-4.616178274154663086e-01 7.363831996917724609e-01 -6.151106581091880798e-02
4.034747779369354248e-01 -1.425110101699829102e-01 1.236712858080863953e-01
2.130337506532669067e-01 1.285145580768585205e-01 -3.996412754058837891e-01
-1.424557417631149292e-01 -3.358303010463714600e-01 -4.241089224815368652e-01
6.704823374748229980e-01 -6.443573534488677979e-02 3.308106586337089539e-02
1.912157833576202393e-01 7.530555129051208496e-01 3.821227550506591797e-01
1.660575866699218750e-01 5.399062037467956543e-01 3.792828917503356934e-01
-2.411158680915832520e-01 -5.740839838981628418e-01 -2.931828498840332031e-01
-1.326512098312377930e-01 1.180563867092132568e-01 3.907143473625183105e-01
9.753525257110595703e-02 -8.202377557754516602e-01 -2.875156402587890625e-01
-4.033360481262207031e-01 -4.589958116412162781e-02 -2.573308050632476807e-01
3.941408097743988037e-01 7.013849616050720215e-01 2.701191008090972900e-01
1.492518633604049683e-01 3.720015585422515869e-01 -3.763635158538818359e-01
2.009300440549850464e-01 3.804337084293365479e-01 -4.247331917285919189e-01
3.296520709991455078e-01 -5.993057787418365479e-02 1.548625826835632324e-01
2.974196970462799072e-01 -1.421547085046768188e-01 3.086621463298797607e-01
3.690671622753143311e-01 1.139168441295623779e-01 -4.655310139060020447e-02
5.701972246170043945e-01 2.139531774446368217e-03 -5.647827312350273132e-02
1.405536681413650513e-01 -4.115363061428070068e-01 -3.956076800823211670e-01
2.520358562469482422e-01 -3.044231608510017395e-02 -2.786945104598999023e-01
3.387214615941047668e-02 -5.956964492797851562e-01 4.135925769805908203e-01
3.600597083568572998e-01 5.384195446968078613e-01 -2.981950938701629639e-01
1.271755397319793701e-01 -8.202377557754516602e-01 -2.108521163463592529e-01
-2.898889183998107910e-01 3.911284729838371277e-02 2.996191680431365967e-01
-3.671805262565612793e-01 2.140349149703979492e-01 3.308479487895965576e-01
-2.088066786527633667e-01 -3.408751785755157471e-01 -3.315463066101074219e-01
3.443180918693542480e-01 -2.868171632289886475e-01 -5.807423591613769531e-02
-3.386427462100982666e-01 -3.341832458972930908e-01 1.961225420236587524e-01
-2.230683565139770508e-01 -8.002079725265502930e-01 2.900815904140472412e-01
3.107555806636810303e-01 1.850083023309707642e-01 -2.225121259689331055e-01
-3.958277702331542969e-01 -2.633799910545349121e-01 2.439880222082138062e-01
-6.940443068742752075e-02 7.475899457931518555e-01 -4.361051023006439209e-01
-9.737221896648406982e-02 -8.202377557754516602e-01 8.200641721487045288e-02
-3.564213514328002930e-01 -5.260072350502014160e-01 1.502057015895843506e-01
-2.857201918959617615e-02 -6.211254596710205078e-01 -3.619587421417236328e-01
-2.662586867809295654e-01 1.542856693267822266e-01 -3.266617953777313232e-01
3.484909534454345703e-01 6.923323869705200195e-01 -2.212357670068740845e-01
-3.648294806480407715e-01 -2.503302991390228271e-01 -1.829712539911270142e-01
3.136799335479736328e-01 2.776612341403961182e-01 -2.274484783411026001e-01
5.750169605016708374e-02 5.250154733657836914e-01 4.165083169937133789e-01
-4.066253602504730225e-01 -2.581526041030883789e-01 2.407421357929706573e-02
1.592820882797241211e-01 -2.698788940906524658e-01 3.969664275646209717e-01
1.266646236181259155e-01 3.530608713626861572e-01 3.839743733406066895e-01
4.169479608535766602e-01 -1.791880428791046143e-01 -1.963376440107822418e-02
2.038428932428359985e-01 -8.202377557754516602e-01 1.422508507966995239e-01
2.018976770341396332e-02 -2.758371233940124512e-01 3.749909698963165283e-01
-3.483656644821166992e-01 3.868711590766906738e-01 3.606332540512084961e-01
-3.590672016143798828e-01 -6.907023191452026367e-01 1.276827901601791382e-01
3.276707828044891357e-01 1.783698797225952148e-02 -1.718922704458236694e-01
-1.394170969724655151e-01 -1.074685677886009216e-01 3.742437660694122314e-01
2.170054614543914795e-02 4.830602407455444336e-01 -4.193560183048248291e-01
4.036169052124023438e-01 5.623042583465576172e-01 2.396365404129028320e-01
3.498700559139251709e-01 -3.934964835643768311e-01 2.116663455963134766e-01
2.501592934131622314e-01 5.286284685134887695e-01 -3.213009238243103027e-01
-1.288231164216995239e-01 8.159192800521850586e-01 4.316765666007995605e-01
-8.130616694688796997e-02 -1.533172279596328735e-01 -4.437842965126037598e-01
-1.225107163190841675e-01 9.221921116113662720e-02 4.534330964088439941e-01
1.227333489805459976e-02 8.479006588459014893e-02 -3.975073099136352539e-01
3.397572319954633713e-03 4.865031838417053223e-01 -4.871033132076263428e-01
-4.501066803932189941e-01 6.518465280532836914e-01 1.006672307848930359e-01
3.951213657855987549e-01 -5.219217538833618164e-01 -1.960015110671520233e-02
2.618423104286193848e-01 6.702090501785278320e-01 3.220277726650238037e-01
-4.068385362625122070e-01 6.578495353460311890e-02 -1.290332823991775513e-01
1.541008353233337402e-01 -8.367774486541748047e-01 3.158304095268249512e-01
-2.240911722183227539e-01 -7.205625176429748535e-01 -3.640850186347961426e-01
-4.005970358848571777e-01 -1.723347306251525879e-01 -2.477845996618270874e-01
2.485006898641586304e-01 6.530988216400146484e-01 -4.141833782196044922e-01
4.423827528953552246e-01 4.292115271091461182e-01 1.202282980084419250e-01
4.587765038013458252e-01 4.789277017116546631e-01 -7.160007953643798828e-02
4.078099429607391357e-01 -8.567364513874053955e-02 -1.231509298086166382e-01
3.129203021526336670e-01 -8.351553678512573242e-01 -2.189779132604598999e-01
-3.553332388401031494e-01 -4.644140303134918213e-01 -1.737419515848159790e-01
3.482969403266906738e-01 -1.137821152806282043e-01 -1.023288667201995850e-01
2.736223936080932617e-01 4.715247824788093567e-02 3.461064696311950684e-01
-2.288998067378997803e-01 -4.473701119422912598e-01 3.111706376075744629e-01
-1.622242629528045654e-01 2.374855279922485352e-01 4.546316564083099365e-01
5.954173952341079712e-02 1.673977822065353394e-01 4.588198661804199219e-01
-9.581150114536285400e-02 4.895072579383850098e-01 4.822541773319244385e-01
-4.279314279556274414e-01 5.267230272293090820e-01 -2.846786677837371826e-01
9.778302907943725586e-02 1.912892162799835205e-01 -3.864398598670959473e-01
3.725062608718872070e-01 3.104093074798583984e-01 -1.069607883691787720e-01
-2.861760556697845459e-01 7.813742756843566895e-01 -3.568110764026641846e-01
2.894130051136016846e-01 1.227167397737503052e-01 2.438775748014450073e-01
-2.642601430416107178e-01 -6.523560881614685059e-01 3.424464464187622070e-01
3.271560370922088623e-01 -4.393259286880493164e-01 1.039037257432937622e-01
3.313442766666412354e-01 -7.346599698066711426e-01 2.000927627086639404e-01
6.120977997779846191e-01 7.291156798601150513e-02 -5.882919207215309143e-02
-1.852465718984603882e-01 3.930685222148895264e-01 -3.869680762290954590e-01
-4.613345265388488770e-01 -5.173496436327695847e-03 -1.482812464237213135e-01
-2.954802513122558594e-01 -2.286237329244613647e-01 3.522193133831024170e-01
-4.732259809970855713e-01 -2.419769018888473511e-01 5.045315250754356384e-03
-2.983662188053131104e-01 -4.526669159531593323e-02 3.646005690097808838e-01
-1.269330978393554688e-01 2.403311580419540405e-01 -4.628517627716064453e-01
1.955182999372482300e-01 1.655528694391250610e-01 -3.369224965572357178e-01
-4.272428452968597412e-01 1.855980008840560913e-01 -8.006536960601806641e-02
-2.314975252375006676e-03 -9.558767080307006836e-02 -3.889704644680023193e-01
-6.360698491334915161e-02 -4.418748021125793457e-01 4.271685481071472168e-01
9.834677726030349731e-02 -8.202377557754516602e-01 -6.859513372182846069e-02
1.332442015409469604e-01 7.860158085823059082e-01 -4.804920554161071777e-01
-1.589109599590301514e-01 2.507936768233776093e-02 -4.420508146286010742e-01
3.481336832046508789e-01 7.876983880996704102e-01 3.390294313430786133e-01
-3.660568594932556152e-01 5.206361413002014160e-01 2.577157318592071533e-01
-1.216825842857360840e-01 -7.424323558807373047e-01 3.420853614807128906e-01
2.994278669357299805e-01 -5.911326408386230469e-01 -1.486106812953948975e-01
-4.705609083175659180e-01 7.001556754112243652e-01 2.418367713689804077e-01
2.949510887265205383e-02 -8.202377557754516602e-01 1.897657811641693115e-01
-1.531726568937301636e-01 6.129539012908935547e-01 4.825653731822967529e-01
3.409442603588104248e-01 -1.558756828308105469e-01 1.131906211376190186e-01
-4.083991646766662598e-01 3.493211269378662109e-01 -1.678538620471954346e-01
4.498794972896575928e-01 3.670920431613922119e-01 -3.379653021693229675e-02
6.813970804214477539e-01 4.225253462791442871e-01 -1.887218095362186432e-02
-4.305484890937805176e-01 7.873178273439407349e-02 -7.896965369582176208e-03
4.094406664371490479e-01 8.439355492591857910e-01 -8.432975411415100098e-02
-3.827079832553863525e-01 -8.367774486541748047e-01 1.971511244773864746e-01
4.007453620433807373e-01 -3.766651079058647156e-02 1.475627273321151733e-01
1.956700384616851807e-01 -5.528537631034851074e-01 -2.847564518451690674e-01
3.947237432003021240e-01 -3.895906209945678711e-01 -8.664495497941970825e-02
-1.631241440773010254e-01 -5.006502270698547363e-01 -4.043701887130737305e-01
-9.631492942571640015e-02 -8.202377557754516602e-01 -2.860078215599060059e-01
-1.355073750019073486e-01 -7.065832018852233887e-01 -3.391554057598114014e-01
2.423170255497097969e-03 -4.602699577808380127e-01 3.666375577449798584e-01
-3.850215375423431396e-01 -8.367774486541748047e-01 1.035138070583343506e-01
9.916789829730987549e-02 -1.326075345277786255e-01 3.651489615440368652e-01
3.641816675662994385e-01 -1.412058472633361816e-01 2.187491655349731445e-01
6.845279335975646973e-01 2.401390671730041504e-01 7.527144253253936768e-02
-3.979597985744476318e-01 -1.769349724054336548e-01 8.655796200037002563e-02
2.637621480971574783e-03 -7.767583131790161133e-01 4.061717092990875244e-01
3.801124989986419678e-01 4.825806990265846252e-02 -2.121198177337646484e-01
-2.840161621570587158e-01 1.044964492321014404e-01 -3.880994021892547607e-01
-3.751142323017120361e-01 -7.101836800575256348e-01 -2.251983135938644409e-01
-1.039721667766571045e-01 -6.099043488502502441e-01 4.111512899398803711e-01
-3.706571161746978760e-01 6.064501404762268066e-01 -2.603896260261535645e-01
5.776113867759704590e-01 4.478823542594909668e-01 7.502818107604980469e-02
-4.329648017883300781e-01 -7.133704423904418945e-02 2.052865177392959595e-01
3.564313948154449463e-01 7.455520033836364746e-01 -3.244096934795379639e-01
-4.520629644393920898e-01 4.979634582996368408e-01 -2.909852750599384308e-02
-2.458880096673965454e-01 -2.321233898401260376e-01 -3.884432017803192139e-01
-5.195605754852294922e-01 5.234423875808715820e-01 2.342835627496242523e-02
-2.585938870906829834e-01 -1.160582229495048523e-01 3.123893439769744873e-01
-2.110971808433532715e-01 -8.202377557754516602e-01 1.415737718343734741e-01
-3.711190223693847656e-01 -2.137012928724288940e-01 1.564894765615463257e-01
1.624187082052230835e-01 3.043694794178009033e-01 4.349198043346405029e-01
-9.241194278001785278e-02 3.182153105735778809e-01 -4.081829190254211426e-01
-3.504055142402648926e-01 9.334890544414520264e-02 3.357026576995849609e-01
1.818069070577621460e-01 -4.435429871082305908e-01 3.027480840682983398e-01
4.816950857639312744e-01 -8.056055754423141479e-02 -6.096854060888290405e-02
3.823780417442321777e-01 8.439355492591857910e-01 -1.733856648206710815e-01
3.979132175445556641e-01 5.285304784774780273e-01 -3.626817092299461365e-02
-6.860885024070739746e-02 6.097577214241027832e-01 -4.282184243202209473e-01
4.634727537631988525e-01 7.474699020385742188e-01 -1.145833507180213928e-01
-3.543689846992492676e-01 -2.533641457557678223e-01 -2.996241450309753418e-01
-4.426060914993286133e-01 -6.989567875862121582e-01 1.652887091040611267e-02
-4.297158122062683105e-01 -6.762360334396362305e-01 -1.138755530118942261e-01
2.391878664493560791e-01 -7.660269737243652344e-01 -2.259848564863204956e-01
-3.102326989173889160e-01 2.388012968003749847e-02 -2.834714651107788086e-01
-1.326041370630264282e-01 -2.637449502944946289e-01 4.294312000274658203e-01
-3.648784756660461426e-01 8.439355492591857910e-01 -3.178838789463043213e-01
7.543779909610748291e-02 -7.386983633041381836e-01 -3.378358483314514160e-01
-4.927582144737243652e-01 2.164109051227569580e-01 -7.902979105710983276e-02
4.313533008098602295e-02 -6.302759647369384766e-01 -4.107365608215332031e-01
4.171707928180694580e-01 6.586393117904663086e-01 -2.233793437480926514e-01
4.083304405212402344e-01 -2.911417782306671143e-01 -3.092373907566070557e-02
-1.688729971647262573e-01 -1.060251072049140930e-01 -3.626991808414459229e-01
3.824298977851867676e-01 -7.151343822479248047e-01 2.194888703525066376e-02
4.030934870243072510e-01 2.732290625572204590e-01 -1.937640309333801270e-01
2.879599332809448242e-01 3.340136110782623291e-01 -3.585061728954315186e-01
2.292997390031814575e-01 -7.165154814720153809e-01 2.429786473512649536e-01
3.906008303165435791e-01 -3.180507421493530273e-01 1.257822066545486450e-01
1.919072568416595459e-01 -1.585023552179336548e-01 -3.916316628456115723e-01
3.269841372966766357e-01 -5.447058677673339844e-01 7.560460269451141357e-02
-4.512639343738555908e-01 4.298021793365478516e-01 2.608776092529296875e-03
3.243776559829711914e-01 8.439355492591857910e-01 -2.693307697772979736e-01
-3.281323015689849854e-01 -8.202377557754516602e-01 -1.410515010356903076e-01
3.831252157688140869e-01 2.978494167327880859e-01 -2.077566087245941162e-02
3.832106888294219971e-01 -6.327114701271057129e-01 -5.646866932511329651e-02
5.919892787933349609e-01 -1.418464183807373047e-01 4.122011736035346985e-02
-3.378715515136718750e-01 6.473019719123840332e-01 3.064071536064147949e-01
5.379807204008102417e-02 -6.268925070762634277e-01 -3.507798612117767334e-01
3.763103485107421875e-01 5.831561088562011719e-01 -1.393775492906570435e-01
-3.244069814682006836e-01 -4.742656648159027100e-01 -3.110363483428955078e-01
3.532928526401519775e-01 -1.988749206066131592e-01 -2.305293977260589600e-01
2.362529486417770386e-01 -8.367774486541748047e-01 2.512975037097930908e-01
-2.229137420654296875e-01 -5.572302341461181641e-01 3.751715123653411865e-01
1.922962069511413574e-01 7.313095331192016602e-01 4.517274498939514160e-01
-1.455683559179306030e-01 4.716892838478088379e-01 -4.751350283622741699e-01
4.260197579860687256e-01 7.036339491605758667e-02 7.089862972497940063e-02
-4.816427826881408691e-01 4.870409965515136719e-01 -1.804790496826171875e-01
2.777203321456909180e-01 -2.582304179668426514e-01 -3.192197978496551514e-01
-4.568538069725036621e-02 7.411064505577087402e-01 -5.054456591606140137e-01
1.637325137853622437e-01 -5.133362114429473877e-02 -3.440284132957458496e-01
-4.327794611454010010e-01 2.791239023208618164e-01 2.521109580993652344e-01
4.321757853031158447e-01 2.353006750345230103e-01 1.039411723613739014e-01
3.061947226524353027e-01 -7.416986227035522461e-01 1.090926676988601685e-01
1.293757706880569458e-01 -4.571045339107513428e-01 -3.330137729644775391e-01
-3.264535665512084961e-01 4.643423259258270264e-01 -3.029364943504333496e-01
2.870831191539764404e-01 -6.760884076356887817e-02 3.266433477401733398e-01
1.766150891780853271e-01 6.489365696907043457e-01 -3.822592794895172119e-01
-4.434733390808105469e-01 4.782669246196746826e-01 2.588326632976531982e-01
-3.429641202092170715e-02 -2.297300994396209717e-01 3.834999501705169678e-01
-4.183429777622222900e-01 -4.603890776634216309e-01 -1.769525259733200073e-01
6.186912953853607178e-02 1.765924841165542603e-01 -4.596651792526245117e-01
-3.252242803573608398e-01 7.349148392677307129e-01 4.060948789119720459e-01
1.218127682805061340e-01 -2.990380525588989258e-01 -3.459808528423309326e-01
4.397176802158355713e-01 2.161429524421691895e-01 -3.794883936643600464e-02
3.979132175445556641e-01 4.883596301078796387e-01 5.848405137658119202e-02
3.441624939441680908e-01 1.303250640630722046e-01 1.484078615903854370e-01
-2.816814780235290527e-01 -7.679631114006042480e-01 -2.465725839138031006e-01
4.052534103393554688e-01 3.338676393032073975e-01 1.979904919862747192e-01
6.663142442703247070e-01 1.074494346976280212e-01 7.551039755344390869e-02
3.368328511714935303e-01 4.146415889263153076e-01 -2.093740850687026978e-01
3.583819270133972168e-01 4.734006822109222412e-01 1.656092852354049683e-01
1.688215732574462891e-01 8.439355492591857910e-01 4.106240570545196533e-01
1.661085039377212524e-01 -4.835112392902374268e-01 -3.801022768020629883e-01
-7.249806541949510574e-03 4.120581746101379395e-01 4.831962883472442627e-01
-4.306858181953430176e-01 6.828755140304565430e-01 -2.972894310951232910e-01
-3.393505215644836426e-01 -6.852972507476806641e-01 2.738223373889923096e-01
2.660104036331176758e-01 -4.146066606044769287e-01 -2.242100685834884644e-01
3.520404994487762451e-01 3.597259223461151123e-01 2.895418405532836914e-01
-4.484404027462005615e-01 -1.774919778108596802e-01 -1.509741842746734619e-01
-5.877078697085380554e-02 -5.532333999872207642e-02 4.524266123771667480e-01
-2.682831883430480957e-01 -2.999705672264099121e-01 3.674097061157226562e-01
3.693158626556396484e-01 2.487412244081497192e-01 1.034734696149826050e-01
7.167502492666244507e-02 -5.775099247694015503e-02 -4.434472024440765381e-01
-3.968246281147003174e-01 3.853950500488281250e-01 1.835761070251464844e-01
-2.058352530002593994e-01 -3.325630724430084229e-01 3.327283561229705811e-01
-4.388903677463531494e-01 -6.389837265014648438e-01 7.377036660909652710e-02
-3.648804128170013428e-01 -6.273506283760070801e-01 1.159219518303871155e-01
2.182620763778686523e-01 -3.318783044815063477e-01 2.828652858734130859e-01
-8.857396245002746582e-02 3.088563978672027588e-01 4.075786769390106201e-01
-2.515196800231933594e-01 1.853636503219604492e-01 -4.146472513675689697e-01
-2.583287954330444336e-01 3.320592343807220459e-01 -3.456264734268188477e-01
-2.319307774305343628e-01 -5.623394846916198730e-01 3.005151748657226562e-01
-1.185236871242523193e-01 -4.815847612917423248e-03 3.854504823684692383e-01
-3.880006372928619385e-01 -5.021282434463500977e-01 2.294228672981262207e-01
4.372475743293762207e-01 7.411909103393554688e-01 1.879650652408599854e-01
-3.428386449813842773e-01 7.580187320709228516e-01 3.103888928890228271e-01
2.536579668521881104e-01 7.693724036216735840e-01 4.189159870147705078e-01
-5.012844800949096680e-01 4.339884817600250244e-01 -1.195370033383369446e-01
3.290249407291412354e-01 -6.598509550094604492e-01 -2.143363803625106812e-01
4.963913187384605408e-02 7.420783042907714844e-01 4.967280924320220947e-01
-4.005845487117767334e-01 -3.396776020526885986e-01 -5.124409124255180359e-02
-3.782009184360504150e-01 3.504678308963775635e-01 -3.312053680419921875e-01
6.955737620592117310e-02 -8.367774486541748047e-01 3.864637017250061035e-01
2.423125132918357849e-02 -7.720592021942138672e-01 -4.041944444179534912e-01
-5.336253643035888672e-01 7.485340237617492676e-01 -2.606650441884994507e-02
-2.390385568141937256e-01 -2.342170029878616333e-01 3.188344836235046387e-01
-1.571304053068161011e-01 -4.772562682628631592e-01 4.078859984874725342e-01
-1.790953278541564941e-01 4.184533357620239258e-01 4.600136280059814453e-01
1.323942542076110840e-01 -8.202377557754516602e-01 2.060778886079788208e-01
-1.351866126060485840e-01 -5.548554658889770508e-02 -4.429228603839874268e-01
-1.482823938131332397e-01 -5.266343355178833008e-01 -3.450598418712615967e-01
2.419379539787769318e-02 -3.233974426984786987e-02 3.885813355445861816e-01
2.584243118762969971e-01 -3.166360855102539062e-01 2.427798807621002197e-01
-4.271141588687896729e-01 7.291745543479919434e-01 1.748865693807601929e-01
-3.636242151260375977e-01 7.523764967918395996e-01 -2.833331525325775146e-01
-3.324905335903167725e-01 -7.719634473323822021e-02 -3.364404141902923584e-01
-2.980358302593231201e-01 6.114691495895385742e-01 4.171306192874908447e-01
-4.694584012031555176e-01 1.721257418394088745e-01 1.573595851659774780e-01
4.079866409301757812e-01 7.019554376602172852e-01 9.316982701420783997e-03
-4.838122427463531494e-01 -3.850031644105911255e-02 -2.365133352577686310e-02
-2.915542125701904297e-01 3.174479603767395020e-01 3.185070157051086426e-01
6.023844480514526367e-01 2.629135847091674805e-01 -3.471446409821510315e-02
4.646982252597808838e-01 8.091293573379516602e-01 1.329063326120376587e-01
7.048990577459335327e-02 -3.485899567604064941e-01 -4.250779747962951660e-01
-4.792379736900329590e-01 3.504428863525390625e-01 1.631756722927093506e-01
-3.695382475852966309e-01 8.304306864738464355e-01 -3.802607655525207520e-01
-4.687976241111755371e-01 -3.221822977066040039e-01 -1.239142147824168205e-04
-3.839286267757415771e-01 -5.569815039634704590e-01 -8.205998688936233521e-02
2.868785560131072998e-01 -7.908637076616287231e-02 -3.264524340629577637e-01
-1.162875294685363770e-01 -7.749595046043395996e-01 -3.416620194911956787e-01
-1.020222902297973633e-01 -6.083257496356964111e-02 -3.849416673183441162e-01
-4.980595111846923828e-01 1.808162331581115723e-01 2.097477018833160400e-02
3.441461622714996338e-01 -2.304090857505798340e-01 8.365107327699661255e-02
3.332861661911010742e-01 -2.460335493087768555e-01 -1.187024340033531189e-01
-2.172859013080596924e-01 -8.202377557754516602e-01 -2.650311291217803955e-01
-4.457811117172241211e-01 6.528626084327697754e-01 -1.231989413499832153e-01
-2.314332872629165649e-01 -7.766267657279968262e-01 3.566457331180572510e-01
2.831541895866394043e-01 8.439355492591857910e-01 3.252316117286682129e-01
-2.300244122743606567e-01 -8.202377557754516602e-01 -9.764699637889862061e-02
4.440409317612648010e-02 5.548161864280700684e-01 4.854896962642669678e-01
-1.439995225518941879e-02 -5.049296617507934570e-01 4.257289469242095947e-01
3.626767396926879883e-01 -8.063131570816040039e-01 1.126239970326423645e-01
4.848014190793037415e-02 2.783719003200531006e-01 4.033971726894378662e-01
-2.352392971515655518e-01 -3.741591572761535645e-01 -3.831447958946228027e-01
2.290846258401870728e-01 -7.064794301986694336e-01 -3.208591639995574951e-01
2.356210052967071533e-01 6.466822326183319092e-02 -2.988414168357849121e-01
-4.763654470443725586e-01 -1.470699608325958252e-01 2.711613103747367859e-02
2.817702591419219971e-01 5.615350008010864258e-01 3.808003067970275879e-01
-7.605767250061035156e-02 -2.912473976612091064e-01 -3.750016987323760986e-01
-4.010522663593292236e-01 -2.042059898376464844e-01 -1.024498715996742249e-01
2.777203321456909180e-01 -5.140360593795776367e-01 -2.963232994079589844e-01
-2.168758064508438110e-01 8.439355492591857910e-01 -4.719638526439666748e-01
-7.644163817167282104e-02 -8.202377557754516602e-01 3.094803690910339355e-01
6.229078173637390137e-01 2.674792706966400146e-01 5.924515798687934875e-02
9.884136915206909180e-02 3.813393414020538330e-01 4.665154218673706055e-01
3.334071636199951172e-01 -6.305112838745117188e-01 2.111035734415054321e-01
-2.172782123088836670e-01 7.724184542894363403e-02 4.208742082118988037e-01
-5.496123805642127991e-02 -6.891867518424987793e-01 4.125544130802154541e-01
1.892037838697433472e-01 -2.413660883903503418e-01 -3.122858405113220215e-01
-3.284838199615478516e-01 8.439355492591857910e-01 3.327926993370056152e-01
2.189477831125259399e-01 -3.399753272533416748e-01 -3.578118085861206055e-01
-7.500288635492324829e-02 -3.049386143684387207e-01 4.343906342983245850e-01
3.962891995906829834e-01 -4.253398776054382324e-01 5.689058452844619751e-02
-1.541657000780105591e-01 3.867463171482086182e-01 3.988823890686035156e-01
-4.499645531177520752e-01 5.490106344223022461e-01 5.084833875298500061e-02
3.182830512523651123e-01 4.442040622234344482e-01 3.422985672950744629e-01
-3.374345898628234863e-01 2.520766556262969971e-01 -2.702258527278900146e-01
-3.896515369415283203e-01 -5.036014318466186523e-01 3.646660968661308289e-02
-7.679169625043869019e-02 -8.202377557754516602e-01 -1.255461126565933228e-01
3.136943578720092773e-01 -1.549441069364547729e-01 -1.796828955411911011e-01
3.286715149879455566e-01 -6.742096543312072754e-01 -6.328343879431486130e-03
3.310513496398925781e-01 -5.549339652061462402e-01 -4.077793657779693604e-02
-1.525315642356872559e-02 9.492873400449752808e-02 4.011527597904205322e-01
-3.063181638717651367e-01 8.087106347084045410e-01 4.264761209487915039e-01
-5.143178701400756836e-01 8.439355492591857910e-01 7.093329727649688721e-02
1.292499750852584839e-01 -5.729394778609275818e-02 4.239368438720703125e-01
-4.161312282085418701e-01 -8.361983299255371094e-01 -1.233737319707870483e-01
3.159473836421966553e-01 1.375346779823303223e-01 3.135302960872650146e-01
-3.794916570186614990e-01 -7.719746828079223633e-01 1.208566036075353622e-02
2.780238091945648193e-01 -1.084692776203155518e-01 2.368917614221572876e-01
6.206542998552322388e-02 -2.113349139690399170e-01 4.343637526035308838e-01
-3.607680499553680420e-01 -1.304159462451934814e-01 -2.037010937929153442e-01
-4.003319740295410156e-01 -5.953641533851623535e-01 -1.981606483459472656e-01
-5.799710005521774292e-02 3.169466257095336914e-01 -4.768070578575134277e-01
3.391617834568023682e-01 -3.635008335113525391e-01 6.290671229362487793e-02
-2.326952368021011353e-01 1.491716355085372925e-01 3.514788746833801270e-01
-4.159862101078033447e-01 6.348484009504318237e-02 6.862886250019073486e-02
-2.571782767772674561e-01 -5.553699135780334473e-01 -3.561666607856750488e-01
-3.872150778770446777e-01 5.955584645271301270e-01 -3.448831140995025635e-01
6.979262232780456543e-01 2.969289384782314301e-02 6.058267876505851746e-02
-1.202086806297302246e-01 -2.588585019111633301e-01 -4.319408833980560303e-01
-4.851490855216979980e-01 4.268564283847808838e-02 5.220776051282882690e-02
2.916439771652221680e-01 -5.246213674545288086e-01 1.768275052309036255e-01
-2.544133067131042480e-01 -3.215919062495231628e-02 -3.222430646419525146e-01
2.269103229045867920e-01 1.408671885728836060e-01 3.104801177978515625e-01
4.629445672035217285e-01 5.226164460182189941e-01 9.232497774064540863e-03
-4.407083690166473389e-01 1.097699105739593506e-01 2.164807468652725220e-01
1.713416129350662231e-01 -6.615200638771057129e-01 -3.657666444778442383e-01
3.506556451320648193e-01 6.726301312446594238e-01 2.141873538494110107e-01
-2.327019572257995605e-01 -7.012117505073547363e-01 2.898626327514648438e-01
9.346707165241241455e-02 7.683553695678710938e-01 -4.241300821304321289e-01
1.988373845815658569e-01 -4.890478253364562988e-01 3.608109056949615479e-01
4.289902150630950928e-01 1.427610814571380615e-01 -8.393081277608871460e-02
6.784102916717529297e-01 2.195081412792205811e-01 -7.589596509933471680e-02
-3.847228586673736572e-01 2.364262491464614868e-01 -2.071191072463989258e-01
-2.197377532720565796e-01 7.312269210815429688e-01 3.931537270545959473e-01
5.509679764509201050e-02 -2.694678604602813721e-01 -4.321444630622863770e-01
5.907725095748901367e-01 4.521656632423400879e-01 -7.213049381971359253e-02
1.669085025787353516e-01 4.920455217361450195e-01 -4.464541673660278320e-01
3.715449273586273193e-01 7.390079498291015625e-01 -1.742922663688659668e-01
-2.961679100990295410e-01 -7.348914146423339844e-01 -3.119583129882812500e-01
-3.761408627033233643e-01 -1.842860132455825806e-02 1.669586151838302612e-01
1.852594912052154541e-01 5.728374794125556946e-02 -4.091346561908721924e-01
-3.525288999080657959e-01 2.863517403602600098e-01 3.494370877742767334e-01
-4.638199806213378906e-01 -1.187328994274139404e-01 1.229750066995620728e-01
-4.638641476631164551e-01 2.475753128528594971e-01 -1.838845610618591309e-01
3.614042401313781738e-01 -6.546456813812255859e-01 -1.412906348705291748e-01
1.707519441843032837e-01 -7.817437052726745605e-01 -2.872928082942962646e-01
-4.242848753929138184e-01 2.736468315124511719e-01 1.096093580126762390e-01
-1.512701511383056641e-01 3.422191143035888672e-01 -4.661372005939483643e-01
4.069772660732269287e-01 2.594274282455444336e-01 1.815429925918579102e-01
-1.400701701641082764e-01 5.694389343261718750e-01 4.159061312675476074e-01
1.518804281949996948e-01 4.596086442470550537e-01 3.801587820053100586e-01
-5.063322782516479492e-01 8.136508464813232422e-01 1.742037385702133179e-01
-6.756126135587692261e-02 8.439355492591857910e-01 -4.567379355430603027e-01
3.110100924968719482e-01 4.365113973617553711e-01 2.453613728284835815e-01
-1.896038204431533813e-01 -8.367774486541748047e-01 3.584781587123870850e-01
4.238559901714324951e-01 4.899365901947021484e-01 1.788347065448760986e-01
2.656195163726806641e-01 7.627620697021484375e-01 -3.264015316963195801e-01
-4.485095739364624023e-01 -6.100416779518127441e-01 1.470635272562503815e-02
-1.747438162565231323e-01 -6.334500312805175781e-01 3.268873095512390137e-01
3.148573637008666992e-01 -8.367774486541748047e-01 -6.904046237468719482e-02
4.703328013420104980e-01 6.858133077621459961e-01 -3.264378383755683899e-02
-3.018946647644042969e-01 -5.140456557273864746e-01 -2.442052364349365234e-01
2.688742578029632568e-01 2.573145627975463867e-01 2.833550870418548584e-01
3.718436062335968018e-01 7.903836965560913086e-01 1.807199269533157349e-01
-2.665516138076782227e-01 -4.372303783893585205e-01 3.578125834465026855e-01
-1.186566054821014404e-01 -4.555275738239288330e-01 3.593031167984008789e-01
-1.987719006137922406e-04 -3.557102382183074951e-01 -3.736110627651214600e-01
-3.865562379360198975e-01 -7.505273818969726562e-01 2.052461951971054077e-01
3.189082741737365723e-01 -6.481506228446960449e-01 9.139483422040939331e-02
-3.086598403751850128e-02 3.858272135257720947e-01 -4.202049970626831055e-01
-2.546563148498535156e-01 2.569553852081298828e-01 -3.430026769638061523e-01
1.428908202797174454e-02 -1.654116250574588776e-02 -3.913675844669342041e-01
-2.750202715396881104e-01 -6.421424150466918945e-01 -3.355683982372283936e-01
-9.984242171049118042e-02 -6.231902837753295898e-01 -3.526257276535034180e-01
3.274931311607360840e-01 -3.327589929103851318e-01 -2.502633333206176758e-01
-3.650638461112976074e-01 3.812452256679534912e-01 2.458482831716537476e-01
3.180026412010192871e-01 6.036871671676635742e-01 -3.569196164608001709e-01
-6.442033499479293823e-02 5.480519309639930725e-02 -3.965958952903747559e-01
-1.300970185548067093e-02 -8.202377557754516602e-01 7.705372571945190430e-02
-2.084013968706130981e-01 7.562228441238403320e-01 -4.715278148651123047e-01
-2.348023056983947754e-01 6.406404823064804077e-02 -3.442617654800415039e-01
-3.879271447658538818e-02 -5.715389847755432129e-01 -4.227423071861267090e-01
-3.744717538356781006e-01 -7.174354791641235352e-01 -8.323252201080322266e-02
-3.974393010139465332e-01 1.550078839063644409e-01 -1.651263684034347534e-01
5.083188414573669434e-01 -9.533797204494476318e-02 7.259965687990188599e-02
-3.692059516906738281e-01 3.960053324699401855e-01 -2.424102872610092163e-01
2.551225423812866211e-01 2.863555029034614563e-02 -3.593945205211639404e-01
-1.291496455669403076e-01 -8.202377557754516602e-01 -8.640293776988983154e-02
2.728565409779548645e-02 6.717340946197509766e-01 4.289923310279846191e-01
-4.535256326198577881e-01 -4.397706091403961182e-01 5.898729711771011353e-02
-4.070805609226226807e-01 8.152172565460205078e-01 2.320677638053894043e-01
-2.393372356891632080e-01 6.433269381523132324e-01 -3.801330327987670898e-01
-7.620345801115036011e-02 1.971638947725296021e-01 4.662148058414459229e-01
7.559049874544143677e-02 5.998945832252502441e-01 -4.848214387893676758e-01
-1.611284762620925903e-01 1.435850858688354492e-01 -3.814362585544586182e-01
3.626220226287841797e-01 -6.134980916976928711e-01 1.445740014314651489e-01
-4.387847185134887695e-01 2.293664664030075073e-01 6.487886887043714523e-03
1.895591169595718384e-01 -5.678539276123046875e-01 3.616569936275482178e-01
-8.012912422418594360e-02 -6.334519386291503906e-01 3.540603816509246826e-01
1.483759880065917969e-01 -7.782872319221496582e-01 3.041473627090454102e-01
-3.060563094913959503e-02 5.747565627098083496e-01 -4.968349039554595947e-01
1.972523145377635956e-02 -8.202377557754516602e-01 -3.331001996994018555e-01
-4.274901002645492554e-02 5.365017056465148926e-01 4.268093407154083252e-01
-2.482207715511322021e-01 6.072444319725036621e-01 4.442854523658752441e-01
-4.255103170871734619e-01 7.502722740173339844e-01 3.104589879512786865e-01
-4.635232090950012207e-01 8.100330233573913574e-01 -7.947127521038055420e-02
4.338987469673156738e-01 6.122028827667236328e-01 1.747655719518661499e-01
4.258560389280319214e-02 -7.022259235382080078e-01 4.056598246097564697e-01
1.245460212230682373e-01 5.568771362304687500e-01 4.678666889667510986e-01
-4.460874795913696289e-01 -4.824115931987762451e-01 -9.542784839868545532e-02
-3.524924218654632568e-01 8.649426698684692383e-02 -3.341229856014251709e-01
3.396477401256561279e-01 3.381634354591369629e-01 -1.910912841558456421e-01
