7.550220489501953125e-01 -3.012820482254028320e-01 3.431063294410705566e-01
-4.048758745193481445e-01 -2.822045087814331055e-01 -2.280991822481155396e-01
-5.948364138603210449e-01 8.329415321350097656e-02 2.206164747476577759e-01
8.283049464225769043e-01 2.503992617130279541e-01 1.830559968948364258e-01
8.909935951232910156e-01 -4.651563987135887146e-02 -8.034390211105346680e-02
4.611582756042480469e-01 9.206427633762359619e-02 3.537186086177825928e-01
4.948865771293640137e-01 2.503992617130279541e-01 3.413594514131546021e-02
6.638793647289276123e-02 6.961848586797714233e-03 -3.638624846935272217e-01
-1.892921775579452515e-01 -1.981373578310012817e-01 -3.638624846935272217e-01
-6.634510159492492676e-01 2.508087158203125000e-01 -2.645439505577087402e-01
-3.243783414363861084e-01 2.211138606071472168e-01 1.229187622666358948e-01
3.008316084742546082e-02 1.535235047340393066e-01 -3.638624846935272217e-01
8.909935951232910156e-01 -2.655123770236968994e-01 1.603082269430160522e-01
2.007370442152023315e-01 2.508087158203125000e-01 2.571105062961578369e-01
1.671546399593353271e-01 2.211138606071472168e-01 -1.422713696956634521e-01
-1.588447988033294678e-01 -3.012820482254028320e-01 1.229730919003486633e-01
-2.524476945400238037e-01 2.508087158203125000e-01 -1.829235851764678955e-01
4.611582756042480469e-01 -9.652190655469894409e-02 2.105817198753356934e-01
-2.372144311666488647e-01 -3.993206471204757690e-02 4.245003163814544678e-01
1.233030557632446289e-01 2.508087158203125000e-01 2.732331454753875732e-01
2.183155119419097900e-01 -3.012820482254028320e-01 2.772615253925323486e-01
3.789131641387939453e-01 2.472592145204544067e-01 4.245003163814544678e-01
8.314660787582397461e-01 1.911151707172393799e-01 -3.586720228195190430e-01
-4.048758745193481445e-01 -1.485037356615066528e-01 -2.190051078796386719e-01
7.993196696043014526e-02 2.508087158203125000e-01 6.738613825291395187e-03
-5.785467028617858887e-01 2.508087158203125000e-01 -6.104290857911109924e-02
4.611582756042480469e-01 9.265485405921936035e-02 -1.571333855390548706e-01
8.311451077461242676e-01 2.503992617130279541e-01 2.984770536422729492e-01
-1.653542220592498779e-01 2.211138606071472168e-01 3.331037461757659912e-01
2.981661260128021240e-01 2.508087158203125000e-01 2.910007536411285400e-01
-3.945604264736175537e-01 -2.037664353847503662e-01 4.245003163814544678e-01
4.611582756042480469e-01 8.027888834476470947e-02 5.959312617778778076e-02
-4.048758745193481445e-01 -2.986279428005218506e-01 2.391366511583328247e-01
-5.841466188430786133e-01 -8.518102020025253296e-02 1.325692087411880493e-01
8.909935951232910156e-01 -2.166243195533752441e-01 2.586488127708435059e-01
-9.067615866661071777e-01 -2.485637515783309937e-01 -2.103305608034133911e-01
-2.853569984436035156e-01 9.768230468034744263e-02 -3.638624846935272217e-01
2.297095209360122681e-01 -2.177501320838928223e-01 -3.638624846935272217e-01
-5.280690193176269531e-01 1.921755969524383545e-01 2.940361201763153076e-01
4.149769619107246399e-02 9.502419829368591309e-02 4.245003163814544678e-01
4.611582756042480469e-01 -2.625907063484191895e-01 5.128390341997146606e-02
2.534623742103576660e-01 2.211138606071472168e-01 1.994593441486358643e-01
2.605060040950775146e-01 2.508087158203125000e-01 -5.242853611707687378e-02
6.580296754837036133e-01 8.740807324647903442e-02 2.417836785316467285e-01
6.823428869247436523e-01 -1.922587454319000244e-01 3.537850081920623779e-01
-4.824064671993255615e-01 1.512185335159301758e-01 -1.128089353442192078e-01
8.909935951232910156e-01 -4.293585941195487976e-02 9.430697560310363770e-02
3.834858536720275879e-01 -9.113015234470367432e-02 2.258501797914505005e-01
-9.067615866661071777e-01 -1.453858613967895508e-01 7.321281731128692627e-02
3.834858536720275879e-01 -2.289308458566665649e-01 1.085235774517059326e-01
-4.824064671993255615e-01 1.771848052740097046e-01 1.730534136295318604e-01
3.335956931114196777e-01 2.508087158203125000e-01 -1.407441198825836182e-01
-4.048758745193481445e-01 6.792356818914413452e-02 -3.600855767726898193e-01
-2.240305989980697632e-01 2.211138606071472168e-01 -2.367707043886184692e-01
4.611582756042480469e-01 8.437570929527282715e-02 2.024182528257369995e-01
8.497337102890014648e-01 -3.012820482254028320e-01 -5.385456979274749756e-02
6.800248622894287109e-01 1.060972660779953003e-01 -3.281461298465728760e-01
-8.377737402915954590e-01 2.225042879581451416e-01 -3.618744313716888428e-01
-8.665014058351516724e-02 2.211138606071472168e-01 -1.598377674818038940e-01
-9.067615866661071777e-01 1.543072462081909180e-01 9.300609678030014038e-02
-6.670306324958801270e-01 -3.012820482254028320e-01 -1.049775034189224243e-01
-6.454197168350219727e-01 1.143512576818466187e-01 2.432083189487457275e-01
3.834858536720275879e-01 -2.543799579143524170e-01 3.278861343860626221e-01
-9.067615866661071777e-01 2.311184555292129517e-01 -4.517399892210960388e-02
-1.587522476911544800e-01 2.508087158203125000e-01 -1.745106130838394165e-01
-3.130266070365905762e-01 -1.525049656629562378e-01 4.245003163814544678e-01
-1.538456510752439499e-02 1.702105700969696045e-01 -3.638624846935272217e-01
5.093233287334442139e-02 -3.012820482254028320e-01 -1.909954696893692017e-01
4.626100659370422363e-01 2.503992617130279541e-01 -1.500578224658966064e-02
2.846170365810394287e-01 6.716466695070266724e-02 -3.266883194446563721e-01
2.481290698051452637e-01 -1.921963691711425781e-01 4.245003163814544678e-01
8.728637695312500000e-01 2.503992617130279541e-01 -4.869009554386138916e-02
4.611582756042480469e-01 -3.732014819979667664e-02 9.590797126293182373e-02
-7.841157913208007812e-01 1.528031527996063232e-01 2.940361201763153076e-01
-4.839679300785064697e-01 2.508087158203125000e-01 6.181749701499938965e-02
4.611582756042480469e-01 -2.979880869388580322e-01 -2.171337753534317017e-01
-1.747491061687469482e-01 2.211138606071472168e-01 -7.050974667072296143e-02
-6.842016577720642090e-01 2.508087158203125000e-01 3.636886924505233765e-02
-9.067615866661071777e-01 -2.726596891880035400e-01 -1.214854791760444641e-01
7.013017535209655762e-01 2.503992617130279541e-01 1.206349357962608337e-01
-2.369850575923919678e-01 7.611870020627975464e-02 -3.378197252750396729e-01
4.611582756042480469e-01 -3.668942674994468689e-02 3.345625698566436768e-01
2.230575680732727051e-02 -3.012820482254028320e-01 2.239305526018142700e-01
6.343110203742980957e-01 9.464993327856063843e-02 3.537850081920623779e-01
2.161735147237777710e-01 -3.012820482254028320e-01 -1.275854259729385376e-01
1.744548529386520386e-01 2.211138606071472168e-01 -7.063369452953338623e-02
-9.067615866661071777e-01 1.053406819701194763e-01 -2.377747893333435059e-01
3.122172057628631592e-01 2.508087158203125000e-01 4.046460688114166260e-01
8.909935951232910156e-01 9.768129140138626099e-02 -1.807725578546524048e-01
-4.868111610412597656e-01 -6.410919874906539917e-02 2.940361201763153076e-01
-7.269113063812255859e-01 -3.012820482254028320e-01 -7.476713508367538452e-02
1.604624651372432709e-02 2.508087158203125000e-01 7.056085765361785889e-02
-2.907654270529747009e-02 1.891251355409622192e-01 1.938483566045761108e-01
-4.048758745193481445e-01 -2.894936203956604004e-01 3.126055896282196045e-01
6.330080628395080566e-01 2.503992617130279541e-01 -2.971946895122528076e-01
-4.048758745193481445e-01 -1.523701548576354980e-01 1.846083998680114746e-01
1.620457023382186890e-01 2.470016479492187500e-01 -3.638624846935272217e-01
-3.392998361960053444e-03 2.508087158203125000e-01 3.553545176982879639e-01
4.611582756042480469e-01 -2.786740958690643311e-01 -1.410841643810272217e-01
-4.145913943648338318e-02 1.559704914689064026e-02 -3.390109241008758545e-01
-7.855756282806396484e-01 9.203208237886428833e-02 2.594899237155914307e-01
-4.048758745193481445e-01 -1.203349791467189789e-02 3.708564043045043945e-01
-8.403865694999694824e-01 -3.012820482254028320e-01 2.185399085283279419e-01
6.793447732925415039e-01 -3.012820482254028320e-01 -2.969884276390075684e-01
-1.991368383169174194e-01 2.508087158203125000e-01 2.211527228355407715e-01
3.834858536720275879e-01 1.880435794591903687e-01 -2.479473948478698730e-01
-2.671215832233428955e-01 1.137898489832878113e-01 -2.954008281230926514e-01
6.253869533538818359e-01 -3.012820482254028320e-01 -2.880787663161754608e-02
-4.824064671993255615e-01 4.124176874756813049e-02 2.267948985099792480e-01
-4.048758745193481445e-01 -1.480669341981410980e-02 1.594198495149612427e-01
-4.048758745193481445e-01 1.234040930867195129e-01 2.389686256647109985e-01
-3.872773051261901855e-01 2.259471416473388672e-01 -3.638624846935272217e-01
-9.067615866661071777e-01 1.948799937963485718e-01 3.050455078482627869e-02
-3.543055951595306396e-01 2.427116781473159790e-01 -2.420205026865005493e-01
-2.509506344795227051e-01 -3.012820482254028320e-01 -1.032932996749877930e-01
3.834858536720275879e-01 -1.234751492738723755e-01 1.470660269260406494e-01
-4.048758745193481445e-01 2.494806647300720215e-01 2.420231401920318604e-01
1.422709226608276367e-01 -1.116777956485748291e-01 -3.638624846935272217e-01
8.909935951232910156e-01 -1.447238475084304810e-01 2.433612346649169922e-01
-5.548924803733825684e-01 2.508087158203125000e-01 6.726288050413131714e-02
-8.145724423229694366e-03 2.508087158203125000e-01 2.190527133643627167e-02
-2.452088743448257446e-01 1.870535910129547119e-01 -3.378197252750396729e-01
-4.048758745193481445e-01 -2.026677876710891724e-01 -3.985257074236869812e-02
1.863800883293151855e-01 2.508087158203125000e-01 -2.287632077932357788e-01
4.611582756042480469e-01 2.253817170858383179e-01 -2.043805271387100220e-01
4.611582756042480469e-01 1.530699245631694794e-02 -4.196123778820037842e-02
-9.067615866661071777e-01 4.907305352389812469e-03 -1.372640430927276611e-01
9.210369735956192017e-02 2.211138606071472168e-01 -4.318495094776153564e-02
3.397912383079528809e-01 2.508087158203125000e-01 1.173590943217277527e-01
5.224840715527534485e-02 2.341437935829162598e-01 -2.647783458232879639e-01
4.611582756042480469e-01 1.827142983675003052e-01 -7.810323685407638550e-02
-8.732184171676635742e-01 -3.012820482254028320e-01 7.883246056735515594e-03
1.457509994506835938e-01 1.142596974968910217e-01 -3.638624846935272217e-01
5.855486989021301270e-01 2.503992617130279541e-01 -1.639456301927566528e-01
7.389225363731384277e-01 -3.012820482254028320e-01 1.309896409511566162e-01
-5.430788993835449219e-01 2.508087158203125000e-01 1.938433200120925903e-01
1.011528968811035156e-01 2.508087158203125000e-01 -2.257781326770782471e-01
-5.629532933235168457e-01 1.665284298360347748e-02 -3.361817896366119385e-01
2.834992706775665283e-01 2.508087158203125000e-01 2.290586084127426147e-01
-9.067615866661071777e-01 -3.160006180405616760e-02 -3.369303345680236816e-01
-4.824064671993255615e-01 1.455300897359848022e-01 -2.189306616783142090e-01
5.134972333908081055e-01 -3.012820482254028320e-01 2.499572038650512695e-01
8.909935951232910156e-01 -2.195963114500045776e-01 2.391202375292778015e-02
-2.350111007690429688e-01 2.508087158203125000e-01 -6.790225207805633545e-02
-4.048758745193481445e-01 -2.889342308044433594e-01 9.624541550874710083e-02
-3.235000371932983398e-01 2.508087158203125000e-01 1.712887287139892578e-01
-1.644728779792785645e-01 -3.012820482254028320e-01 2.712259888648986816e-01
4.727042019367218018e-01 -3.012820482254028320e-01 1.724809557199478149e-01
3.074564039707183838e-01 1.160213723778724670e-01 4.245003163814544678e-01
3.834858536720275879e-01 -2.555762231349945068e-01 -4.967344924807548523e-02
-3.343879878520965576e-01 2.508087158203125000e-01 2.461782991886138916e-01
-3.600272536277770996e-01 -2.084843814373016357e-03 -3.638624846935272217e-01
8.659700751304626465e-01 -3.012820482254028320e-01 1.040625572204589844e-01
-3.037685453891754150e-01 2.508087158203125000e-01 -1.367700546979904175e-01
-3.277367055416107178e-01 2.508087158203125000e-01 3.765076100826263428e-01
-1.035360097885131836e-01 2.508087158203125000e-01 1.017978414893150330e-01
3.834858536720275879e-01 -1.677663922309875488e-01 1.008410453796386719e-01
2.814196646213531494e-01 2.508087158203125000e-01 8.526460826396942139e-02
-5.715041160583496094e-01 -3.012820482254028320e-01 1.838407516479492188e-01
1.985870152711868286e-01 2.508087158203125000e-01 -2.814585808664560318e-03
-7.930800318717956543e-01 -3.012820482254028320e-01 3.139896690845489502e-02
-3.287649154663085938e-01 3.614690527319908142e-02 -3.378197252750396729e-01
-2.331498116254806519e-01 2.508087158203125000e-01 -3.349714577198028564e-01
5.857679843902587891e-01 -3.012820482254028320e-01 -1.411435455083847046e-01
-8.964411020278930664e-01 2.508087158203125000e-01 2.126120030879974365e-01
-8.430332690477371216e-02 2.211138606071472168e-01 2.898417413234710693e-01
-9.067615866661071777e-01 -2.207663469016551971e-02 -2.462128996849060059e-01
4.611582756042480469e-01 -1.478779464960098267e-01 -2.376734837889671326e-02
3.834858536720275879e-01 -1.901841759681701660e-01 -3.099700510501861572e-01
-1.657295227050781250e-02 2.211138606071472168e-01 1.188209429383277893e-01
6.558403968811035156e-01 1.522930413484573364e-01 -3.586720228195190430e-01
-1.099768206477165222e-01 1.727299764752388000e-02 4.245003163814544678e-01
-1.100210919976234436e-01 2.508087158203125000e-01 3.462765514850616455e-01
5.752261281013488770e-01 -3.012820482254028320e-01 1.159757077693939209e-01
8.909935951232910156e-01 -1.171351522207260132e-01 3.351719677448272705e-02
4.611582756042480469e-01 -2.026265263557434082e-01 1.198189854621887207e-01
7.968212366104125977e-01 6.419014930725097656e-02 -3.288312852382659912e-01
2.352681756019592285e-01 1.559009104967117310e-01 4.245003163814544678e-01
-3.929114341735839844e-01 -1.342926621437072754e-01 -3.638624846935272217e-01
5.426357388496398926e-01 1.360677778720855713e-01 -3.586720228195190430e-01
-1.710034310817718506e-01 1.314025223255157471e-01 -3.378197252750396729e-01
-7.897780537605285645e-01 -3.012820482254028320e-01 -1.664548367261886597e-01
8.185035586357116699e-01 -3.012820482254028320e-01 -1.388204544782638550e-01
-2.956916391849517822e-01 -1.537954341620206833e-02 -3.638624846935272217e-01
-4.824064671993255615e-01 1.482867896556854248e-01 2.460049651563167572e-02
3.448689877986907959e-01 -3.001199960708618164e-01 -3.638624846935272217e-01
3.834858536720275879e-01 1.872085332870483398e-01 -3.145890235900878906e-01
-4.824064671993255615e-01 3.569094836711883545e-02 -3.531646728515625000e-01
-2.755918800830841064e-01 -3.012820482254028320e-01 1.821263730525970459e-01
-7.244091629981994629e-01 -2.409727871417999268e-01 2.940361201763153076e-01
-3.995113968849182129e-01 -2.054939121007919312e-01 -3.638624846935272217e-01
3.834858536720275879e-01 -8.099023997783660889e-02 -3.540087640285491943e-01
-8.336316943168640137e-01 2.508087158203125000e-01 2.879472672939300537e-01
1.374638080596923828e-01 2.508087158203125000e-01 3.793387711048126221e-01
1.604825817048549652e-02 2.211138606071472168e-01 -2.035706341266632080e-01
3.834858536720275879e-01 2.192195504903793335e-02 4.230203330516815186e-01
6.859296560287475586e-01 2.503992617130279541e-01 3.117755651473999023e-01
7.211519479751586914e-01 2.503992617130279541e-01 -1.331068575382232666e-01
-2.562044560909271240e-01 2.508087158203125000e-01 1.399801075458526611e-01
-6.506802886724472046e-02 -3.012820482254028320e-01 -5.130221694707870483e-02
4.611582756042480469e-01 1.642243266105651855e-01 3.044622838497161865e-01
6.768928766250610352e-01 -6.486467272043228149e-02 2.417836785316467285e-01
-2.770094573497772217e-01 2.440336942672729492e-01 3.517577350139617920e-01
-8.131979107856750488e-01 2.508087158203125000e-01 -2.850441038608551025e-01
-2.975850701332092285e-01 2.211138606071472168e-01 -5.712296813726425171e-02
8.909935951232910156e-01 -1.983606964349746704e-01 -2.405163794755935669e-01
7.351537346839904785e-01 2.503992617130279541e-01 -2.105690091848373413e-01
-4.824064671993255615e-01 -1.773313283920288086e-01 -7.598088681697845459e-02
6.363231539726257324e-01 -3.012820482254028320e-01 3.371660411357879639e-02
8.909935951232910156e-01 8.399339020252227783e-02 2.984237074851989746e-01
-3.269318044185638428e-01 2.184567749500274658e-01 4.245003163814544678e-01
-8.193360567092895508e-01 -7.493034005165100098e-02 1.325692087411880493e-01
3.834858536720275879e-01 1.227432489395141602e-02 2.170358002185821533e-01
3.834858536720275879e-01 2.127513848245143890e-02 5.914018303155899048e-02
7.213008403778076172e-01 1.914471834897994995e-01 3.537850081920623779e-01
-9.067615866661071777e-01 -2.450665831565856934e-01 7.364452630281448364e-02
8.457485437393188477e-01 4.883661400526762009e-03 3.537850081920623779e-01
-1.280975639820098877e-01 3.194898366928100586e-02 -3.378197252750396729e-01
-5.020812526345252991e-02 2.508087158203125000e-01 3.802201151847839355e-01
-7.990904450416564941e-01 2.110766945406794548e-03 -3.361817896366119385e-01
-4.048758745193481445e-01 2.145058363676071167e-01 -2.402306497097015381e-01
3.492334187030792236e-01 2.507684826850891113e-01 -9.432014822959899902e-02
-7.644848823547363281e-01 -3.012820482254028320e-01 1.670168638229370117e-01
2.198155820369720459e-01 -3.012820482254028320e-01 1.379850208759307861e-01
4.611582756042480469e-01 2.416473813354969025e-02 9.361448138952255249e-02
4.611582756042480469e-01 -9.654554724693298340e-02 -2.544296681880950928e-01
-1.375045478343963623e-01 2.508087158203125000e-01 -9.765746444463729858e-02
3.578717112541198730e-01 -3.012820482254028320e-01 1.923130601644515991e-01
6.579461097717285156e-01 2.503992617130279541e-01 2.429205775260925293e-01
7.631476223468780518e-02 -1.296736896038055420e-01 4.245003163814544678e-01
-1.942431926727294922e-01 -3.012820482254028320e-01 -2.013230025768280029e-01
1.873952150344848633e-01 2.211138606071472168e-01 1.282470524311065674e-01
7.553288936614990234e-01 2.503992617130279541e-01 -3.139984607696533203e-01
-5.597670078277587891e-01 -3.012820482254028320e-01 -2.173372916877269745e-02
-2.985237538814544678e-01 -3.012820482254028320e-01 9.456644952297210693e-02
3.834858536720275879e-01 1.104516386985778809e-01 1.452517416328191757e-02
-4.824064671993255615e-01 -8.361764997243881226e-02 -1.306818705052137375e-02
-9.067615866661071777e-01 -1.274632960557937622e-01 1.988425999879837036e-01
-9.067615866661071777e-01 -1.937407255172729492e-01 -8.034038543701171875e-02
5.515326261520385742e-01 2.503992617130279541e-01 -2.887324094772338867e-01
-2.799311578273773193e-01 2.211138606071472168e-01 2.290945127606391907e-02
-5.781429260969161987e-02 1.962412297725677490e-01 -3.378197252750396729e-01
-6.204163432121276855e-01 -3.012820482254028320e-01 -1.460291147232055664e-01
2.526886761188507080e-01 -3.012820482254028320e-01 1.580351591110229492e-02
8.161392807960510254e-01 2.503992617130279541e-01 -2.540003508329391479e-02
-7.841788232326507568e-02 2.508087158203125000e-01 -1.984999179840087891e-01
-3.100717067718505859e-01 1.290846616029739380e-02 4.245003163814544678e-01
-3.543055951595306396e-01 2.432509362697601318e-01 -1.422904878854751587e-01
4.611582756042480469e-01 2.270327210426330566e-01 1.570293605327606201e-01
3.079835772514343262e-01 2.211138606071472168e-01 3.514096140861511230e-01
8.909935951232910156e-01 -2.606067061424255371e-01 -5.874790996313095093e-02
7.318356633186340332e-01 -2.336896806955337524e-01 3.537850081920623779e-01
-4.048758745193481445e-01 7.956859469413757324e-02 1.546831578016281128e-01
-4.048758745193481445e-01 2.078858949244022369e-02 5.686953291296958923e-02
1.034421101212501526e-02 2.508087158203125000e-01 -1.020732149481773376e-01
-2.080598771572113037e-01 2.211138606071472168e-01 1.813486516475677490e-01
4.611582756042480469e-01 -3.306907042860984802e-02 -7.870890200138092041e-02
-7.149428725242614746e-01 1.981346905231475830e-01 -3.618744313716888428e-01
8.862206935882568359e-01 2.503992617130279541e-01 -2.891348600387573242e-01
-7.182378172874450684e-01 6.355560570955276489e-02 1.325692087411880493e-01
8.112475872039794922e-01 -3.012820482254028320e-01 2.328646630048751831e-01
4.611582756042480469e-01 1.191573664546012878e-01 -2.104492932558059692e-01
2.545217871665954590e-01 2.211138606071472168e-01 1.193481385707855225e-01
1.085235401988029480e-01 1.323653608560562134e-01 4.245003163814544678e-01
-9.067615866661071777e-01 1.731211990118026733e-01 -2.574754133820533752e-02
3.353281915187835693e-01 2.508087158203125000e-01 -2.863993048667907715e-01
8.909935951232910156e-01 2.104593366384506226e-01 -1.243246793746948242e-01
-1.687256395816802979e-01 2.508087158203125000e-01 1.516565307974815369e-02
-3.877129554748535156e-01 2.508087158203125000e-01 -2.224834635853767395e-02
-2.823468148708343506e-01 2.211138606071472168e-01 1.214891076087951660e-01
2.239878624677658081e-01 1.881643086671829224e-01 -3.638624846935272217e-01
3.111437261104583740e-01 1.187227293848991394e-01 -3.378197252750396729e-01
-2.818517982959747314e-01 2.508087158203125000e-01 2.321412712335586548e-01
8.157861232757568359e-01 -3.012820482254028320e-01 -4.091477487236261368e-03
6.588737368583679199e-01 2.503992617130279541e-01 -2.087067216634750366e-01
-1.228628680109977722e-01 2.211138606071472168e-01 2.369333058595657349e-01
-4.048758745193481445e-01 1.598327159881591797e-01 4.471471905708312988e-02
-4.048758745193481445e-01 4.183455556631088257e-02 -2.409258782863616943e-01
-8.377918601036071777e-01 -1.237919703125953674e-01 -3.618744313716888428e-01
4.611582756042480469e-01 -2.401890307664871216e-01 2.767242789268493652e-01
5.277666449546813965e-01 -3.012820482254028320e-01 -3.673981502652168274e-02
4.905889183282852173e-02 -2.203498780727386475e-01 -3.638624846935272217e-01
5.225289463996887207e-01 2.503992617130279541e-01 2.705197036266326904e-01
-3.954494372010231018e-02 2.211138606071472168e-01 -9.161215275526046753e-02
3.834858536720275879e-01 -2.321342378854751587e-01 -2.036601603031158447e-01
-1.051727160811424255e-01 2.508087158203125000e-01 -1.484108436852693558e-02
3.250398635864257812e-01 2.211138606071472168e-01 1.598373800516128540e-01
8.909935951232910156e-01 3.543952479958534241e-02 2.446067780256271362e-01
3.379198610782623291e-01 2.211138606071472168e-01 1.856856234371662140e-02
1.295609474182128906e-01 2.211138606071472168e-01 1.099552512168884277e-01
-4.824064671993255615e-01 -1.213494837284088135e-01 1.993999928236007690e-01
-4.824064671993255615e-01 9.647700190544128418e-02 -3.576347529888153076e-01
-7.880365252494812012e-01 2.866142429411411285e-03 1.325692087411880493e-01
-4.048758745193481445e-01 -2.519713938236236572e-01 1.973395049571990967e-01
-4.824064671993255615e-01 -8.803127706050872803e-02 -8.756373077630996704e-02
-1.273077875375747681e-01 2.211138606071472168e-01 -1.997414380311965942e-01
-4.824064671993255615e-01 2.486556917428970337e-01 -6.569246947765350342e-02
-7.893434762954711914e-01 8.872907608747482300e-02 1.879023611545562744e-01
-1.095975190401077271e-01 -3.012820482254028320e-01 4.239811599254608154e-01
-1.795351207256317139e-01 1.116358041763305664e-01 4.245003163814544678e-01
-5.021932721138000488e-01 -3.012820482254028320e-01 -9.247195720672607422e-02
3.834858536720275879e-01 6.813172250986099243e-02 3.025084435939788818e-01
5.631282553076744080e-02 -3.012820482254028320e-01 -7.178778946399688721e-02
8.993787318468093872e-02 2.211138606071472168e-01 4.939395561814308167e-02
-6.042912974953651428e-02 2.695502340793609619e-01 -2.527927756309509277e-01
-6.432818174362182617e-01 2.508087158203125000e-01 2.344955354928970337e-01
7.272840738296508789e-01 2.331226021051406860e-01 -3.586720228195190430e-01
-2.937287390232086182e-01 -2.223097383975982666e-01 -3.638624846935272217e-01
4.345313832163810730e-02 2.211138606071472168e-01 -1.445049047470092773e-01
5.778257735073566437e-03 2.035434544086456299e-01 4.245003163814544678e-01
-1.046954244375228882e-01 1.230821385979652405e-01 4.245003163814544678e-01
-8.903853893280029297e-01 2.508087158203125000e-01 -2.193844020366668701e-01
1.805779337882995605e-01 2.211138606071472168e-01 3.474945947527885437e-02
-1.354189068078994751e-01 2.211138606071472168e-01 3.667482361197471619e-02
2.681764662265777588e-01 -1.087050959467887878e-01 -3.638624846935272217e-01
3.834858536720275879e-01 -3.969251736998558044e-02 -2.692806124687194824e-01
7.275919318199157715e-01 1.296499073505401611e-01 3.537850081920623779e-01
2.734232544898986816e-01 -3.012820482254028320e-01 -2.775990068912506104e-01
1.025644466280937195e-01 2.120026797056198120e-01 -3.638624846935272217e-01
1.739166080951690674e-01 2.508087158203125000e-01 1.906992793083190918e-01
-9.067615866661071777e-01 1.187317892909049988e-01 1.890040189027786255e-01
-1.279768347740173340e-01 1.449294537305831909e-01 -2.949329614639282227e-01
-7.825754284858703613e-01 -3.012820482254028320e-01 -2.846386134624481201e-01
-6.342440843582153320e-01 3.378691524267196655e-02 -3.361817896366119385e-01
3.834858536720275879e-01 -1.559821795672178268e-02 -1.659206002950668335e-01
-2.137915641069412231e-01 -3.012820482254028320e-01 -2.640140056610107422e-02
-2.235537022352218628e-01 2.363732755184173584e-01 4.245003163814544678e-01
4.616924095898866653e-03 2.070647776126861572e-01 -3.378197252750396729e-01
6.431111600250005722e-03 -3.012820482254028320e-01 3.354891836643218994e-01
-9.067615866661071777e-01 -2.277055755257606506e-02 5.874126777052879333e-02
-6.590630859136581421e-02 2.508087158203125000e-01 2.756035029888153076e-01
-6.081195175647735596e-02 -1.302128098905086517e-02 -3.638624846935272217e-01
8.355488181114196777e-01 3.430444747209548950e-02 -3.475174605846405029e-01
-6.303082704544067383e-01 -3.012820482254028320e-01 1.117752715945243835e-01
3.373433947563171387e-01 -2.099136710166931152e-01 4.245003163814544678e-01
-1.716986447572708130e-01 1.559704914689064026e-02 -3.622557222843170166e-01
4.666646122932434082e-01 -1.603595465421676636e-01 3.537850081920623779e-01
4.611582756042480469e-01 -2.389515340328216553e-01 -2.241623401641845703e-01
-9.067615866661071777e-01 1.157044470310211182e-01 2.833725512027740479e-01
-3.122800886631011963e-01 -3.012820482254028320e-01 2.595389075577259064e-02
1.475428789854049683e-01 -3.012820482254028320e-01 8.350786566734313965e-02
2.678585350513458252e-01 2.043624222278594971e-01 4.245003163814544678e-01
-2.473217668011784554e-03 2.508087158203125000e-01 1.411582380533218384e-01
-6.034354567527770996e-01 -1.424108445644378662e-01 2.685045301914215088e-01
8.909935951232910156e-01 -2.285471744835376740e-02 -1.787503063678741455e-01
-5.798385739326477051e-01 6.876666843891143799e-02 2.687801718711853027e-01
-2.553774416446685791e-01 -2.593772411346435547e-01 4.245003163814544678e-01
-7.681289315223693848e-01 -3.012820482254028320e-01 -1.141611188650131226e-01
-8.182595968246459961e-01 -3.012820482254028320e-01 -2.394066601991653442e-01
4.878197610378265381e-01 -2.599715255200862885e-02 -3.586720228195190430e-01
-5.859878063201904297e-01 2.508087158203125000e-01 -1.521210223436355591e-01
-5.568442940711975098e-01 -3.012820482254028320e-01 1.214448362588882446e-01
4.611582756042480469e-01 -2.353788912296295166e-01 1.778575181961059570e-01
-7.507396340370178223e-01 2.508087158203125000e-01 1.146302744746208191e-02
-3.497379422187805176e-01 9.341244399547576904e-02 4.245003163814544678e-01
-4.048758745193481445e-01 -1.219245567917823792e-01 1.129041090607643127e-01
-1.830242276191711426e-01 -9.377114474773406982e-02 4.245003163814544678e-01
8.909935951232910156e-01 1.092664599418640137e-01 -5.372628569602966309e-03
-2.752035260200500488e-01 1.690032631158828735e-01 -2.971212267875671387e-01
4.611582756042480469e-01 -1.488297134637832642e-01 -2.339606881141662598e-01
7.183026671409606934e-01 2.503992617130279541e-01 2.152157723903656006e-01
-3.528779745101928711e-01 2.508087158203125000e-01 8.732538670301437378e-02
-4.048758745193481445e-01 1.967311948537826538e-01 2.954456806182861328e-01
8.007631301879882812e-01 -3.012820482254028320e-01 -2.706187069416046143e-01
6.320392489433288574e-01 2.600418031215667725e-02 2.417836785316467285e-01
-9.067615866661071777e-01 1.426597088575363159e-01 -1.348101645708084106e-01
-2.940506637096405029e-01 2.508087158203125000e-01 -3.166756629943847656e-01
3.834858536720275879e-01 -8.641740679740905762e-02 -1.017563864588737488e-01
8.909935951232910156e-01 1.869409084320068359e-01 -2.258787453174591064e-01
-4.824064671993255615e-01 -2.577926516532897949e-01 7.438138872385025024e-02
-9.067615866661071777e-01 -2.045340836048126221e-01 1.152523308992385864e-01
-5.718864202499389648e-01 2.359477132558822632e-01 -3.618744313716888428e-01
8.735418915748596191e-01 -1.142694950103759766e-01 3.537850081920623779e-01
1.646263301372528076e-01 2.504093050956726074e-01 -2.647783458232879639e-01
-2.797198891639709473e-01 -3.012820482254028320e-01 3.295894563198089600e-01
2.334873676300048828e-01 2.508087158203125000e-01 2.341524660587310791e-01
-4.048758745193481445e-01 -6.075613666325807571e-03 -7.136009633541107178e-02
-9.067615866661071777e-01 7.344601303339004517e-02 4.947424307465553284e-02
-9.067615866661071777e-01 -4.432598128914833069e-02 2.697279155254364014e-01
-4.824064671993255615e-01 -2.492307871580123901e-01 1.514717042446136475e-01
-6.267597079277038574e-01 2.189226001501083374e-01 2.940361201763153076e-01
-3.945392966270446777e-01 -3.012820482254028320e-01 -3.078482151031494141e-01
2.871141731739044189e-01 -3.012820482254028320e-01 2.792002856731414795e-01
8.909935951232910156e-01 7.193553261458873749e-03 -1.156632155179977417e-01
8.448712825775146484e-01 1.012760624289512634e-01 3.537850081920623779e-01
-3.543055951595306396e-01 2.240023612976074219e-01 2.994126975536346436e-01
-4.048758745193481445e-01 -1.399931907653808594e-01 -6.506778299808502197e-02
-9.067615866661071777e-01 -1.609460860490798950e-01 -3.025299906730651855e-01
2.341896295547485352e-01 1.008877083659172058e-01 -3.378197252750396729e-01
1.858995296061038971e-02 -1.021839007735252380e-01 -3.638624846935272217e-01
-5.114885568618774414e-01 -2.516232728958129883e-01 -3.618744313716888428e-01
-1.529098451137542725e-01 -1.520451754331588745e-01 4.245003163814544678e-01
-1.305101811885833740e-01 1.904390901327133179e-01 -3.378197252750396729e-01
3.263266682624816895e-01 1.559704914689064026e-02 -3.452074527740478516e-01
4.638254344463348389e-01 -2.024927288293838501e-01 -3.586720228195190430e-01
8.909935951232910156e-01 -1.463183481246232986e-02 2.002662271261215210e-01
-4.824064671993255615e-01 1.082794815301895142e-01 -4.875065758824348450e-02
4.722585082054138184e-01 1.868895888328552246e-01 3.537850081920623779e-01
2.158012688159942627e-01 -7.884786278009414673e-02 -3.638624846935272217e-01
8.909935951232910156e-01 6.186919659376144409e-02 -2.452520728111267090e-01
7.078161835670471191e-01 -1.932125240564346313e-01 -3.475174605846405029e-01
-1.245825178921222687e-02 1.293973773717880249e-01 -3.638624846935272217e-01
-3.304390609264373779e-01 9.776781499385833740e-02 -3.378197252750396729e-01
-4.824064671993255615e-01 1.272242218255996704e-01 -1.676651686429977417e-01
-3.509754538536071777e-01 1.898465007543563843e-01 -3.454258143901824951e-01
4.611582756042480469e-01 1.732722669839859009e-02 -2.717998623847961426e-01
3.320402801036834717e-01 2.211138606071472168e-01 8.774553239345550537e-02
-2.645228207111358643e-01 3.344152495265007019e-02 4.245003163814544678e-01
1.904812827706336975e-02 1.845936924219131470e-01 2.054687291383743286e-01
1.616161018610000610e-01 8.603374660015106201e-02 -3.378197252750396729e-01
2.835737466812133789e-01 -2.246388494968414307e-01 -3.638624846935272217e-01
9.282345324754714966e-02 5.296124517917633057e-02 4.245003163814544678e-01
-2.049309015274047852e-01 3.655407205224037170e-02 -3.378197252750396729e-01
1.641293168067932129e-01 -3.012820482254028320e-01 2.757211923599243164e-01
3.834858536720275879e-01 3.081964328885078430e-02 -2.188702821731567383e-01
4.611582756042480469e-01 -1.086045876145362854e-01 1.976581290364265442e-02
-6.491100788116455078e-01 -1.473618149757385254e-01 -3.361817896366119385e-01
-4.824064671993255615e-01 -1.830006688833236694e-01 -2.205786406993865967e-01
2.771145999431610107e-01 2.211138606071472168e-01 3.137254118919372559e-01
2.048972249031066895e-01 2.508087158203125000e-01 6.676677614450454712e-02
-1.591828465461730957e-01 2.508087158203125000e-01 2.537028789520263672e-01
-7.955902814865112305e-01 1.148965582251548767e-01 -3.493254184722900391e-01
-4.048758745193481445e-01 1.451286524534225464e-01 -7.187772076576948166e-03
-2.051458694040775299e-02 -3.012820482254028320e-01 3.822202086448669434e-01
-7.408195734024047852e-01 -1.786010265350341797e-01 2.940361201763153076e-01
4.095868207514286041e-03 2.265206277370452881e-01 -1.750924624502658844e-02
3.003442883491516113e-01 2.508087158203125000e-01 -1.111559197306632996e-01
-4.853130578994750977e-01 -1.646102964878082275e-01 -3.618744313716888428e-01
3.834858536720275879e-01 -2.785805463790893555e-01 -3.108614683151245117e-01
9.604898840188980103e-02 2.211138606071472168e-01 -1.249212920665740967e-01
8.909935951232910156e-01 -7.374917715787887573e-02 3.137736618518829346e-01
5.127517580986022949e-01 2.221431136131286621e-01 -3.586720228195190430e-01
-7.970873713493347168e-01 2.508087158203125000e-01 5.838531255722045898e-02
-5.752547979354858398e-01 -2.359644472599029541e-01 2.940361201763153076e-01
1.421009153127670288e-01 2.508087158203125000e-01 -1.055529862642288208e-01
9.567672759294509888e-02 2.211138606071472168e-01 -1.882055699825286865e-01
-8.818527460098266602e-01 -3.012820482254028320e-01 -8.351239562034606934e-02
2.869833707809448242e-01 -3.012820482254028320e-01 3.673149347305297852e-01
-1.576113253831863403e-01 2.210253328084945679e-01 4.245003163814544678e-01
-3.854931518435478210e-02 -2.651210427284240723e-01 -3.638624846935272217e-01
6.993126869201660156e-01 -3.012820482254028320e-01 7.349542528390884399e-02
8.806498721241950989e-03 -3.012820482254028320e-01 -2.326759099960327148e-01
2.172641307115554810e-01 2.211138606071472168e-01 -8.097261190414428711e-02
-3.979750871658325195e-01 1.237984672188758850e-01 -3.638624846935272217e-01
3.834858536720275879e-01 1.424776017665863037e-01 -1.900799274444580078e-01
-2.645791769027709961e-01 2.211138606071472168e-01 -2.348732203245162964e-01
5.457375049591064453e-01 2.503992617130279541e-01 -1.050871685147285461e-01
-7.505202889442443848e-01 -3.012820482254028320e-01 -9.323487058281898499e-03
-3.344845473766326904e-01 2.508087158203125000e-01 -2.817259728908538818e-01
3.337127715349197388e-02 -3.012820482254028320e-01 2.672797814011573792e-02
-3.379978239536285400e-01 -3.012820482254028320e-01 2.020007371902465820e-01
4.611582756042480469e-01 -2.712803483009338379e-01 -6.862764805555343628e-02
4.611582756042480469e-01 5.753127392381429672e-03 2.833131849765777588e-01
-1.338705271482467651e-01 2.508087158203125000e-01 -5.895737558603286743e-02
2.378830164670944214e-01 2.407014966011047363e-01 -3.638624846935272217e-01
-4.048758745193481445e-01 -6.204399093985557556e-02 4.074218571186065674e-01
9.762251377105712891e-02 -1.634568534791469574e-02 4.245003163814544678e-01
8.724322319030761719e-01 -5.698655545711517334e-02 -3.586720228195190430e-01
-9.067615866661071777e-01 -2.770221233367919922e-01 1.826767027378082275e-01
6.720284223556518555e-01 -1.485882401466369629e-01 -3.281461298465728760e-01
-8.553069233894348145e-01 7.571928203105926514e-02 -3.618744313716888428e-01
-1.133230850100517273e-01 2.211138606071472168e-01 3.239674270153045654e-01
-6.585895419120788574e-01 -1.682010293006896973e-01 2.429195642471313477e-01
8.909935951232910156e-01 8.960940688848495483e-02 2.327932268381118774e-01
-7.930981516838073730e-01 -1.349617242813110352e-01 2.049797773361206055e-01
6.189127564430236816e-01 2.503992617130279541e-01 -6.756419315934181213e-03
2.692288458347320557e-01 2.508087158203125000e-01 -3.032875657081604004e-01
3.267009258270263672e-01 -3.012820482254028320e-01 -2.453667670488357544e-01
5.656108856201171875e-01 2.503992617130279541e-01 -2.746886573731899261e-02
-6.385084986686706543e-02 -3.012820482254028320e-01 3.188534677028656006e-01
-9.067615866661071777e-01 1.917278915643692017e-01 2.796691060066223145e-01
8.909935951232910156e-01 -2.502841651439666748e-01 -2.121757417917251587e-01
2.352399975061416626e-01 3.372363001108169556e-02 -3.638624846935272217e-01
-4.824064671993255615e-01 1.776335239410400391e-01 2.622969150543212891e-01
1.164384707808494568e-01 -3.012820482254028320e-01 -3.918442502617835999e-02
3.834858536720275879e-01 2.063222825527191162e-01 3.304637670516967773e-01
5.765421390533447266e-01 -2.610121369361877441e-01 3.537850081920623779e-01
3.113962411880493164e-01 -5.510994233191013336e-03 4.245003163814544678e-01
7.172623872756958008e-01 9.315890818834304810e-02 2.472417354583740234e-01
-2.321970462799072266e-01 2.508087158203125000e-01 8.410982042551040649e-02
-4.824064671993255615e-01 -2.255276311188936234e-03 -1.525556594133377075e-01
1.271785050630569458e-01 9.052193164825439453e-02 -3.378197252750396729e-01
6.543915867805480957e-01 -3.012820482254028320e-01 2.061901092529296875e-01
3.834858536720275879e-01 4.382300004363059998e-02 -1.246144399046897888e-01
3.834858536720275879e-01 1.246073767542839050e-01 2.629086077213287354e-01
-7.041091918945312500e-01 -9.014820307493209839e-02 1.325692087411880493e-01
3.834858536720275879e-01 -4.576589912176132202e-02 3.297111988067626953e-01
-4.119825735688209534e-02 -3.012820482254028320e-01 -1.208214610815048218e-01
8.909935951232910156e-01 -1.440909951925277710e-01 -3.545088171958923340e-01
5.627726912498474121e-01 1.986820101737976074e-01 -3.586720228195190430e-01
5.329179167747497559e-01 2.503992617130279541e-01 2.196677476167678833e-01
-9.067615866661071777e-01 1.482566148042678833e-01 -2.080849707126617432e-01
-8.280126452445983887e-01 -1.036165803670883179e-01 2.940361201763153076e-01
-5.317382216453552246e-01 -3.012820482254028320e-01 -3.200168907642364502e-01
6.607239246368408203e-01 1.861784234642982483e-02 -3.360168039798736572e-01
-4.824064671993255615e-01 -9.484676271677017212e-02 -3.433602750301361084e-01
-8.995410054922103882e-03 -3.012820482254028320e-01 1.327191144227981567e-01
-8.963762968778610229e-02 1.268177628517150879e-01 -3.638624846935272217e-01
-5.265447497367858887e-01 1.317003220319747925e-01 -3.618744313716888428e-01
-1.939705163240432739e-01 2.508087158203125000e-01 -2.082972526550292969e-01
6.667635440826416016e-01 2.503992617130279541e-01 -9.733893722295761108e-02
8.909935951232910156e-01 2.069229185581207275e-01 2.616731226444244385e-01
-6.835078238509595394e-04 1.436406373977661133e-01 4.245003163814544678e-01
-4.048758745193481445e-01 -1.777639538049697876e-01 2.288077957928180695e-02
-9.067615866661071777e-01 6.466019898653030396e-02 1.916067749261856079e-01
-2.073998600244522095e-01 2.211138606071472168e-01 3.220447599887847900e-01
-6.630696654319763184e-01 1.447694748640060425e-01 -3.511937260627746582e-01
8.909935951232910156e-01 -7.772184163331985474e-02 2.581064999103546143e-01
-2.408051937818527222e-01 2.508087158203125000e-01 -2.313129417598247528e-02
6.669908761978149414e-01 -1.506607979536056519e-01 2.745008170604705811e-01
4.611582756042480469e-01 1.709822416305541992e-01 5.117343366146087646e-02
7.438926696777343750e-01 -3.012820482254028320e-01 -6.651333719491958618e-02
5.406829118728637695e-01 -2.053560763597488403e-01 3.537850081920623779e-01
2.949778139591217041e-01 2.211138606071472168e-01 5.289938673377037048e-02
7.331184148788452148e-01 9.440746158361434937e-02 -3.281461298465728760e-01
-4.048758745193481445e-01 5.163139104843139648e-02 2.697661519050598145e-01
3.834858536720275879e-01 3.429952263832092285e-02 -3.547764122486114502e-01
7.223481535911560059e-01 -3.012820482254028320e-01 -3.529342710971832275e-01
-1.794244498014450073e-01 9.242747724056243896e-02 -3.378197252750396729e-01
8.909935951232910156e-01 -1.845872849225997925e-01 3.524821102619171143e-01
-4.824064671993255615e-01 2.415677607059478760e-01 1.552284508943557739e-01
3.414452373981475830e-01 -3.012820482254028320e-01 2.818402945995330811e-01
7.507190108299255371e-01 7.581284642219543457e-02 3.273569643497467041e-01
-9.067615866661071777e-01 3.269499912858009338e-02 1.318274345248937607e-02
1.966623514890670776e-01 -3.012820482254028320e-01 3.237943649291992188e-01
6.352888941764831543e-01 -4.869031161069869995e-02 -3.400955200195312500e-01
3.702979683876037598e-01 1.928778588771820068e-01 4.245003163814544678e-01
6.484627127647399902e-01 2.503992617130279541e-01 1.410385221242904663e-01
3.293892145156860352e-01 2.211138606071472168e-01 -1.576987951993942261e-01
7.553802728652954102e-01 -2.087013274431228638e-01 -3.586720228195190430e-01
6.699582934379577637e-02 2.508087158203125000e-01 -5.156892910599708557e-02
-6.277658939361572266e-01 -2.093744128942489624e-01 2.940361201763153076e-01
8.909935951232910156e-01 9.601923078298568726e-02 -6.944096833467483521e-02
-4.048758745193481445e-01 1.475282013416290283e-01 -2.295680791139602661e-01
-3.432064056396484375e-01 -1.240196451544761658e-01 -3.697149157524108887e-01
-5.048322677612304688e-01 -3.012820482254028320e-01 6.399811059236526489e-02
-4.824064671993255615e-01 -6.990730762481689453e-02 1.217094361782073975e-01
2.703436017036437988e-01 2.486095577478408813e-02 4.245003163814544678e-01
-4.824064671993255615e-01 2.351559102535247803e-01 -1.949141919612884521e-01
-4.824064671993255615e-01 9.281599894165992737e-03 1.071059927344322205e-01
-5.867484211921691895e-01 -8.761294931173324585e-02 -3.361817896366119385e-01
3.834858536720275879e-01 1.306720972061157227e-01 1.007454693317413330e-01
-4.048758745193481445e-01 -1.134688481688499451e-01 5.179238319396972656e-02
4.611582756042480469e-01 4.197128489613533020e-02 -1.624777466058731079e-01
-4.048758745193481445e-01 9.435112774372100830e-02 -2.847776748239994049e-03
-6.117417812347412109e-01 -2.831522226333618164e-01 2.940361201763153076e-01
4.611582756042480469e-01 -7.463293522596359253e-02 -2.084713131189346313e-01
7.549868822097778320e-01 -5.937119945883750916e-02 2.417836785316467285e-01
6.732438206672668457e-01 -2.776227593421936035e-01 -3.586720228195190430e-01
1.566439867019653320e-01 5.347370170056819916e-03 -3.638624846935272217e-01
3.352968953549861908e-03 2.911491878330707550e-02 -3.378197252750396729e-01
-6.204807162284851074e-01 -2.566487193107604980e-01 -3.618744313716888428e-01
-6.461220383644104004e-01 -3.012820482254028320e-01 -2.597881257534027100e-01
3.323813378810882568e-01 2.508087158203125000e-01 2.538678646087646484e-01
2.359492927789688110e-01 -2.414687871932983398e-01 4.245003163814544678e-01
-6.534836292266845703e-01 -3.012820482254028320e-01 6.665620952844619751e-02
7.364687323570251465e-01 4.633249714970588684e-02 2.417836785316467285e-01
8.867351710796356201e-02 2.211138606071472168e-01 2.636269629001617432e-01
3.290612101554870605e-01 8.185242861509323120e-02 -3.396427929401397705e-01
4.611582756042480469e-01 2.056492120027542114e-01 2.535690367221832275e-01
6.390426158905029297e-01 -3.012820482254028320e-01 -2.285056561231613159e-01
-4.612720757722854614e-02 -3.012820482254028320e-01 9.248232841491699219e-02
1.033421531319618225e-01 2.211138606071472168e-01 -2.557516694068908691e-01
3.834858536720275879e-01 -2.349030226469039917e-01 2.188940495252609253e-01
4.611582756042480469e-01 2.262087315320968628e-01 -2.588404119014739990e-01
-8.420523256063461304e-02 2.211138606071472168e-01 7.789779454469680786e-02
-4.996193572878837585e-02 2.508087158203125000e-01 2.512708492577075958e-02
-4.048758745193481445e-01 -1.491174399852752686e-01 2.684803605079650879e-01
6.307846307754516602e-01 -1.774651408195495605e-01 -3.475174605846405029e-01
4.611582756042480469e-01 1.745820492506027222e-01 1.416532397270202637e-01
8.323725461959838867e-01 2.503992617130279541e-01 7.519381493330001831e-02
1.434883028268814087e-01 -3.012820482254028320e-01 -3.619529008865356445e-01
-1.512920260429382324e-01 -2.309178858995437622e-01 -3.638624846935272217e-01
-4.048758745193481445e-01 -2.904413938522338867e-01 1.792476326227188110e-02
3.834858536720275879e-01 2.504082918167114258e-01 -2.723753452301025391e-01
-1.720407307147979736e-01 2.211138606071472168e-01 9.093676507472991943e-02
-4.824064671993255615e-01 -2.109477669000625610e-02 -2.633607685565948486e-01
-1.149992346763610840e-01 2.508087158203125000e-01 -1.768015027046203613e-01
-4.048758745193481445e-01 -6.274172919802367687e-04 -2.143589705228805542e-01
8.321321010589599609e-01 -8.061717450618743896e-02 3.537850081920623779e-01
1.987409591674804688e-01 2.211138606071472168e-01 2.839359641075134277e-01
-4.824064671993255615e-01 -2.216215878725051880e-01 3.986504301428794861e-02
-4.048758745193481445e-01 2.259139418601989746e-01 1.979391425848007202e-01
-2.921572029590606689e-01 -3.012820482254028320e-01 -3.070895969867706299e-01
-6.764084100723266602e-01 -2.768117934465408325e-02 -3.503918647766113281e-01
7.577650249004364014e-02 9.798412770032882690e-02 -3.378197252750396729e-01
8.909935951232910156e-01 1.193797066807746887e-01 1.040726155042648315e-01
-7.342487573623657227e-01 2.508087158203125000e-01 -2.180141061544418335e-01
-7.280488312244415283e-02 2.234409600496292114e-01 -2.647783458232879639e-01
-2.373955398797988892e-01 2.211138606071472168e-01 2.193276733160018921e-01
-4.048758745193481445e-01 1.071969270706176758e-01 9.987620264291763306e-02
1.262086480855941772e-01 -2.279800921678543091e-01 4.245003163814544678e-01
5.189929157495498657e-02 2.508087158203125000e-01 2.402463704347610474e-01
8.909935951232910156e-01 1.419252604246139526e-01 3.043948709964752197e-01
-4.048758745193481445e-01 -2.158385515213012695e-01 3.032368719577789307e-01
-6.021593883633613586e-02 2.508087158203125000e-01 3.145554065704345703e-01
-7.259846925735473633e-01 -5.880245938897132874e-02 -3.381426930427551270e-01
8.754615187644958496e-01 -3.012820482254028320e-01 -2.208170890808105469e-01
-6.960655450820922852e-01 2.508087158203125000e-01 -6.998969614505767822e-02
5.633371472358703613e-01 2.503992617130279541e-01 1.329696476459503174e-01
1.015737932175397873e-02 1.081215292215347290e-01 -3.378197252750396729e-01
7.889525890350341797e-01 1.655855625867843628e-01 -3.586720228195190430e-01
-5.409527197480201721e-02 1.558385193347930908e-01 -3.638624846935272217e-01
-8.941693305969238281e-01 2.508087158203125000e-01 -3.449438810348510742e-01
3.834858536720275879e-01 -1.949681490659713745e-01 3.159387707710266113e-01
-5.510975122451782227e-01 -1.422327458858489990e-01 -3.618744313716888428e-01
-5.912496447563171387e-01 7.982011139392852783e-02 1.380101740360260010e-01
-4.048758745193481445e-01 -1.714285910129547119e-01 -2.627520859241485596e-01
4.611582756042480469e-01 -2.041256129741668701e-01 -5.978539586067199707e-02
-4.048758745193481445e-01 2.045295760035514832e-02 7.512098643928766251e-03
-5.572936311364173889e-02 7.121670991182327271e-02 4.245003163814544678e-01
2.544030547142028809e-01 2.508087158203125000e-01 1.608323901891708374e-01
-4.048758745193481445e-01 1.426737904548645020e-01 2.888939976692199707e-01
-1.405560225248336792e-01 -3.012820482254028320e-01 -6.153378263115882874e-02
8.792364001274108887e-01 2.503992617130279541e-01 2.879543006420135498e-01
1.585273891687393188e-01 2.508087158203125000e-01 -1.643782556056976318e-01
-9.067615866661071777e-01 -2.428682595491409302e-01 -8.227107673883438110e-02
5.414740741252899170e-02 2.508087158203125000e-01 4.160340130329132080e-01
-4.048758745193481445e-01 -6.194328144192695618e-02 -2.826888263225555420e-01
3.834858536720275879e-01 -2.654902637004852295e-01 2.240972779691219330e-02
4.611582756042480469e-01 1.863875538110733032e-01 -2.935465872287750244e-01
-4.048758745193481445e-01 -1.517755538225173950e-01 3.936524689197540283e-01
-4.824064671993255615e-01 2.120932340621948242e-01 -3.114037513732910156e-01
3.040491044521331787e-02 1.861289888620376587e-01 2.784758806228637695e-01
-4.048758745193481445e-01 -3.003785610198974609e-01 3.717145919799804688e-01
2.412182241678237915e-01 2.508087158203125000e-01 3.073487877845764160e-01
-5.296697020530700684e-01 2.508087158203125000e-01 2.532065659761428833e-02
1.834825277328491211e-01 -1.235662028193473816e-01 4.245003163814544678e-01
