1.735766679048538208e-01 -4.954992607235908508e-02 -1.481143981218338013e-01
2.798863649368286133e-01 3.335547149181365967e-01 1.679356694221496582e-01
-6.314282417297363281e-01 -8.983444422483444214e-02 -4.201160371303558350e-01
7.679933309555053711e-02 -9.007870405912399292e-02 -1.666751801967620850e-01
4.897342920303344727e-01 -8.983444422483444214e-02 -3.964575231075286865e-01
5.880072116851806641e-01 -1.027023345232009888e-01 1.476466772146522999e-03
-4.198964834213256836e-01 1.745908856391906738e-01 1.447803433984518051e-02
-1.246289461851119995e-01 4.056178331375122070e-01 -6.324774026870727539e-02
-2.327153980731964111e-01 5.245550274848937988e-01 1.172279119491577148e-01
3.043067455291748047e-01 5.043632909655570984e-02 -1.481143981218338013e-01
2.455157190561294556e-01 -1.575627028942108154e-01 -4.234457015991210938e-01
9.380695968866348267e-02 -1.887267678976058960e-01 -3.935398459434509277e-01
9.694022685289382935e-02 5.054513812065124512e-01 -2.552537061274051666e-02
-2.881941795349121094e-01 -9.007870405912399292e-02 -2.435607463121414185e-01
2.968225479125976562e-01 2.941271066665649414e-01 1.298941969871520996e-01
5.552208423614501953e-02 3.168928623199462891e-01 -8.384258300065994263e-02
-4.164437353610992432e-01 -1.313955485820770264e-01 -4.504067301750183105e-01
-6.114929318428039551e-01 -2.089170068502426147e-01 9.732073545455932617e-02
1.408665180206298828e-01 -2.210385054349899292e-01 3.601854145526885986e-01
-5.859714150428771973e-01 -5.099394321441650391e-01 -1.882854849100112915e-01
-5.656192302703857422e-01 1.469601131975650787e-02 2.719751298427581787e-01
2.029290348291397095e-01 4.969445466995239258e-01 2.210308909416198730e-01
-5.137754678726196289e-01 -2.413857728242874146e-01 -3.692987561225891113e-01
6.135287880897521973e-01 -5.028197169303894043e-01 2.419306784868240356e-01
2.347522377967834473e-01 8.014459013938903809e-01 1.461867541074752808e-01
-2.286364436149597168e-01 2.247170358896255493e-01 -5.227217823266983032e-02
3.167578279972076416e-01 -3.441679477691650391e-02 -1.481143981218338013e-01
-5.515280961990356445e-01 -9.007870405912399292e-02 -5.330102890729904175e-02
1.795070469379425049e-01 2.247170358896255493e-01 -8.656543493270874023e-02
2.347522377967834473e-01 8.723138570785522461e-01 3.273870348930358887e-01
-2.977825142443180084e-02 -8.983444422483444214e-02 -3.949977159500122070e-01
-3.950670063495635986e-01 -9.186229109764099121e-02 -4.713840782642364502e-01
-5.838446617126464844e-01 -3.868564963340759277e-01 2.751797437667846680e-01
-2.304180711507797241e-01 3.395006060600280762e-01 3.623111546039581299e-01
-5.675191879272460938e-01 -9.004477411508560181e-02 3.259815275669097900e-01
-1.965941786766052246e-01 8.102687597274780273e-01 3.623111546039581299e-01
2.180971652269363403e-01 4.096308946609497070e-01 -6.248545646667480469e-02
1.440701633691787720e-01 4.969445466995239258e-01 6.462706625461578369e-02
-4.875870048999786377e-01 -9.007870405912399292e-02 1.242468655109405518e-01
-5.859714150428771973e-01 -1.324637532234191895e-01 8.963973075151443481e-02
-5.505596995353698730e-01 -4.803214967250823975e-01 -3.692987561225891113e-01
1.018119859509170055e-03 3.405319750308990479e-01 3.322986662387847900e-01
-1.208524182438850403e-01 2.312813550233840942e-01 3.623111546039581299e-01
4.186980426311492920e-02 2.247170358896255493e-01 2.282873094081878662e-01
-8.796527981758117676e-02 -7.185615133494138718e-03 3.601854145526885986e-01
-5.004122257232666016e-01 -4.545178711414337158e-01 -3.692987561225891113e-01
-2.112970203161239624e-01 4.471450448036193848e-01 3.623111546039581299e-01
5.561336278915405273e-01 -2.781332135200500488e-01 3.601854145526885986e-01
-3.647870123386383057e-01 -3.054731898009777069e-02 4.422967508435249329e-02
-6.114929318428039551e-01 -1.796596199274063110e-01 3.327523171901702881e-01
3.276065886020660400e-01 -6.264076381921768188e-02 3.623111546039581299e-01
-5.838446617126464844e-01 -1.963728666305541992e-01 2.897207140922546387e-01
1.836987771093845367e-02 8.706262707710266113e-01 3.623111546039581299e-01
-2.032544612884521484e-01 -9.007870405912399292e-02 -1.692642718553543091e-01
5.122800469398498535e-01 -4.545731246471405029e-01 -3.948193490505218506e-01
5.354024767875671387e-01 -1.291554272174835205e-01 -3.692987561225891113e-01
6.647390127182006836e-02 4.969445466995239258e-01 1.436383575201034546e-01
-4.932915270328521729e-01 1.218182668089866638e-01 -2.930267751216888428e-01
6.135287880897521973e-01 -4.931922852993011475e-01 -3.796638250350952148e-01
-2.235338687896728516e-01 -2.143055200576782227e-01 -3.692987561225891113e-01
1.942884027957916260e-01 9.052857756614685059e-01 6.760581582784652710e-02
1.684537380933761597e-01 -1.298174858093261719e-01 3.601854145526885986e-01
2.613904774188995361e-01 -2.514193356037139893e-01 3.601854145526885986e-01
1.440759748220443726e-01 -9.007870405912399292e-02 -6.279254704713821411e-02
5.130496621131896973e-01 -1.887267678976058960e-01 -3.974665999412536621e-01
2.135810256004333496e-01 5.054513812065124512e-01 -3.401797497645020485e-03
5.079209804534912109e-01 -3.578540682792663574e-01 3.601854145526885986e-01
5.811927914619445801e-01 -9.220542758703231812e-02 -3.444353640079498291e-01
-3.264566659927368164e-01 -2.032008320093154907e-01 -3.671710789203643799e-01
1.126676574349403381e-01 -9.220542758703231812e-02 3.595601916313171387e-01
3.865947201848030090e-02 -9.220542758703231812e-02 -1.735728606581687927e-02
3.659049570560455322e-01 2.922825329005718231e-02 -3.457410335540771484e-01
7.276506721973419189e-02 9.052857756614685059e-01 1.192334741353988647e-01
1.367294043302536011e-01 2.247170358896255493e-01 1.593677401542663574e-01
-2.583959102630615234e-01 -9.007870405912399292e-02 1.055019721388816833e-02
-5.237334370613098145e-01 -9.220542758703231812e-02 1.555815190076828003e-01
2.347522377967834473e-01 7.784630060195922852e-01 2.700442373752593994e-01
-5.755655765533447266e-01 -9.004477411508560181e-02 -2.269599437713623047e-01
3.912510573863983154e-01 -1.092356443405151367e-01 -3.692987561225891113e-01
-4.832256212830543518e-02 2.247170358896255493e-01 -9.955246001482009888e-02
5.880072116851806641e-01 -4.691664278507232666e-01 3.291115164756774902e-01
-1.565868854522705078e-01 -9.004477411508560181e-02 3.563711047172546387e-01
5.236589908599853516e-01 -9.007870405912399292e-02 4.382236301898956299e-02
1.018119859509170055e-03 4.180078506469726562e-01 1.552529186010360718e-01
-1.482861675322055817e-02 7.980456203222274780e-02 -1.481143981218338013e-01
-5.754590034484863281e-01 -9.007870405912399292e-02 -2.726378142833709717e-01
-2.327153980731964111e-01 6.330407857894897461e-01 3.229669034481048584e-01
-3.219822347164154053e-01 2.247170358896255493e-01 2.957092821598052979e-01
-2.496476769447326660e-01 -3.133500516414642334e-01 -3.692987561225891113e-01
6.135287880897521973e-01 -3.146886825561523438e-01 2.370665669441223145e-01
-5.513817071914672852e-01 -4.902019798755645752e-01 -4.223716855049133301e-01
-6.114929318428039551e-01 -2.848652005195617676e-01 1.709183007478713989e-01
2.156292349100112915e-01 2.174070570617914200e-03 3.623111546039581299e-01
1.062729731202125549e-01 -5.527287349104881287e-02 -3.522840738296508789e-01
4.222580790519714355e-01 1.744978278875350952e-01 -8.028620854020118713e-03
-2.787800133228302002e-01 2.247170358896255493e-01 1.800116151571273804e-01
-2.577493786811828613e-01 2.213166207075119019e-01 3.623111546039581299e-01
-6.438260078430175781e-01 -4.974593222141265869e-01 -6.915776431560516357e-02
6.135287880897521973e-01 -1.676331013441085815e-01 -1.007680967450141907e-01
-7.540203630924224854e-02 5.054513812065124512e-01 2.491909563541412354e-01
-3.310852348804473877e-01 -3.749589025974273682e-01 3.601854145526885986e-01
-5.218322575092315674e-02 2.986742258071899414e-01 -8.900223672389984131e-02
-5.859714150428771973e-01 -1.930441707372665405e-01 1.499304175376892090e-02
3.944333791732788086e-01 -9.220542758703231812e-02 -1.277085840702056885e-01
-5.658751726150512695e-01 -3.519634306430816650e-01 -3.692987561225891113e-01
-3.647870123386383057e-01 -7.586634904146194458e-02 2.132161259651184082e-01
-5.062117576599121094e-01 -1.712855398654937744e-01 -3.671710789203643799e-01
3.668229281902313232e-01 1.399553716182708740e-01 2.210871130228042603e-01
2.347522377967834473e-01 5.859845280647277832e-01 2.361448109149932861e-02
2.339738756418228149e-01 -9.007870405912399292e-02 1.067377924919128418e-01
-7.281809300184249878e-02 -1.954626441001892090e-01 3.623111546039581299e-01
1.524684727191925049e-01 -9.007870405912399292e-02 1.602459549903869629e-01
-6.369001865386962891e-01 -4.898782074451446533e-01 7.523262407630681992e-03
-4.248594939708709717e-01 1.271539628505706787e-01 -2.875403463840484619e-01
4.810684919357299805e-01 -4.128210246562957764e-01 -3.692987561225891113e-01
-3.467438519001007080e-01 -1.641318798065185547e-01 -4.139297604560852051e-01
-2.676036357879638672e-01 2.247170358896255493e-01 5.132868140935897827e-02
2.433153390884399414e-01 1.546895056962966919e-01 -2.504149079322814941e-01
2.203240618109703064e-02 -9.007870405912399292e-02 2.843060195446014404e-01
-3.647870123386383057e-01 1.351885646581649780e-01 1.155907064676284790e-01
-1.654611378908157349e-01 -9.007870405912399292e-02 2.033744901418685913e-01
5.858805179595947266e-01 -3.811587393283843994e-01 2.784890532493591309e-01
-5.859714150428771973e-01 -2.387046217918395996e-01 5.291228368878364563e-02
-9.870285168290138245e-03 -9.220542758703231812e-02 -2.859826385974884033e-01
-2.123128771781921387e-01 9.052857756614685059e-01 -1.883891224861145020e-02
3.728482723236083984e-01 1.820809245109558105e-01 1.026675701141357422e-01
-5.859714150428771973e-01 -1.772130280733108521e-01 -2.355811893939971924e-01
-2.989033758640289307e-01 8.348366618156433105e-02 -3.229142427444458008e-01
-2.327153980731964111e-01 5.770492553710937500e-01 3.152645826339721680e-01
4.516182243824005127e-01 -2.184532880783081055e-01 3.601854145526885986e-01
2.793076634407043457e-01 -6.964516639709472656e-02 3.623111546039581299e-01
-3.647870123386383057e-01 6.108302623033523560e-03 -9.942169487476348877e-02
1.923468410968780518e-01 -2.798683047294616699e-01 3.623111546039581299e-01
-1.816509217023849487e-01 -3.506325185298919678e-01 -3.692987561225891113e-01
2.386741638183593750e-01 -2.005245238542556763e-01 -3.948193490505218506e-01
2.347522377967834473e-01 7.956861853599548340e-01 3.530026674270629883e-01
3.311359584331512451e-01 -1.761438548564910889e-01 -4.048073589801788330e-01
3.802588284015655518e-01 -9.004477411508560181e-02 -8.459245413541793823e-02
6.643044352531433105e-01 -1.371892690658569336e-01 -4.398177564144134521e-01
5.755561590194702148e-01 -4.251974821090698242e-01 -3.671710789203643799e-01
8.990917354822158813e-02 -9.798652678728103638e-02 -4.713840782642364502e-01
3.254065290093421936e-02 9.052857756614685059e-01 2.834287881851196289e-01
-5.625532865524291992e-01 2.868930436670780182e-02 -2.377011179924011230e-01
-2.402170598506927490e-01 -1.105374544858932495e-01 3.623111546039581299e-01
5.827721953392028809e-02 6.868292391300201416e-02 3.623111546039581299e-01
1.119329035282135010e-01 -5.802189558744430542e-02 3.623111546039581299e-01
-1.342272758483886719e-01 6.713071465492248535e-01 -5.028272792696952820e-02
-3.871656954288482666e-02 -1.889652162790298462e-01 -3.938761949539184570e-01
-2.327153980731964111e-01 9.032191038131713867e-01 3.606089949607849121e-01
1.018119859509170055e-03 3.284317851066589355e-01 2.184069007635116577e-01
-5.529801249504089355e-01 5.715135484933853149e-02 -3.187267184257507324e-01
5.858805179595947266e-01 -1.300123184919357300e-01 -2.034836709499359131e-01
-3.076351284980773926e-01 -8.983444422483444214e-02 -4.312226772308349609e-01
3.733574971556663513e-02 4.969445466995239258e-01 2.385554462671279907e-01
2.720744609832763672e-01 2.247170358896255493e-01 -1.079358384013175964e-01
-5.859714150428771973e-01 -2.144489884376525879e-01 -3.541800677776336670e-01
3.518680334091186523e-01 2.097107917070388794e-01 1.850657165050506592e-01
2.866076827049255371e-01 -9.007870405912399292e-02 2.878751158714294434e-01
-2.319418638944625854e-01 2.371352538466453552e-02 -3.470894098281860352e-01
-3.240682482719421387e-01 -9.007870405912399292e-02 1.620886623859405518e-01
-8.783916383981704712e-02 -9.007870405912399292e-02 -2.937983870506286621e-01
-3.647870123386383057e-01 3.274160251021385193e-02 8.380725979804992676e-02
4.527058303356170654e-01 -9.007870405912399292e-02 3.330006077885627747e-02
-3.050916194915771484e-01 -9.004477411508560181e-02 -1.775703951716423035e-02
1.627230495214462280e-01 -4.203856736421585083e-02 3.601854145526885986e-01
4.451110959053039551e-01 -3.188965618610382080e-01 3.601854145526885986e-01
-4.244717359542846680e-01 -9.004477411508560181e-02 -1.559737622737884521e-01
3.513639867305755615e-01 -9.220542758703231812e-02 -3.764151036739349365e-02
5.858805179595947266e-01 -2.518836557865142822e-01 -2.553459107875823975e-01
-4.288269579410552979e-01 -1.145844087004661560e-01 3.623111546039581299e-01
-3.602233827114105225e-01 -9.004477411508560181e-02 -2.654318213462829590e-01
5.858805179595947266e-01 -1.632594764232635498e-01 2.589763700962066650e-01
4.592294394969940186e-01 -4.347900152206420898e-01 3.623111546039581299e-01
5.880072116851806641e-01 -4.908639788627624512e-01 2.072925418615341187e-01
2.347522377967834473e-01 6.681947112083435059e-01 1.272963732481002808e-01
3.004410266876220703e-01 6.704125553369522095e-02 3.623111546039581299e-01
-3.351477086544036865e-01 1.789703369140625000e-01 -1.841144561767578125e-01
-1.693907976150512695e-01 4.969445466995239258e-01 4.657439142465591431e-02
3.655453324317932129e-01 1.954645067453384399e-01 -1.310152709484100342e-01
3.724023997783660889e-01 -9.220542758703231812e-02 2.557843625545501709e-01
-1.606706827878952026e-01 -2.248751223087310791e-01 3.601854145526885986e-01
3.392880558967590332e-01 1.549493074417114258e-01 3.623111546039581299e-01
3.659834861755371094e-01 -1.174294129014015198e-01 -4.601048827171325684e-01
-4.237418472766876221e-01 1.734780967235565186e-01 3.591453135013580322e-01
-1.539774388074874878e-01 -9.007870405912399292e-02 -3.659768700599670410e-01
-5.024352073669433594e-01 -9.007870405912399292e-02 2.545116543769836426e-01
-5.195666104555130005e-03 -9.004477411508560181e-02 1.513833403587341309e-01
3.910203576087951660e-01 -8.983444422483444214e-02 -4.302436411380767822e-01
-5.859714150428771973e-01 -9.202416241168975830e-02 1.074492856860160828e-01
-2.526778280735015869e-01 4.060540497303009033e-01 1.720068603754043579e-01
6.338692903518676758e-01 -5.239066481590270996e-01 2.853131592273712158e-01
-4.586569219827651978e-02 5.354015156626701355e-02 -3.377867043018341064e-01
-5.199546366930007935e-02 -9.007870405912399292e-02 3.198407888412475586e-01
-4.851820468902587891e-01 -1.971551030874252319e-01 3.623111546039581299e-01
5.858805179595947266e-01 -3.448126316070556641e-01 2.157712727785110474e-01
7.340191304683685303e-02 -8.983444422483444214e-02 -4.245497882366180420e-01
2.241758406162261963e-01 1.746287047863006592e-01 -2.030939906835556030e-01
-6.462425589561462402e-01 -1.527654677629470825e-01 2.195322811603546143e-01
-5.859714150428771973e-01 -3.913202881813049316e-01 -2.962401211261749268e-01
1.801196485757827759e-01 2.247170358896255493e-01 2.562089264392852783e-01
6.578199565410614014e-02 -4.872677326202392578e-01 -3.692987561225891113e-01
5.858805179595947266e-01 -3.879062831401824951e-01 -2.833906412124633789e-01
-9.680520743131637573e-02 2.247170358896255493e-01 -1.013763546943664551e-01
-3.522515892982482910e-01 2.081608176231384277e-01 -1.154111400246620178e-01
-5.838446617126464844e-01 -2.938422262668609619e-01 -7.863435149192810059e-02
3.933487236499786377e-01 -9.220542758703231812e-02 -2.593511939048767090e-01
-4.023893773555755615e-01 1.786756515502929688e-01 1.946679353713989258e-01
6.135287880897521973e-01 -4.701474308967590332e-01 -3.383150100708007812e-01
1.709139198064804077e-01 -2.392600178718566895e-01 -3.948193490505218506e-01
-2.106446623802185059e-01 2.247170358896255493e-01 1.964069157838821411e-01
3.668229281902313232e-01 1.335216015577316284e-01 2.636097967624664307e-01
3.772606849670410156e-01 -9.007870405912399292e-02 4.420117661356925964e-02
-1.684705726802349091e-02 7.138656973838806152e-01 3.623111546039581299e-01
1.018119859509170055e-03 2.409795373678207397e-01 1.529332995414733887e-01
4.726285338401794434e-01 1.526104807853698730e-01 5.242025107145309448e-02
6.135287880897521973e-01 -4.674788117408752441e-01 -1.686400175094604492e-01
4.542480409145355225e-01 -9.004477411508560181e-02 -3.066594898700714111e-01
-2.950395941734313965e-01 2.935833036899566650e-01 2.965496480464935303e-01
1.267443150281906128e-01 9.052857756614685059e-01 1.766975503414869308e-03
-3.020449876785278320e-01 2.110678553581237793e-01 3.369786143302917480e-01
5.858805179595947266e-01 -3.093767464160919189e-01 -2.319345623254776001e-01
6.659978032112121582e-01 -8.983444422483444214e-02 2.514999210834503174e-01
6.135287880897521973e-01 -1.556695997714996338e-01 2.917592227458953857e-01
-1.418995559215545654e-01 -5.130404233932495117e-01 -3.948193490505218506e-01
-6.439346075057983398e-01 -4.963611066341400146e-01 1.108128726482391357e-01
3.855058252811431885e-01 -4.155293703079223633e-01 -3.692987561225891113e-01
4.416011273860931396e-01 -3.035132288932800293e-01 -3.692987561225891113e-01
5.880072116851806641e-01 -2.580747902393341064e-01 -3.584247827529907227e-01
-2.796679139137268066e-01 3.290502429008483887e-01 1.640011370182037354e-01
1.995557546615600586e-01 5.001055002212524414e-01 3.623111546039581299e-01
5.880072116851806641e-01 -4.137642085552215576e-01 9.239457547664642334e-02
-6.114929318428039551e-01 -1.974265426397323608e-01 -2.493292391300201416e-01
-1.322188228368759155e-01 5.054513812065124512e-01 3.135178387165069580e-01
-6.114929318428039551e-01 -3.781712651252746582e-01 2.422428503632545471e-02
-1.787106133997440338e-02 -9.004477411508560181e-02 -3.379437625408172607e-01
-3.690908551216125488e-01 -9.004477411508560181e-02 -3.778772894293069839e-03
5.086140036582946777e-01 -9.004477411508560181e-02 -1.711098700761795044e-01
-2.962723001837730408e-02 7.477856278419494629e-01 -5.028272792696952820e-02
-6.114929318428039551e-01 -4.639116823673248291e-01 -2.434395998716354370e-01
5.314117670059204102e-01 9.880901128053665161e-02 9.857213497161865234e-02
6.693191081285476685e-02 4.050682485103607178e-01 -6.335271894931793213e-02
-2.663231194019317627e-01 3.641332983970642090e-01 3.354082703590393066e-01
-4.245114922523498535e-01 -9.004477411508560181e-02 1.530235260725021362e-02
-3.750648498535156250e-01 1.819180697202682495e-01 3.146442174911499023e-01
-9.908507764339447021e-02 1.489613354206085205e-01 -2.597379684448242188e-01
-4.344933852553367615e-02 -9.004477411508560181e-02 -2.341446429491043091e-01
2.806986272335052490e-01 2.247170358896255493e-01 -6.610785424709320068e-02
-5.434648320078849792e-02 -5.175003409385681152e-01 -4.432491660118103027e-01
7.030964642763137817e-02 2.730411887168884277e-01 3.623111546039581299e-01
5.880072116851806641e-01 -1.355220079421997070e-01 -2.550570368766784668e-01
3.668229281902313232e-01 2.040344476699829102e-02 -2.417101897299289703e-02
5.598871782422065735e-02 5.054513812065124512e-01 -4.840888082981109619e-02
5.227258801460266113e-02 -9.220542758703231812e-02 -7.695730775594711304e-02
2.347522377967834473e-01 4.973555505275726318e-01 -5.010114237666130066e-02
-1.446001082658767700e-01 -9.004477411508560181e-02 -1.073121558874845505e-02
-5.318835973739624023e-01 -2.339239697903394699e-03 3.623111546039581299e-01
6.135287880897521973e-01 -2.102188020944595337e-01 8.286515250802040100e-03
-3.385374546051025391e-01 -2.811041101813316345e-02 -3.522840738296508789e-01
4.214855134487152100e-01 -8.091656863689422607e-02 3.623111546039581299e-01
8.337131887674331665e-02 -2.859760820865631104e-01 -3.948193490505218506e-01
-3.925748765468597412e-01 -3.600127696990966797e-01 3.601854145526885986e-01
-5.859714150428771973e-01 -2.471232712268829346e-01 2.488546073436737061e-01
-9.292195737361907959e-02 -4.161128997802734375e-01 -3.692987561225891113e-01
3.364937379956245422e-02 1.321503967046737671e-01 -2.819841504096984863e-01
2.313382476568222046e-01 -4.166382849216461182e-01 -3.948193490505218506e-01
-3.346029520034790039e-01 -9.007870405912399292e-02 3.354441523551940918e-01
-4.212254583835601807e-01 1.742118746042251587e-01 -9.940260648727416992e-02
-4.093191325664520264e-01 1.526375412940979004e-01 -2.538744509220123291e-01
6.739919185638427734e-01 -8.983444422483444214e-02 1.198247596621513367e-01
6.058031916618347168e-01 -8.983444422483444214e-02 2.435067892074584961e-01
8.012492209672927856e-02 -1.569849848747253418e-01 -4.242143929004669189e-01
4.041374027729034424e-01 -3.814747631549835205e-01 -3.671710789203643799e-01
-5.345812439918518066e-01 -2.330330461263656616e-01 3.601854145526885986e-01
-2.883017957210540771e-01 -9.220542758703231812e-02 -3.082705140113830566e-01
-2.788204140961170197e-02 9.052857756614685059e-01 1.352051645517349243e-01
1.771428436040878296e-01 -5.179404020309448242e-01 -4.435583949089050293e-01
6.135287880897521973e-01 -9.166163206100463867e-02 3.167709112167358398e-01
1.796146482229232788e-01 8.574685454368591309e-01 3.623111546039581299e-01
-2.327153980731964111e-01 8.381196856498718262e-01 3.201519548892974854e-01
-1.186355501413345337e-01 -2.116301655769348145e-01 -3.948193490505218506e-01
3.040818572044372559e-01 1.875266283750534058e-01 2.836042344570159912e-01
-2.487316876649856567e-01 -9.220542758703231812e-02 -1.263187527656555176e-01
-6.367376190610229969e-04 -9.004477411508560181e-02 -2.073164135217666626e-01
4.396537542343139648e-01 -1.887267678976058960e-01 -3.759270608425140381e-01
-6.114929318428039551e-01 -1.370225399732589722e-01 3.928375244140625000e-02
-2.327153980731964111e-01 5.492216348648071289e-01 -2.190520241856575012e-02
1.513857245445251465e-01 2.087278813123703003e-01 -1.347498148679733276e-01
5.649216175079345703e-01 2.741540595889091492e-02 -2.307141572237014771e-01
3.278983831405639648e-01 -5.081065297126770020e-01 -4.406523406505584717e-01
-1.224876940250396729e-01 2.247170358896255493e-01 2.971778213977813721e-01
-6.114929318428039551e-01 -2.071547508239746094e-01 1.424771100282669067e-01
-7.583552598953247070e-02 -5.575075000524520874e-02 -3.522840738296508789e-01
-5.859714150428771973e-01 -3.892507553100585938e-01 -3.117832727730274200e-02
4.344135224819183350e-01 -9.007870405912399292e-02 -4.246506467461585999e-02
-7.526071369647979736e-02 7.671237587928771973e-01 -5.028272792696952820e-02
-6.114929318428039551e-01 -1.911849975585937500e-01 -1.096227616071701050e-01
-5.838446617126464844e-01 -3.798007369041442871e-01 -1.804222613573074341e-01
-6.679158806800842285e-01 -1.303263753652572632e-01 1.003334149718284607e-01
-3.692013621330261230e-01 -9.220542758703231812e-02 8.324407786130905151e-02
9.875579178333282471e-02 -9.007870405912399292e-02 3.026380538940429688e-01
-4.365687072277069092e-02 3.409574925899505615e-01 -7.752951234579086304e-02
2.663117945194244385e-01 -3.343574106693267822e-01 3.623111546039581299e-01
4.031952023506164551e-01 1.789015084505081177e-01 1.751930564641952515e-01
-2.834192514419555664e-01 -9.007870405912399292e-02 -2.025569826364517212e-01
1.018119859509170055e-03 2.324784994125366211e-01 2.191910892724990845e-01
-5.969749018549919128e-02 5.141540169715881348e-01 -5.028272792696952820e-02
-5.415342450141906738e-01 -5.192731618881225586e-01 -3.948193490505218506e-01
3.414894044399261475e-01 -9.007870405912399292e-02 1.523333881050348282e-02
5.880072116851806641e-01 -4.568190574645996094e-01 2.412299625575542450e-02
-2.796055749058723450e-02 -5.187701582908630371e-01 -3.948193490505218506e-01
-5.271881222724914551e-01 -1.685219854116439819e-01 3.601854145526885986e-01
-5.838446617126464844e-01 -2.519641220569610596e-01 -7.932238280773162842e-02
-1.325319260358810425e-01 9.052857756614685059e-01 1.165658682584762573e-01
-3.152793049812316895e-01 -9.007870405912399292e-02 -6.746715307235717773e-02
2.250627875328063965e-01 -1.657031625509262085e-01 3.601854145526885986e-01
5.880072116851806641e-01 -2.979046702384948730e-01 -2.960937619209289551e-01
3.040818572044372559e-01 2.141871750354766846e-01 4.511263966560363770e-02
4.070667028427124023e-01 -3.552911281585693359e-01 3.601854145526885986e-01
5.880072116851806641e-01 -4.582934081554412842e-01 2.895462512969970703e-01
-5.838446617126464844e-01 -4.457473754882812500e-01 -2.932419776916503906e-01
1.132192090153694153e-01 -3.009764850139617920e-01 3.601854145526885986e-01
2.347522377967834473e-01 6.300222873687744141e-01 3.589437007904052734e-01
-1.014644745737314224e-02 -4.165578484535217285e-01 -3.948193490505218506e-01
3.337521553039550781e-01 8.858283609151840210e-02 -1.481143981218338013e-01
5.880072116851806641e-01 -3.897761106491088867e-01 2.187965810298919678e-01
-1.347381323575973511e-01 3.273161053657531738e-01 -8.104003965854644775e-02
-3.647870123386383057e-01 5.604369193315505981e-02 -1.362539231777191162e-01
-3.647870123386383057e-01 1.405182629823684692e-01 2.785832062363624573e-02
8.129345625638961792e-02 6.279857754707336426e-01 -5.028272792696952820e-02
3.258113861083984375e-01 -9.007870405912399292e-02 -2.005892395973205566e-01
-1.565025597810745239e-01 2.247170358896255493e-01 -3.256882540881633759e-03
3.353157341480255127e-01 -5.242690443992614746e-02 -3.522840738296508789e-01
1.057088226079940796e-01 1.821817308664321899e-01 -1.109309718012809753e-01
-6.114929318428039551e-01 -2.511624693870544434e-01 -1.760195642709732056e-01
-5.103294849395751953e-01 -9.220542758703231812e-02 -1.377083212137222290e-01
-2.677102386951446533e-01 1.090696901082992554e-01 -1.481143981218338013e-01
6.135287880897521973e-01 -2.257368564605712891e-01 2.131288796663284302e-01
2.142915576696395874e-01 1.821458786725997925e-01 -1.510456651449203491e-01
-1.507185399532318115e-01 2.632344663143157959e-01 3.623111546039581299e-01
-2.438578754663467407e-01 -4.428354799747467041e-01 -3.671710789203643799e-01
-4.808927476406097412e-01 -9.007870405912399292e-02 3.559561967849731445e-01
-6.114929318428039551e-01 -2.372535318136215210e-01 2.043089121580123901e-01
7.288633286952972412e-02 -2.488602995872497559e-01 3.601854145526885986e-01
3.051607310771942139e-01 2.247170358896255493e-01 9.931463748216629028e-02
-4.148811399936676025e-01 -9.004477411508560181e-02 1.536079496145248413e-01
6.135287880897521973e-01 -4.370785951614379883e-01 -2.950071394443511963e-01
3.575105071067810059e-01 -9.220542758703231812e-02 1.748082339763641357e-01
1.047201007604598999e-01 2.831872105598449707e-01 -9.365542978048324585e-02
-6.207432746887207031e-01 -1.782851070165634155e-01 1.926459074020385742e-01
-1.342641115188598633e-01 -9.220542758703231812e-02 1.632567048072814941e-01
5.880072116851806641e-01 -1.160481125116348267e-01 -1.238988190889358521e-01
-4.039122164249420166e-01 1.783955246210098267e-01 1.376362591981887817e-01
-1.373911947011947632e-01 -9.220542758703231812e-02 3.119213283061981201e-01
-5.075882077217102051e-01 -9.007870405912399292e-02 3.225481510162353516e-01
-7.411719113588333130e-02 2.247170358896255493e-01 3.445927202701568604e-01
6.135287880897521973e-01 -5.019550323486328125e-01 3.235630393028259277e-01
5.380966141819953918e-02 -1.262580901384353638e-01 -4.542734026908874512e-01
-4.902254939079284668e-01 -1.066804826259613037e-01 -3.692987561225891113e-01
1.098003759980201721e-01 -3.087961077690124512e-01 -3.692987561225891113e-01
-3.858981132507324219e-01 -1.085474044084548950e-01 3.623111546039581299e-01
-1.573953032493591309e-01 5.054513812065124512e-01 2.387531995773315430e-01
-3.296002149581909180e-01 -4.414958655834197998e-01 -3.692987561225891113e-01
-3.647870123386383057e-01 6.858472526073455811e-02 1.021547839045524597e-01
1.188965961337089539e-01 4.969445466995239258e-01 1.766993999481201172e-01
-9.363480657339096069e-02 1.240095347166061401e-01 -2.908360958099365234e-01
6.135287880897521973e-01 -1.999584287405014038e-01 -3.823372423648834229e-01
1.749889850616455078e-01 -9.004477411508560181e-02 1.011419203132390976e-02
2.163174748420715332e-01 -9.007870405912399292e-02 -1.746052950620651245e-01
-1.036011949181556702e-01 2.922853529453277588e-01 -9.089253842830657959e-02
-2.022783458232879639e-01 -3.749055862426757812e-01 3.623111546039581299e-01
5.880072116851806641e-01 -1.597553342580795288e-01 4.698975384235382080e-02
-4.457301795482635498e-01 -1.118315085768699646e-01 -3.692987561225891113e-01
3.359961807727813721e-01 1.821817308664321899e-01 2.158071547746658325e-01
-4.888480901718139648e-01 -5.239066481590270996e-01 -3.994101285934448242e-01
-4.123725593090057373e-01 -9.220542758703231812e-02 -3.589472472667694092e-01
-2.794052362442016602e-01 -5.052343606948852539e-01 -3.948193490505218506e-01
-5.773530006408691406e-01 -4.388805925846099854e-01 -3.948193490505218506e-01
-6.239683032035827637e-01 -5.239066481590270996e-01 1.870014667510986328e-01
-5.838446617126464844e-01 -3.103722631931304932e-01 -1.625235229730606079e-01
-4.298631846904754639e-01 1.586105488240718842e-02 -3.487324118614196777e-01
-5.649717450141906738e-01 1.811378449201583862e-02 1.795773655176162720e-01
-6.114929318428039551e-01 -2.662326991558074951e-01 1.298748105764389038e-01
6.262338161468505859e-01 -8.983444422483444214e-02 1.476988941431045532e-01
3.459357321262359619e-01 -1.710577607154846191e-01 3.623111546039581299e-01
-2.405388802289962769e-01 4.516495168209075928e-01 1.638373285531997681e-01
-3.028689324855804443e-01 2.770852446556091309e-01 -7.461946457624435425e-02
5.880072116851806641e-01 -3.442271649837493896e-01 9.294225275516510010e-02
1.018119859509170055e-03 4.659103453159332275e-01 3.264603614807128906e-01
-8.926340192556381226e-02 -3.569225072860717773e-01 -3.671710789203643799e-01
-2.576068937778472900e-01 3.900280594825744629e-01 7.266864925622940063e-02
-6.114929318428039551e-01 -2.764291167259216309e-01 3.160759210586547852e-01
5.709925293922424316e-01 -3.744973987340927124e-02 -1.929052546620368958e-02
4.040184617042541504e-02 4.969445466995239258e-01 1.135473623871803284e-01
6.629922240972518921e-02 -1.006715819239616394e-01 -3.671710789203643799e-01
4.004946351051330566e-01 -2.531069517135620117e-01 -3.948193490505218506e-01
5.858805179595947266e-01 -2.615769803524017334e-01 5.886146798729896545e-02
-6.860424280166625977e-01 -1.040283814072608948e-01 2.050087749958038330e-01
2.347522377967834473e-01 5.815895795822143555e-01 2.245989888906478882e-01
2.347522377967834473e-01 7.295058965682983398e-01 -2.961954288184642792e-02
1.129730045795440674e-01 3.151441812515258789e-01 3.623111546039581299e-01
4.298819005489349365e-01 -9.007870405912399292e-02 2.908887565135955811e-01
2.573105692863464355e-01 -9.220542758703231812e-02 -2.641513049602508545e-01
-4.414893686771392822e-01 6.026984378695487976e-02 -3.349717855453491211e-01
3.885214328765869141e-01 -9.007870405912399292e-02 8.940612524747848511e-02
-4.860486388206481934e-01 -4.964104667305946350e-02 3.623111546039581299e-01
5.708083510398864746e-01 -1.361015904694795609e-02 2.944211103022098541e-02
6.135287880897521973e-01 -3.912291526794433594e-01 -2.399868071079254150e-01
-6.114929318428039551e-01 -4.381982088088989258e-01 -1.432192623615264893e-01
4.409914314746856689e-01 1.682184785604476929e-01 2.484513521194458008e-01
-1.059544272720813751e-02 -9.220542758703231812e-02 -7.590732723474502563e-02
2.001325041055679321e-01 -9.007870405912399292e-02 -2.582693994045257568e-01
-1.961363106966018677e-02 -3.879683017730712891e-01 -3.692987561225891113e-01
7.924467325210571289e-02 -4.909832477569580078e-01 -4.231170713901519775e-01
1.923594325780868530e-01 -4.033836126327514648e-01 -3.948193490505218506e-01
1.112136691808700562e-01 9.908846765756607056e-02 3.623111546039581299e-01
-1.586001962423324585e-01 5.054513812065124512e-01 1.346894800662994385e-01
-2.399660199880599976e-01 -9.004477411508560181e-02 -2.417471259832382202e-01
-1.089577376842498779e-01 -1.559419780969619751e-01 -3.692987561225891113e-01
1.380913108587265015e-01 -5.239066481590270996e-01 -4.148292839527130127e-01
-4.436277151107788086e-01 -9.004477411508560181e-02 1.799806058406829834e-01
5.876398682594299316e-01 -9.007870405912399292e-02 9.651909768581390381e-02
4.064017534255981445e-01 -5.239066481590270996e-01 -4.313322007656097412e-01
6.757910251617431641e-01 -8.983444422483444214e-02 6.593953818082809448e-02
-2.712444365024566650e-01 -2.792363166809082031e-01 -3.692987561225891113e-01
5.858805179595947266e-01 -1.959686577320098877e-01 2.070424556732177734e-01
3.157923817634582520e-01 -1.686014682054519653e-01 -3.671710789203643799e-01
5.913029909133911133e-01 -1.172452345490455627e-01 -4.602192938327789307e-01
4.613028466701507568e-01 -9.004477411508560181e-02 -1.559776216745376587e-01
1.637514978647232056e-01 9.052857756614685059e-01 2.460154294967651367e-01
2.418041378259658813e-01 4.549384713172912598e-01 1.437779515981674194e-01
-6.114929318428039551e-01 -3.672003746032714844e-01 -1.381170898675918579e-01
-1.262377202510833740e-02 -2.517207860946655273e-01 -3.948193490505218506e-01
-4.366000294685363770e-01 -2.213186323642730713e-01 -3.948193490505218506e-01
5.818574689328670502e-03 1.808459907770156860e-01 -1.713454276323318481e-01
1.152208894491195679e-01 -1.578680574893951416e-01 -3.692987561225891113e-01
-8.379064500331878662e-02 6.230437383055686951e-02 -3.340557515621185303e-01
-5.859714150428771973e-01 -4.111818969249725342e-01 -2.262261509895324707e-01
6.532908678054809570e-01 -1.484034806489944458e-01 -2.684066891670227051e-01
1.687203049659729004e-01 1.864487379789352417e-01 3.601854145526885986e-01
5.858805179595947266e-01 -4.392799437046051025e-01 -3.302646875381469727e-01
-6.377434730529785156e-01 -4.898782074451446533e-01 -3.301047384738922119e-01
-6.313778758049011230e-01 -5.239066481590270996e-01 -9.620506316423416138e-02
5.880072116851806641e-01 -2.813853025436401367e-01 3.380468189716339111e-01
2.670882344245910645e-01 -3.873450458049774170e-01 -3.948193490505218506e-01
-2.179524451494216919e-01 2.024922333657741547e-02 3.623111546039581299e-01
-5.859714150428771973e-01 -4.654141664505004883e-01 1.820530444383621216e-01
-3.744880855083465576e-01 -1.760624349117279053e-01 3.623111546039581299e-01
1.969589143991470337e-01 5.727629065513610840e-01 3.623111546039581299e-01
-5.859714150428771973e-01 -2.376354336738586426e-01 -1.876262575387954712e-02
1.018119859509170055e-03 3.744838237762451172e-01 3.547668457031250000e-01
6.053912639617919922e-01 -5.239066481590270996e-01 -3.866323828697204590e-02
1.378354281187057495e-01 -3.418687880039215088e-01 -3.948193490505218506e-01
1.074264794588088989e-01 -9.220542758703231812e-02 -2.970475852489471436e-01
3.634341359138488770e-01 -9.007870405912399292e-02 2.980240285396575928e-01
-3.957281112670898438e-01 -9.220542758703231812e-02 2.340655028820037842e-01
1.418765634298324585e-01 5.054513812065124512e-01 -4.240863025188446045e-02
2.798204421997070312e-01 -9.007870405912399292e-02 1.190192401409149170e-01
3.668229281902313232e-01 1.540904641151428223e-01 1.338636130094528198e-01
-5.681405067443847656e-01 -3.896377282217144966e-03 -5.365619063377380371e-02
-1.087247766554355621e-02 9.052857756614685059e-01 7.422734051942825317e-02
5.880072116851806641e-01 -3.968551456928253174e-01 -5.112547799944877625e-02
-7.475714385509490967e-02 8.016718924045562744e-02 3.623111546039581299e-01
5.135421156883239746e-01 1.199817657470703125e-01 -1.224562451243400574e-01
2.347522377967834473e-01 5.869170427322387695e-01 1.088480353355407715e-01
2.527779638767242432e-01 4.126765429973602295e-01 2.764554023742675781e-01
3.226106762886047363e-01 -4.898782074451446533e-01 -4.041618108749389648e-01
-5.859714150428771973e-01 -1.926438361406326294e-01 -2.943092286586761475e-01
6.135287880897521973e-01 -3.252718746662139893e-01 -3.565190732479095459e-01
-5.285345315933227539e-01 -3.236191272735595703e-01 3.601854145526885986e-01
-2.477865666151046753e-01 -2.655685879290103912e-02 -1.481143981218338013e-01
-1.883432120084762573e-01 -4.905538558959960938e-01 -4.227933287620544434e-01
-1.791461706161499023e-01 1.989841610193252563e-01 -8.537189662456512451e-02
-5.668745636940002441e-01 -9.007870405912399292e-02 -1.154539808630943298e-01
4.824905097484588623e-01 1.462522596120834351e-01 3.343032300472259521e-01
2.957029342651367188e-01 -1.493165940046310425e-01 3.623111546039581299e-01
9.802103787660598755e-02 5.054513812065124512e-01 2.410272508859634399e-01
-5.680600404739379883e-01 -2.821452617645263672e-01 -3.948193490505218506e-01
3.702214062213897705e-01 -2.208116799592971802e-01 -3.948193490505218506e-01
-2.489526867866516113e-01 1.768184006214141846e-01 -1.945396363735198975e-01
9.760180115699768066e-02 -9.007870405912399292e-02 -1.419445872306823730e-01
-5.072479844093322754e-01 -4.168583452701568604e-01 -3.671710789203643799e-01
-5.838446617126464844e-01 -2.269853502511978149e-01 -1.490323543548583984e-01
-7.619863748550415039e-02 -9.004477411508560181e-02 1.922746598720550537e-01
5.880072116851806641e-01 -4.995569586753845215e-01 -2.120777666568756104e-01
-5.079313516616821289e-01 1.235866248607635498e-01 2.698881626129150391e-01
-5.215475559234619141e-01 -9.007870405912399292e-02 1.066049933433532715e-01
-6.114929318428039551e-01 -4.764122068881988525e-01 1.143170073628425598e-01
1.280083209276199341e-01 2.247170358896255493e-01 -4.878773353993892670e-03
4.863668382167816162e-01 -1.141705140471458435e-01 -3.671710789203643799e-01
-5.100978016853332520e-01 1.214202567934989929e-01 -2.322680056095123291e-01
-2.169763445854187012e-01 -5.239066481590270996e-01 -4.070523381233215332e-01
4.277164041996002197e-01 -9.007870405912399292e-02 -2.430848181247711182e-01
-1.468829065561294556e-01 -9.004477411508560181e-02 -2.498672306537628174e-01
3.210636079311370850e-01 -9.004477411508560181e-02 -3.066449761390686035e-01
-5.859714150428771973e-01 -2.787555158138275146e-01 -3.574980795383453369e-01
6.089816689491271973e-01 -5.239066481590270996e-01 -1.345524638891220093e-01
-3.020449876785278320e-01 1.937332749366760254e-01 -5.344244651496410370e-03
5.858805179595947266e-01 -2.210065275430679321e-01 -2.775979042053222656e-01
3.980073332786560059e-01 -9.007870405912399292e-02 -5.354055389761924744e-02
-6.285712867975234985e-02 4.475986957550048828e-01 -5.595467239618301392e-02
-1.852965950965881348e-01 -9.007870405912399292e-02 -6.877584755420684814e-02
6.135287880897521973e-01 -2.239620089530944824e-01 -1.164993047714233398e-01
6.215354800224304199e-01 -1.826645433902740479e-01 -2.852449715137481689e-01
4.943201839923858643e-01 -9.220542758703231812e-02 -3.206615149974822998e-01
7.118372712284326553e-03 1.804824918508529663e-01 3.623111546039581299e-01
6.320866942405700684e-01 -1.664466410875320435e-01 3.230114877223968506e-01
-2.483865916728973389e-01 4.210273325443267822e-01 2.829412221908569336e-01
-4.347321391105651855e-01 -9.007870405912399292e-02 -2.557626962661743164e-01
1.309890151023864746e-01 9.052857756614685059e-01 9.530451148748397827e-02
-5.859714150428771973e-01 -1.440841257572174072e-01 -1.374849826097488403e-01
5.571291446685791016e-01 -9.004477411508560181e-02 -2.358749061822891235e-01
-6.114929318428039551e-01 -3.376599252223968506e-01 3.290998637676239014e-01
-6.114929318428039551e-01 -3.823810815811157227e-01 6.870116293430328369e-02
-1.843039989471435547e-01 4.969445466995239258e-01 3.113746643066406250e-01
2.023639231920242310e-01 -4.601380228996276855e-02 -3.522840738296508789e-01
5.858805179595947266e-01 -3.762985467910766602e-01 3.339271545410156250e-01
1.139048393815755844e-02 1.614331454038619995e-01 -2.377718836069107056e-01
2.378699555993080139e-02 2.243273556232452393e-01 -1.140544563531875610e-01
-2.100656367838382721e-02 -9.007870405912399292e-02 5.704106017947196960e-02
2.372321300208568573e-02 -2.256176322698593140e-01 3.623111546039581299e-01
-5.859714150428771973e-01 -4.149283766746520996e-01 7.046728581190109253e-02
-1.122922450304031372e-01 9.052857756614685059e-01 1.958941370248794556e-01
-3.296726197004318237e-02 4.969445466995239258e-01 1.088170185685157776e-01
-1.261226832866668701e-01 7.308717370033264160e-01 3.623111546039581299e-01
-2.977750897407531738e-01 -2.275611609220504761e-01 -3.692987561225891113e-01
5.880072116851806641e-01 -2.954357862472534180e-01 -1.933047026395797729e-01
-2.788139581680297852e-01 8.667509257793426514e-02 3.623111546039581299e-01
6.135287880897521973e-01 -4.216807484626770020e-01 1.651934236288070679e-01
4.280101060867309570e-01 -3.386864364147186279e-01 -3.692987561225891113e-01
3.175759613513946533e-01 3.238837420940399170e-02 3.601854145526885986e-01
1.186339035630226135e-01 2.188990861177444458e-01 -1.194587796926498413e-01
-5.859714150428771973e-01 -4.594857096672058105e-01 9.108113497495651245e-02
-2.158606350421905518e-01 -4.847872555255889893e-01 -3.692987561225891113e-01
1.216818019747734070e-02 -4.197295010089874268e-01 3.623111546039581299e-01
-6.114929318428039551e-01 -1.471317112445831299e-01 1.187623813748359680e-01
-2.224617898464202881e-01 2.247170358896255493e-01 -8.920909464359283447e-02
-2.112330496311187744e-01 -3.777137398719787598e-01 -3.671710789203643799e-01
-1.409040540456771851e-01 -3.513953983783721924e-01 -3.948193490505218506e-01
-3.529698550701141357e-01 -4.272457063198089600e-01 -3.948193490505218506e-01
-4.861474931240081787e-01 -3.835529983043670654e-01 -3.671710789203643799e-01
2.030253410339355469e-02 3.047722876071929932e-01 -8.723912388086318970e-02
-2.327153980731964111e-01 6.404358744621276855e-01 -1.390423160046339035e-02
-2.928838133811950684e-01 2.982981204986572266e-01 3.335491120815277100e-01
5.858805179595947266e-01 -4.492010772228240967e-01 1.040159016847610474e-01
-5.859714150428771973e-01 -1.763396561145782471e-01 -7.378923892974853516e-02
-2.648041844367980957e-01 -2.485307306051254272e-01 3.601854145526885986e-01
5.880072116851806641e-01 -1.296711266040802002e-01 2.785898745059967041e-01
3.793302178382873535e-01 -9.004477411508560181e-02 1.301859617233276367e-01
-2.292131930589675903e-01 -3.016414642333984375e-01 3.623111546039581299e-01
5.858805179595947266e-01 -4.186069965362548828e-01 2.761355042457580566e-01
1.488615870475769043e-01 -9.007870405912399292e-02 1.139612570405006409e-01
-4.770354926586151123e-02 9.052857756614685059e-01 1.667307913303375244e-01
2.724195718765258789e-01 -9.007870405912399292e-02 3.875517472624778748e-02
7.039805501699447632e-02 -9.220542758703231812e-02 -2.581492066383361816e-01
-2.998727262020111084e-01 1.435948163270950317e-01 -1.481143981218338013e-01
2.974981367588043213e-01 -9.007870405912399292e-02 -9.087973833084106445e-02
-6.405458450317382812e-01 -8.983444422483444214e-02 7.712855190038681030e-02
1.409886628389358521e-01 -3.796456158161163330e-01 -3.692987561225891113e-01
-3.322978615760803223e-01 -4.849607050418853760e-01 -3.948193490505218506e-01
6.135287880897521973e-01 -1.819210797548294067e-01 -2.466994524002075195e-01
-2.880274653434753418e-01 -4.381535947322845459e-01 -3.671710789203643799e-01
5.709925293922424316e-01 -2.311311289668083191e-02 1.351508796215057373e-01
-2.533298730850219727e-02 2.536332011222839355e-01 -1.032368987798690796e-01
1.688356548547744751e-01 2.657605111598968506e-01 3.623111546039581299e-01
-2.034299075603485107e-01 6.751564890146255493e-02 3.623111546039581299e-01
-1.840451806783676147e-01 5.121747255325317383e-01 3.623111546039581299e-01
-3.020449876785278320e-01 2.024689018726348877e-01 2.083151936531066895e-01
-6.114929318428039551e-01 -1.603059172630310059e-01 2.299400120973587036e-01
-5.624676495790481567e-02 2.247170358896255493e-01 1.999401450157165527e-01
-5.838446617126464844e-01 -3.420151472091674805e-01 1.110164374113082886e-01
6.135287880897521973e-01 -2.795232236385345459e-01 -3.189738988876342773e-01
2.665764391422271729e-01 3.692067861557006836e-01 3.291464149951934814e-01
1.854684352874755859e-01 -9.220542758703231812e-02 -3.347236216068267822e-01
2.144989967346191406e-01 -1.256571114063262939e-01 -4.546960294246673584e-01
3.642066717147827148e-01 -9.004477411508560181e-02 3.603046238422393799e-01
-2.512839138507843018e-01 4.108037650585174561e-01 2.124397009611129761e-01
-2.369775474071502686e-01 -8.983444422483444214e-02 -3.908654451370239258e-01
-6.114929318428039551e-01 -3.176238238811492920e-01 -1.599516835995018482e-03
-1.062920689582824707e-01 -1.158377602696418762e-01 -3.692987561225891113e-01
5.880072116851806641e-01 -3.417650461196899414e-01 -3.996364399790763855e-02
-7.309503108263015747e-02 5.564382672309875488e-01 -5.028272792696952820e-02
2.453761547803878784e-01 -8.377416431903839111e-02 3.601854145526885986e-01
4.936959743499755859e-01 -2.037068456411361694e-01 -3.692987561225891113e-01
-5.615780949592590332e-01 -1.777141690254211426e-01 -3.671710789203643799e-01
5.880072116851806641e-01 -3.819904327392578125e-01 -2.151854485273361206e-01
-2.916925251483917236e-01 -2.758339643478393555e-01 3.601854145526885986e-01
1.941323429346084595e-01 7.620124816894531250e-01 -5.028272792696952820e-02
7.208140194416046143e-02 4.969445466995239258e-01 3.359288275241851807e-01
-5.859714150428771973e-01 -3.185805380344390869e-01 6.187221407890319824e-02
-1.770640462636947632e-01 1.589041799306869507e-01 3.601854145526885986e-01
-4.296363592147827148e-01 -9.007870405912399292e-02 -3.121585249900817871e-01
5.207067355513572693e-02 6.500516533851623535e-01 -5.028272792696952820e-02
6.135287880897521973e-01 -1.346816122531890869e-01 -1.541979312896728516e-01
-3.470171988010406494e-01 1.821817308664321899e-01 -6.244581192731857300e-02
6.122822165489196777e-01 -8.983444422483444214e-02 -1.613235026597976685e-01
-8.380032144486904144e-03 -2.774895727634429932e-01 -3.692987561225891113e-01
1.081935409456491470e-02 4.759032130241394043e-01 3.623111546039581299e-01
1.086701303720474243e-01 9.052857756614685059e-01 3.583398163318634033e-01
6.810922622680664062e-01 -8.983444422483444214e-02 -1.391247957944869995e-01
6.135287880897521973e-01 -4.425950646400451660e-01 1.268795579671859741e-01
-5.325960516929626465e-01 -9.007870405912399292e-02 -2.550657391548156738e-01
-2.327153980731964111e-01 7.737792730331420898e-01 2.317576110363006592e-02
-2.173456549644470215e-01 1.475449502468109131e-01 -1.481143981218338013e-01
5.880072116851806641e-01 -4.161381125450134277e-01 -1.345707941800355911e-02
5.858805179595947266e-01 -1.932632327079772949e-01 -9.753809124231338501e-02
-5.689576268196105957e-01 -7.055342942476272583e-02 -1.778002232313156128e-01
-5.859714150428771973e-01 -3.553454279899597168e-01 -7.707013934850692749e-02
5.739373564720153809e-01 -9.220542758703231812e-02 2.258571833372116089e-01
-2.327153980731964111e-01 7.636138200759887695e-01 2.670712769031524658e-01
3.668229281902313232e-01 2.008928358554840088e-02 -1.163421794772148132e-01
1.616160571575164795e-01 3.083656430244445801e-01 3.623111546039581299e-01
-1.698366999626159668e-01 2.247170358896255493e-01 6.042597070336341858e-02
-6.554124951362609863e-01 -5.239066481590270996e-01 3.186543583869934082e-01
6.567148864269256592e-02 2.247170358896255493e-01 1.323553323745727539e-01
-7.389375567436218262e-02 -3.597132265567779541e-01 3.623111546039581299e-01
9.455276280641555786e-02 -9.004477411508560181e-02 8.654659986495971680e-02
2.280463874340057373e-01 1.231294795870780945e-01 3.601854145526885986e-01
5.553329586982727051e-01 -9.004477411508560181e-02 7.115947082638740540e-03
-5.859714150428771973e-01 -3.042693138122558594e-01 2.902703285217285156e-01
6.135287880897521973e-01 -2.090808302164077759e-01 4.467672854661941528e-02
-7.062730193138122559e-02 4.347007572650909424e-01 3.623111546039581299e-01
5.880072116851806641e-01 -4.722712337970733643e-01 6.997776776552200317e-02
1.263623833656311035e-01 -9.007870405912399292e-02 1.507204025983810425e-02
3.040818572044372559e-01 2.230943739414215088e-01 4.474419169127941132e-03
5.979933142662048340e-01 -1.686392724514007568e-01 3.623111546039581299e-01
-1.519185751676559448e-01 1.821817308664321899e-01 -1.503351330757141113e-01
