9.949821978807449341e-02 -3.344862461090087891e-01 -1.488185673952102661e-01
-2.742795646190643311e-01 -3.531603813171386719e-01 -4.810250401496887207e-01
-3.044126927852630615e-01 7.992886751890182495e-02 -4.351796582341194153e-02
-3.546943962574005127e-01 -1.566432863473892212e-01 -8.971549570560455322e-02
1.708898246288299561e-01 -6.569766402244567871e-01 4.033854007720947266e-01
2.464579939842224121e-01 2.363287508487701416e-01 -2.364538423717021942e-02
8.322852849960327148e-02 -3.433239161968231201e-01 3.126376569271087646e-01
4.049477577209472656e-01 6.494336724281311035e-01 2.456259280443191528e-01
1.849482506513595581e-01 -7.639362812042236328e-01 2.990963459014892578e-01
-1.712369918823242188e-01 -7.639362812042236328e-01 -3.906108736991882324e-01
1.272430270910263062e-01 4.146878719329833984e-01 3.530769944190979004e-01
3.250016868114471436e-01 2.158959209918975830e-01 4.325452074408531189e-02
-2.802029550075531006e-01 7.114477157592773438e-01 -1.465753745287656784e-02
4.692001044750213623e-01 4.081969857215881348e-01 4.136916399002075195e-01
-4.353930056095123291e-02 -7.639362812042236328e-01 -8.444739505648612976e-04
2.465764135122299194e-01 5.595188736915588379e-01 4.627180099487304688e-01
-2.601895630359649658e-01 -7.639362812042236328e-01 -2.501708269119262695e-02
-3.215009272098541260e-01 5.626828670501708984e-01 -5.284111499786376953e-01
1.645588278770446777e-01 -5.333127379417419434e-01 -9.761694818735122681e-02
9.142783237621188164e-04 7.420061230659484863e-01 -8.909671753644943237e-02
4.853280484676361084e-01 -1.950298994779586792e-01 1.798123270273208618e-01
-2.204617559909820557e-01 3.252260684967041016e-01 -4.356768131256103516e-01
-8.580678701400756836e-02 -3.482821583747863770e-01 -3.122685253620147705e-01
-2.380621731281280518e-01 -2.838205695152282715e-01 1.744364388287067413e-02
-3.441325724124908447e-01 -7.639362812042236328e-01 -4.889123737812042236e-01
4.256352186203002930e-01 5.466130971908569336e-01 4.386227726936340332e-01
-4.464606344699859619e-01 3.091997504234313965e-01 -4.651536643505096436e-01
-1.678854674100875854e-01 2.174996435642242432e-01 -3.833117187023162842e-01
-2.678360641002655029e-01 5.000697374343872070e-01 -4.867283701896667480e-01
-8.979891240596771240e-02 6.494336724281311035e-01 -7.898283004760742188e-02
5.377178192138671875e-01 4.383880272507667542e-02 2.259224206209182739e-01
-5.519359111785888672e-01 1.620840281248092651e-01 -3.085508346557617188e-01
1.550144851207733154e-01 -7.639362812042236328e-01 2.045875638723373413e-01
4.017965495586395264e-01 6.670843958854675293e-01 4.804812967777252197e-01
3.073321580886840820e-01 -1.234945026226341724e-03 5.079991221427917480e-01
-2.174921482801437378e-01 -5.271939039230346680e-01 4.215610027313232422e-02
1.611530184745788574e-01 -3.940329849720001221e-01 3.842325508594512939e-01
5.540106296539306641e-01 -6.972956061363220215e-01 2.936170697212219238e-01
-2.975995838642120361e-02 6.764807105064392090e-01 2.165290713310241699e-01
-4.267590939998626709e-01 -2.680537998676300049e-01 -1.522115319967269897e-01
4.075975716114044189e-01 -5.713055133819580078e-01 4.763303995132446289e-01
1.346132308244705200e-01 9.830046445131301880e-02 3.598481416702270508e-01
1.040004715323448181e-01 -1.417065262794494629e-01 -1.449834704399108887e-01
-2.820198535919189453e-01 -2.194934524595737457e-02 -2.294399403035640717e-02
2.393937408924102783e-01 6.762181520462036133e-01 -4.197148606181144714e-02
9.578055888414382935e-02 -4.530014693737030029e-01 -1.551179736852645874e-01
-5.123482346534729004e-01 -5.491663813591003418e-01 -3.938972651958465576e-01
-3.243639171123504639e-01 -1.451784521341323853e-01 -5.102491974830627441e-01
-3.256153166294097900e-01 5.623562335968017578e-01 -5.115709081292152405e-02
-1.889676898717880249e-01 -6.839736830443143845e-03 6.255075335502624512e-02
1.650246530771255493e-01 2.038122713565826416e-01 3.877893686294555664e-01
-5.543982386589050293e-01 5.544461607933044434e-01 -2.641076445579528809e-01
4.679822623729705811e-01 6.329246759414672852e-01 4.236781001091003418e-01
2.775592505931854248e-01 -7.639362812042236328e-01 6.293426454067230225e-02
-3.237007260322570801e-01 2.220512330532073975e-01 -5.900987982749938965e-02
-2.169286310672760010e-01 6.192482113838195801e-01 -4.471387267112731934e-01
-5.068827867507934570e-01 -3.942224979400634766e-01 -2.203315794467926025e-01
5.209434628486633301e-01 2.089737802743911743e-01 3.395149707794189453e-01
5.279909372329711914e-01 7.370104789733886719e-01 2.231541574001312256e-01
1.699828505516052246e-01 3.082187473773956299e-01 3.923449218273162842e-01
4.284888505935668945e-03 -3.727573454380035400e-01 -2.329343259334564209e-01
-2.620883285999298096e-01 -5.186473131179809570e-01 -4.783544540405273438e-01
3.301523029804229736e-01 3.345078825950622559e-01 4.764160141348838806e-02
-3.859802484512329102e-01 -6.887431144714355469e-01 -1.039921417832374573e-01
-1.362359267659485340e-03 -7.639362812042236328e-01 2.135436981916427612e-01
2.486321330070495605e-01 -6.784309744834899902e-01 4.646059572696685791e-01
5.502860546112060547e-01 6.198956370353698730e-01 2.479560077190399170e-01
-5.094822645187377930e-01 -9.844738990068435669e-02 -3.791184127330780029e-01
-2.839768826961517334e-01 4.624174833297729492e-01 -1.674078404903411865e-02
9.160644561052322388e-02 6.964181065559387207e-01 -1.670417487621307373e-01
-2.058684080839157104e-01 4.463151693344116211e-01 5.263740196824073792e-02
-4.327890574932098389e-01 -7.639362812042236328e-01 -1.819913387298583984e-01
3.628661930561065674e-01 -2.759115397930145264e-01 5.011667609214782715e-01
-8.826200664043426514e-02 -7.597942352294921875e-01 -3.349268138408660889e-01
-4.248474538326263428e-01 1.080293655395507812e-01 -1.526418328285217285e-01
-4.858755767345428467e-01 -7.639362812042236328e-01 -2.942348420619964600e-01
1.610888689756393433e-01 -2.446819841861724854e-01 -9.635854512453079224e-02
-4.077335596084594727e-01 -3.393713831901550293e-01 -4.721350073814392090e-01
3.721815645694732666e-01 -5.210356712341308594e-01 8.343954384326934814e-02
-5.450828671455383301e-01 -6.089707612991333008e-01 -2.497185915708541870e-01
2.348194420337677002e-01 -7.639362812042236328e-01 1.740882843732833862e-01
5.492597222328186035e-01 -1.875491738319396973e-01 2.574756741523742676e-01
5.237532258033752441e-01 -7.639362812042236328e-01 2.390077561140060425e-01
-4.408308491110801697e-02 -7.639362812042236328e-01 1.542781740427017212e-01
-3.425096347928047180e-02 2.165739238262176514e-01 -2.637829482555389404e-01
4.640430212020874023e-02 1.037136316299438477e-01 2.788046598434448242e-01
-4.600364863872528076e-01 5.208756327629089355e-01 -1.725210249423980713e-01
2.734882831573486328e-01 1.455455124378204346e-01 4.874428808689117432e-01
3.913916647434234619e-01 -3.887659013271331787e-01 4.841802120208740234e-01
3.046236466616392136e-03 -2.747499346733093262e-01 2.389682829380035400e-01
4.028643965721130371e-01 -7.025853991508483887e-01 1.070361062884330750e-01
7.973054796457290649e-02 -5.342315435409545898e-01 -1.735079139471054077e-01
2.177835106849670410e-01 6.548734903335571289e-01 1.532150525599718094e-02
3.682325035333633423e-02 6.714011430740356445e-01 -2.160493880510330200e-01
2.380772083997726440e-01 1.531673520803451538e-01 -3.078326024115085602e-02
-1.130037754774093628e-01 6.344593763351440430e-01 -3.549757599830627441e-01
2.447985112667083740e-02 2.962012290954589844e-01 -2.152302712202072144e-01
3.175545036792755127e-01 4.042602479457855225e-01 5.117819309234619141e-01
1.208469048142433167e-01 7.205203175544738770e-01 3.448156416416168213e-01
-1.679427176713943481e-01 6.494336724281311035e-01 -3.004434406757354736e-01
-3.252363204956054688e-01 -7.639362812042236328e-01 -2.012724727392196655e-01
-1.499149501323699951e-01 -7.639362812042236328e-01 2.135020121932029724e-02
-1.185225322842597961e-01 -4.201336205005645752e-01 1.276396811008453369e-01
1.079836115241050720e-01 6.494336724281311035e-01 2.493445873260498047e-01
3.307706490159034729e-02 5.992180109024047852e-01 -2.226112931966781616e-01
5.247262716293334961e-01 -1.025957390666007996e-01 3.258256614208221436e-01
-1.834879070520401001e-02 6.548734903335571289e-01 1.284163594245910645e-01
-4.345200955867767334e-01 5.434793978929519653e-02 -4.653382003307342529e-01
-3.857443630695343018e-01 7.053473591804504395e-02 -1.182433292269706726e-01
-1.888127475976943970e-01 7.370598316192626953e-01 -1.225176006555557251e-01
1.179809421300888062e-01 3.137158155441284180e-01 -1.330744922161102295e-01
5.925476551055908203e-02 6.094719767570495605e-01 2.942487001419067383e-01
5.035813525319099426e-02 -4.544561505317687988e-01 2.824374437332153320e-01
4.599488675594329834e-01 7.420061230659484863e-01 2.181051820516586304e-01
-5.014706254005432129e-01 6.408130526542663574e-01 -4.140636324882507324e-01
2.037487626075744629e-01 -2.853058874607086182e-01 4.233682155609130859e-01
-3.704532980918884277e-01 4.224992096424102783e-01 -5.228401422500610352e-01
4.521908164024353027e-01 -2.704194188117980957e-01 4.235784113407135010e-01
-3.427272140979766846e-01 -4.299217462539672852e-01 -7.254170626401901245e-02
-1.686957180500030518e-01 4.216573834419250488e-01 -3.941884040832519531e-01
-4.933109283447265625e-01 5.043253302574157715e-01 -4.186616539955139160e-01
3.464056253433227539e-01 6.548734903335571289e-01 2.745382785797119141e-01
1.702325344085693359e-01 -1.669268310070037842e-01 3.925738632678985596e-01
-1.960447877645492554e-01 6.735792160034179688e-01 6.145568192005157471e-02
-9.000290930271148682e-02 -7.203990221023559570e-01 1.615378558635711670e-01
4.396472573280334473e-01 -2.222348749637603760e-01 1.409036815166473389e-01
-5.233848094940185547e-01 5.462170764803886414e-02 -3.611153066158294678e-01
1.794867366552352905e-01 5.295574665069580078e-01 -8.824254572391510010e-02
-2.182989567518234253e-02 -1.594845950603485107e-01 2.161125987768173218e-01
2.791047394275665283e-01 -1.198762133717536926e-01 4.162096418440341949e-03
-5.425623059272766113e-01 -7.639362812042236328e-01 -3.406400084495544434e-01
2.172949910163879395e-01 5.896875262260437012e-01 4.358140528202056885e-01
-4.304816722869873047e-01 5.351058244705200195e-01 -4.885412752628326416e-01
-1.960033327341079712e-01 6.896104812622070312e-01 -2.209236919879913330e-01
4.564907550811767578e-01 -1.491628587245941162e-02 1.552502661943435669e-01
5.479747653007507324e-01 -4.262527450919151306e-02 2.600376904010772705e-01
-1.983482092618942261e-01 -7.639362812042236328e-01 -3.363578319549560547e-01
4.803826808929443359e-01 5.414150953292846680e-01 1.756002306938171387e-01
1.871910132467746735e-02 -1.677814871072769165e-01 -2.176215201616287231e-01
3.054639697074890137e-01 1.036859974265098572e-01 5.077286958694458008e-01
-5.095217227935791016e-01 6.802891492843627930e-01 -2.808849811553955078e-01
-1.889617741107940674e-01 -1.868425458669662476e-01 -3.964730799198150635e-01
-2.309693098068237305e-01 1.511659175157546997e-01 2.396026626229286194e-02
-2.758013606071472168e-01 3.974614739418029785e-01 -4.887485504150390625e-01
-2.941893339157104492e-01 -1.803506910800933838e-01 -3.412462025880813599e-02
-4.230966866016387939e-01 -3.940527439117431641e-01 -1.454038918018341064e-01
1.986079812049865723e-01 -6.527803540229797363e-01 -7.311401516199111938e-02
3.261366188526153564e-01 -7.023080587387084961e-01 5.142540931701660156e-01
5.346446633338928223e-01 3.848212063312530518e-01 2.218178808689117432e-01
2.409219741821289062e-02 -5.227804780006408691e-01 2.583046853542327881e-01
2.097846567630767822e-01 -7.639362812042236328e-01 3.609140217304229736e-01
3.385548293590545654e-01 7.325072288513183594e-01 5.376622080802917480e-02
3.482925891876220703e-01 2.458879202604293823e-01 5.079813599586486816e-01
3.232982754707336426e-01 6.626788973808288574e-01 3.372063860297203064e-02
4.645981788635253906e-01 6.548734903335571289e-01 1.726375371217727661e-01
4.529990851879119873e-01 3.065321445465087891e-01 1.522757411003112793e-01
3.099918663501739502e-01 -2.138984948396682739e-01 3.046938776969909668e-02
3.918880820274353027e-01 -7.639362812042236328e-01 2.443370372056961060e-01
4.105148613452911377e-01 -7.639362812042236328e-01 3.721933364868164062e-01
4.640178680419921875e-01 -3.175193965435028076e-01 1.616612076759338379e-01
2.278094589710235596e-01 6.288872957229614258e-01 -4.997606575489044189e-02
4.458410739898681641e-01 7.420061230659484863e-01 3.653116524219512939e-01
-4.500707387924194336e-01 4.019015431404113770e-01 -4.550339579582214355e-01
-5.240973234176635742e-01 -6.174324154853820801e-01 -3.809017241001129150e-01
3.742422461509704590e-01 3.262741565704345703e-01 8.519514650106430054e-02
-2.449695169925689697e-01 6.494336724281311035e-01 -3.978194296360015869e-02
1.458343267440795898e-01 6.548734903335571289e-01 1.591978818178176880e-01
1.435871422290802002e-01 -5.790625810623168945e-01 3.680927455425262451e-01
-5.483193788677453995e-03 4.851656258106231689e-01 -2.514170408248901367e-01
4.248673915863037109e-01 -3.360070288181304932e-01 4.532931149005889893e-01
3.559391200542449951e-01 -1.737473160028457642e-01 6.960523873567581177e-02
-1.161717325448989868e-01 5.852553248405456543e-01 1.367339938879013062e-01
-1.855401843786239624e-01 -4.190019518136978149e-02 -3.915997445583343506e-01
4.787128567695617676e-01 -8.625310659408569336e-02 1.741781085729598999e-01
2.748467400670051575e-02 7.420061230659484863e-01 -1.973386704921722412e-01
2.785076797008514404e-01 5.304979681968688965e-01 2.459551906213164330e-04
4.369727671146392822e-01 -7.688894867897033691e-01 1.576346457004547119e-01
-2.414660155773162842e-01 -7.639362812042236328e-01 -2.003309726715087891e-01
-4.597561955451965332e-01 5.218191146850585938e-01 -4.561817348003387451e-01
5.399166941642761230e-01 -4.309728145599365234e-01 3.159931302070617676e-01
-5.567944049835205078e-01 3.406651914119720459e-01 -2.935568392276763916e-01
-1.135357096791267395e-01 -5.265297293663024902e-01 -3.459248840808868408e-01
1.532099675387144089e-03 -5.340164303779602051e-01 -2.434142380952835083e-01
3.846432268619537354e-01 -7.639362812042236328e-01 4.499188661575317383e-01
4.379522427916526794e-02 -7.012628912925720215e-01 2.806481719017028809e-01
-7.022092491388320923e-02 4.397374391555786133e-01 -3.070408999919891357e-01
-1.446616649627685547e-01 -4.669167995452880859e-01 1.055814102292060852e-01
5.357410907745361328e-01 6.802891492843627930e-01 2.310089319944381714e-01
1.541173905134201050e-01 6.779116988182067871e-01 3.809718191623687744e-01
-4.385427236557006836e-01 4.645491838455200195e-01 -1.548811197280883789e-01
1.361685842275619507e-01 -2.113157659769058228e-01 3.612771928310394287e-01
-1.355969607830047607e-01 3.509131968021392822e-01 -3.610758185386657715e-01
3.295567259192466736e-02 3.476712107658386230e-01 -2.102118432521820068e-01
-2.545814588665962219e-02 2.983902096748352051e-01 2.127788364887237549e-01
-1.564087569713592529e-01 4.203882217407226562e-01 9.612687677145004272e-02
3.411256968975067139e-01 -1.236076951026916504e-01 5.067773461341857910e-01
3.557135909795761108e-02 4.287216365337371826e-01 -2.119034230709075928e-01
9.665396064519882202e-02 -7.639362812042236328e-01 1.383367478847503662e-01
-3.507127612829208374e-02 3.809140622615814209e-01 2.039460539817810059e-01
-4.649137556552886963e-01 -2.219792604446411133e-01 -4.373151063919067383e-01
-5.066311359405517578e-01 -3.809466958045959473e-01 -3.663231730461120605e-01
-4.346296191215515137e-01 -5.738517642021179199e-01 -1.506828516721725464e-01
4.152806103229522705e-01 7.420061230659484863e-01 4.620972573757171631e-01
3.334821462631225586e-01 -7.639362812042236328e-01 7.603164762258529663e-02
7.066673040390014648e-02 7.807496935129165649e-02 -1.733747124671936035e-01
4.076597690582275391e-01 -4.104955494403839111e-01 1.136582270264625549e-01
-4.986786246299743652e-01 -3.012887835502624512e-01 -3.704030215740203857e-01
-3.014934360980987549e-01 6.749224066734313965e-01 -5.240569710731506348e-01
1.067716926336288452e-01 6.041871309280395508e-01 3.365818858146667480e-01
3.918584585189819336e-01 5.555801391601562500e-01 4.912592768669128418e-01
-1.655997931957244873e-01 -2.196689248085021973e-01 8.402024209499359131e-02
2.902902960777282715e-01 3.770789504051208496e-01 1.368867326527833939e-02
-9.341858327388763428e-02 -5.498355031013488770e-01 1.537215709686279297e-01
4.796247482299804688e-01 8.220171183347702026e-02 1.749547868967056274e-01
-2.614305727183818817e-02 5.804925560951232910e-01 2.170866727828979492e-01
-3.036014437675476074e-01 3.933164477348327637e-01 -3.622711822390556335e-02
2.890527248382568359e-01 6.494336724281311035e-01 4.744473695755004883e-01
1.474676430225372314e-01 -6.872242689132690430e-01 3.729443550109863281e-01
-2.696509957313537598e-01 1.204038504511117935e-02 -4.640838503837585449e-01
-3.738926649093627930e-01 -8.748782426118850708e-02 -5.077543258666992188e-01
2.624206431210041046e-02 7.420061230659484863e-01 1.901491433382034302e-01
-8.137588948011398315e-02 -7.639362812042236328e-01 -1.411740332841873169e-01
-2.916717529296875000e-01 4.539902806282043457e-01 -5.057489275932312012e-01
-1.443463377654552460e-02 -7.639362812042236328e-01 -1.385291218757629395e-01
-3.352356553077697754e-01 -4.062716066837310791e-01 -5.226279497146606445e-01
-3.307768106460571289e-01 2.220966368913650513e-01 -5.181770324707031250e-01
-2.955788969993591309e-01 6.548734903335571289e-01 -1.364112347364425659e-01
5.373990535736083984e-01 -3.585558235645294189e-01 3.171409070491790771e-01
-3.409843444824218750e-01 9.809519350528717041e-02 -7.711915671825408936e-02
-5.471267104148864746e-01 2.442871481180191040e-01 -3.307729661464691162e-01
-4.662332534790039062e-01 -3.151754736900329590e-01 -1.861837357282638550e-01
5.186183452606201172e-01 6.729525327682495117e-01 3.481533527374267578e-01
2.856528460979461670e-01 -6.822383999824523926e-01 4.986195862293243408e-01
4.971206188201904297e-01 4.080094993114471436e-01 1.898560523986816406e-01
5.238015651702880859e-01 -5.718829035758972168e-01 3.472809195518493652e-01
-3.152745366096496582e-01 -2.731965780258178711e-01 -5.239259451627731323e-02
5.128730461001396179e-02 6.321516633033752441e-02 2.832901179790496826e-01
5.195538997650146484e-01 -5.661430358886718750e-01 2.089634835720062256e-01
-2.521975934505462646e-01 1.514175683259963989e-01 -4.554099440574645996e-01
1.294714659452438354e-01 1.785169690847396851e-01 3.551248610019683838e-01
2.509069442749023438e-01 -5.567497014999389648e-01 4.666962325572967529e-01
1.415077298879623413e-01 -3.459382355213165283e-01 3.661831021308898926e-01
9.927418828010559082e-02 -9.879803657531738281e-02 3.273800313472747803e-01
-1.245159953832626343e-01 2.429064810276031494e-01 -3.457985520362854004e-01
-8.927782066166400909e-03 7.850299030542373657e-02 2.279663085937500000e-01
-2.930938899517059326e-01 -7.639362812042236328e-01 -3.851197361946105957e-01
-1.488175094127655029e-01 -6.042009592056274414e-01 -3.813330233097076416e-01
-5.532227754592895508e-01 -2.636689841747283936e-01 -2.976959049701690674e-01
1.172121465206146240e-01 -6.736703962087631226e-02 -1.337298154830932617e-01
4.262905418872833252e-01 -3.304754495620727539e-01 1.295266449451446533e-01
-2.572002112865447998e-01 -4.649429917335510254e-01 -4.713138937950134277e-01
-2.178346067667007446e-01 6.548734903335571289e-01 -1.306072324514389038e-01
2.654509544372558594e-01 7.298030853271484375e-01 1.628070026636123657e-01
-4.964304864406585693e-01 -1.824606806039810181e-01 -2.169040441513061523e-01
3.558354973793029785e-01 7.420061230659484863e-01 2.687796950340270996e-01
1.408948749303817749e-01 1.076066587120294571e-02 -1.135584935545921326e-01
-8.186381310224533081e-02 7.400658726692199707e-01 -2.084897160530090332e-01
1.555523574352264404e-01 -9.590305387973785400e-02 3.790868520736694336e-01
8.822432905435562134e-02 -6.180679798126220703e-01 -1.700823903083801270e-01
3.006656169891357422e-01 6.494336724281311035e-01 7.438816130161285400e-02
-2.678883969783782959e-01 -6.197910904884338379e-01 -4.885699152946472168e-01
-4.963209629058837891e-01 -5.245835781097412109e-01 -2.072402834892272949e-01
-3.514583706855773926e-01 -5.898523926734924316e-01 -5.294237732887268066e-01
4.738928079605102539e-01 4.506042301654815674e-01 1.700725704431533813e-01
4.280748367309570312e-01 -7.012698650360107422e-01 4.191423058509826660e-01
-1.324349194765090942e-01 5.052825808525085449e-01 -3.659254610538482666e-01
-3.954752385616302490e-01 2.744584716856479645e-02 -4.967523217201232910e-01
1.826655417680740356e-01 3.860805034637451172e-01 -7.826515287160873413e-02
-1.885107457637786865e-01 2.633482217788696289e-01 6.301350891590118408e-02
-5.515568852424621582e-01 3.852208852767944336e-01 -3.288267850875854492e-01
-6.392654776573181152e-02 1.547582447528839111e-01 -2.880143821239471436e-01
3.275686204433441162e-01 -5.539183020591735840e-01 4.544080421328544617e-02
-2.037297934293746948e-01 -9.172815829515457153e-02 -4.070921540260314941e-01
4.270583391189575195e-01 -1.264746487140655518e-01 1.301809698343276978e-01
4.019712507724761963e-01 -5.940194055438041687e-02 1.088125333189964294e-01
4.352170825004577637e-01 3.067637421190738678e-02 1.371307373046875000e-01
4.025920033454895020e-01 -7.251055240631103516e-01 4.854740500450134277e-01
-5.145303010940551758e-01 6.318901479244232178e-02 -2.340919524431228638e-01
-1.364131271839141846e-01 2.957686409354209900e-02 -3.497550785541534424e-01
-1.468042284250259399e-01 -3.777550160884857178e-01 -3.682723045349121094e-01
2.144122421741485596e-01 2.142665386199951172e-01 4.331651926040649414e-01
4.874593019485473633e-02 -4.964847490191459656e-02 -1.920459270477294922e-01
1.147330477833747864e-01 5.290926694869995117e-01 -1.461154520511627197e-01
1.504599303007125854e-01 5.081130266189575195e-01 3.744079470634460449e-01
2.051629871129989624e-01 7.312084436416625977e-01 1.146095991134643555e-01
3.542248606681823730e-01 5.638207793235778809e-01 6.628854572772979736e-02
-7.602045685052871704e-02 -2.925905864685773849e-03 -2.983156740665435791e-01
-1.281468272209167480e-01 -1.229375898838043213e-01 1.184308901429176331e-01
4.354637861251831055e-01 4.302019774913787842e-01 1.373399645090103149e-01
-4.737337231636047363e-01 2.789787948131561279e-01 -1.915583908557891846e-01
3.346219956874847412e-01 -5.168185830116271973e-01 5.128774046897888184e-01
-1.124323606491088867e-01 3.021502792835235596e-01 1.328692883253097534e-01
-4.699302017688751221e-01 6.802891492843627930e-01 -3.544902205467224121e-01
-3.698700368404388428e-01 6.802891492843627930e-01 -3.859408497810363770e-01
2.232539206743240356e-01 7.420061230659484863e-01 4.815459251403808594e-02
-4.981255158782005310e-02 -7.639362812042236328e-01 8.192010968923568726e-02
4.315319657325744629e-01 3.558427691459655762e-01 4.468012750148773193e-01
3.228561282157897949e-01 7.420061230659484863e-01 3.705610036849975586e-01
-1.454186141490936279e-01 6.548734903335571289e-01 6.592585891485214233e-02
1.530880630016326904e-01 3.690574169158935547e-01 3.768219053745269775e-01
-1.426562666893005371e-01 1.713263690471649170e-01 1.051007881760597229e-01
1.344908475875854492e-01 -1.931804418563842773e-01 -1.190131008625030518e-01
-3.621830642223358154e-01 -6.650317311286926270e-01 -5.303603410720825195e-01
1.231700852513313293e-01 7.420061230659484863e-01 -9.670662134885787964e-02
4.189469814300537109e-01 6.763139367103576660e-01 1.256589591503143311e-01
-4.926161170005798340e-01 4.248154461383819580e-01 -4.164677560329437256e-01
1.968424022197723389e-01 1.144008114933967590e-01 4.170234203338623047e-01
-1.244686245918273926e-01 2.245451360940933228e-01 1.218100562691688538e-01
-6.618566811084747314e-02 3.351355493068695068e-01 -2.982308268547058105e-01
3.529438674449920654e-01 6.548734903335571289e-01 1.410556435585021973e-01
9.630953520536422729e-02 -6.268168687820434570e-01 3.255108296871185303e-01
2.614746987819671631e-01 3.453806340694427490e-01 -1.085495017468929291e-02
4.599014818668365479e-01 3.589462861418724060e-02 4.093255698680877686e-01
-4.055436253547668457e-01 -6.296722590923309326e-02 -1.364339292049407959e-01
1.426663547754287720e-01 -3.304744660854339600e-01 -1.120495200157165527e-01
2.912732660770416260e-01 -4.226749241352081299e-01 5.022711157798767090e-01
-5.145618915557861328e-01 -6.448110938072204590e-01 -2.201726585626602173e-01
2.264100313186645508e-01 7.420061230659484863e-01 4.332757294178009033e-01
-6.377870589494705200e-02 -6.219435334205627441e-01 -3.061812818050384521e-01
3.347167670726776123e-01 -5.834533572196960449e-01 5.135899186134338379e-01
-3.848295211791992188e-01 1.833369880914688110e-01 -5.086968541145324707e-01
-6.640506535768508911e-02 7.420061230659484863e-01 1.104387175291776657e-02
9.867218136787414551e-02 -2.704125344753265381e-01 -1.495212465524673462e-01
6.920374929904937744e-03 6.494336724281311035e-01 -1.461753901094198227e-02
-4.921572208404541016e-01 -7.082830369472503662e-02 -2.160118967294692993e-01
4.379487931728363037e-01 6.548734903335571289e-01 3.733252882957458496e-01
-2.073734402656555176e-01 4.174087643623352051e-01 -4.285592734813690186e-01
-5.349581837654113770e-01 4.983002841472625732e-01 -3.623854517936706543e-01
-7.601188123226165771e-02 -5.764552354812622070e-01 -3.148571550846099854e-01
5.470391511917114258e-01 -3.188684880733489990e-01 2.433688789606094360e-01
-2.566924318671226501e-02 1.072960942983627319e-01 -2.554288208484649658e-01
-1.640316098928451538e-01 -6.661676764488220215e-01 -3.980175852775573730e-01
-5.542945861816406250e-01 4.707114100456237793e-01 -2.683533132076263428e-01
-3.086376190185546875e-01 -7.588319778442382812e-01 -3.285052627325057983e-02
5.417651534080505371e-01 -1.435056328773498535e-01 2.327330261468887329e-01
3.213471770286560059e-01 4.992496371269226074e-01 5.128753781318664551e-01
-5.593258738517761230e-01 -5.314573049545288086e-01 -2.971116602420806885e-01
-5.421842932701110840e-01 -1.297827512025833130e-01 -3.308134078979492188e-01
7.751692086458206177e-02 4.905521273612976074e-01 -1.774743050336837769e-01
2.716062664985656738e-01 7.420061230659484863e-01 1.935744658112525940e-02
-4.738176167011260986e-01 -7.639362812042236328e-01 -4.019109010696411133e-01
3.499121069908142090e-01 1.014802753925323486e-01 6.447214633226394653e-02
5.510618090629577637e-01 3.782227635383605957e-01 2.890506684780120850e-01
1.506119221448898315e-01 2.014387696981430054e-01 -1.052816286683082581e-01
2.747979164123535156e-01 -1.360160261392593384e-01 4.886468946933746338e-01
-3.325946927070617676e-01 -6.005218625068664551e-01 -5.869742855429649353e-02
4.967593848705291748e-01 1.840169578790664673e-01 1.895491182804107666e-01
-1.762198656797409058e-01 -5.512072443962097168e-01 7.972948253154754639e-02
2.389131188392639160e-01 5.887338891625404358e-02 -3.007160685956478119e-02
1.943712085485458374e-01 4.861268401145935059e-01 4.147525429725646973e-01
-3.631181269884109497e-02 -4.584106802940368652e-01 -2.734911143779754639e-01
5.688136443495750427e-03 1.767148673534393311e-01 -2.287202328443527222e-01
1.735258251428604126e-01 -7.483490705490112305e-01 -1.002918481826782227e-01
1.243444979190826416e-01 3.710822435095906258e-03 3.504133820533752441e-01
-8.019782602787017822e-02 6.548734903335571289e-01 -2.234797775745391846e-01
-1.327142119407653809e-01 4.070492088794708252e-01 -3.612899780273437500e-01
3.226178139448165894e-02 -1.357732564210891724e-01 2.658101022243499756e-01
2.720049917697906494e-01 -2.903055250644683838e-01 4.860799908638000488e-01
4.063116610050201416e-01 -5.771381258964538574e-01 1.125094667077064514e-01
2.368672639131546021e-01 4.120281338691711426e-01 4.537964165210723877e-01
-3.042626678943634033e-01 -6.879910230636596680e-01 -3.095004893839359283e-02
4.012961983680725098e-01 6.414444185793399811e-03 1.082381531596183777e-01
-2.223941087722778320e-01 6.802891492843627930e-01 -4.425624608993530273e-01
3.737112581729888916e-01 -7.639362812042236328e-01 2.854879498481750488e-01
4.568697214126586914e-01 9.048616886138916016e-02 4.147565066814422607e-01
-8.581034094095230103e-02 4.064748585224151611e-01 1.588524729013442993e-01
-3.621721863746643066e-01 4.657749235630035400e-01 -8.655434846878051758e-02
5.518394112586975098e-01 -4.080164432525634766e-01 2.656452655792236328e-01
-2.775748372077941895e-01 -1.907635033130645752e-01 -4.758960902690887451e-01
-3.039813935756683350e-01 6.557064056396484375e-01 -2.380296885967254639e-01
2.852176129817962646e-01 -7.639362812042236328e-01 2.305894792079925537e-01
1.126121878623962402e-01 3.015088140964508057e-01 3.396343886852264404e-01
2.251339703798294067e-01 -4.932141676545143127e-02 -4.180815443396568298e-02
-4.364445507526397705e-01 -3.701943457126617432e-01 -4.415124058723449707e-01
4.655840694904327393e-01 5.846503376960754395e-01 4.244320988655090332e-01
-8.875426836311817169e-03 7.395497560501098633e-01 4.881710186600685120e-02
-4.497884511947631836e-01 1.445901840925216675e-01 -4.547339379787445068e-01
3.090967237949371338e-01 -2.562635950744152069e-02 2.970710024237632751e-02
9.083005040884017944e-02 -2.940379977226257324e-01 3.196219801902770996e-01
-5.456749796867370605e-01 5.489945411682128906e-01 -3.477111756801605225e-01
5.873052775859832764e-02 1.580574661493301392e-01 2.901293635368347168e-01
3.102109432220458984e-01 -7.639362812042236328e-01 3.738552629947662354e-01
-3.196465373039245605e-01 3.362705111503601074e-01 -5.191007256507873535e-01
-4.383384287357330322e-01 -7.639362812042236328e-01 -2.494738250970840454e-01
-4.186280071735382080e-01 -4.073088467121124268e-01 -4.745795726776123047e-01
3.778158128261566162e-01 1.183984614908695221e-02 4.869070053100585938e-01
-5.606472492218017578e-01 -6.272462010383605957e-01 -2.868646383285522461e-01
5.033464357256889343e-02 -7.639362812042236328e-01 -3.666105866432189941e-02
-2.057460397481918335e-01 2.687189579010009766e-01 -4.197097122669219971e-01
-4.603296692948788404e-04 -7.059230804443359375e-01 -2.537441551685333252e-01
-1.886203140020370483e-01 -3.219268918037414551e-01 -4.028840065002441406e-01
2.206366509199142456e-01 4.208866059780120850e-01 -4.604621604084968567e-02
-4.065596312284469604e-02 1.756460517644882202e-01 1.988151669502258301e-01
4.875949919223785400e-01 -7.169665098190307617e-01 4.013790190219879150e-01
-2.472532093524932861e-01 -7.481418251991271973e-01 -4.765020608901977539e-01
3.629707992076873779e-01 -4.642482101917266846e-01 5.049732923507690430e-01
1.608130335807800293e-02 6.600813269615173340e-01 2.570523321628570557e-01
-2.970237433910369873e-01 -2.437098920345306396e-01 -4.959183633327484131e-01
4.487637802958488464e-02 -1.126272156834602356e-01 -1.953421831130981445e-01
-4.810377955436706543e-01 -1.789394170045852661e-01 -4.177694618701934814e-01
2.519264221191406250e-01 -3.041942119598388672e-01 -1.898778416216373444e-02
-8.551565557718276978e-02 -9.444203972816467285e-02 -3.064033389091491699e-01
1.614658832550048828e-01 7.420061230659484863e-01 -6.741557270288467407e-03
2.489439845085144043e-01 5.920916199684143066e-01 -2.925020642578601837e-02
3.709420263767242432e-01 2.154863625764846802e-01 8.238404989242553711e-02
8.362329006195068359e-02 3.333867788314819336e-01 3.129998445510864258e-01
-5.090766549110412598e-01 -7.269411683082580566e-01 -2.129692435264587402e-01
-4.591433405876159668e-01 6.345570683479309082e-01 -1.685615777969360352e-01
-2.646552622318267822e-01 3.049067258834838867e-01 -3.893610555678606033e-03
4.219688773155212402e-01 2.310024499893188477e-01 4.551672041416168213e-01
-2.871842980384826660e-01 2.786234915256500244e-01 -4.930168986320495605e-01
-2.389262244105339050e-02 -1.475820504128932953e-02 2.142167538404464722e-01
4.918979108333587646e-01 -2.761444449424743652e-01 3.779627680778503418e-01
-2.059735171496868134e-02 -7.639362812042236328e-01 -2.111217975616455078e-01
-4.980569183826446533e-01 -2.923760414123535156e-01 -2.152983546257019043e-01
-7.295928895473480225e-02 -7.123014926910400391e-01 -3.188827633857727051e-01
1.270199865102767944e-01 3.542252182960510254e-01 -1.264346092939376831e-01
3.139276206493377686e-01 -8.815319836139678955e-02 3.382209315896034241e-02
1.106462776660919189e-01 6.494336724281311035e-01 -9.924464672803878784e-02
-5.068004131317138672e-02 -5.837829113006591797e-01 1.928848475217819214e-01
7.760702073574066162e-02 7.379124760627746582e-01 -1.946460641920566559e-02
2.798962593078613281e-01 -6.252408027648925781e-01 9.355142246931791306e-04
-2.002164274454116821e-01 6.802891492843627930e-01 -3.458222448825836182e-01
1.759881675243377686e-01 5.802606344223022461e-01 3.978626728057861328e-01
-6.899292021989822388e-02 -4.781931638717651367e-01 1.735504269599914551e-01
-4.300691485404968262e-01 -5.067107081413269043e-01 -1.484948545694351196e-01
-4.628570377826690674e-01 3.325597345829010010e-01 -1.803195327520370483e-01
-3.875237703323364258e-01 -7.639362812042236328e-01 -3.712419271469116211e-01
2.634376585483551025e-01 -1.846713572740554810e-02 -9.183128364384174347e-03
3.874706923961639404e-01 1.148735359311103821e-01 4.817800521850585938e-01
-2.149647027254104614e-01 -7.256661057472229004e-01 4.995964094996452332e-02
2.334071844816207886e-01 -2.577248811721801758e-01 4.506175816059112549e-01
-3.582235872745513916e-01 1.897755563259124756e-01 -9.078145772218704224e-02
-1.337623000144958496e-01 5.056812763214111328e-01 1.187703832983970642e-01
-2.991189360618591309e-01 5.858119726181030273e-01 -2.683673426508903503e-02
-1.780939847230911255e-01 -4.273627102375030518e-01 7.458110153675079346e-02
-8.926322311162948608e-02 -2.129944860935211182e-01 1.541567891836166382e-01
3.631691932678222656e-01 -3.296434879302978516e-01 7.576370984315872192e-02
-2.377483546733856201e-01 2.050607055425643921e-01 1.773181930184364319e-02
1.717385500669479370e-01 -4.868127703666687012e-01 -8.888462185859680176e-02
-1.899388134479522705e-01 6.494336724281311035e-01 -1.590959168970584869e-02
2.002709209918975830e-01 4.382334053516387939e-01 4.201726317405700684e-01
1.123990193009376526e-01 -7.639362812042236328e-01 3.247962892055511475e-01
-3.517830669879913330e-01 6.018836498260498047e-01 -5.326351523399353027e-01
-2.156950086355209351e-01 -3.758197128772735596e-01 3.951721638441085815e-02
5.211063027381896973e-01 8.672507852315902710e-02 2.102859318256378174e-01
-2.403754889965057373e-01 -3.808637559413909912e-01 -4.520890414714813232e-01
-2.770295552909374237e-02 7.420061230659484863e-01 1.005748510360717773e-01
-5.341687202453613281e-01 -5.029526352882385254e-01 -2.416684031486511230e-01
4.797481298446655273e-01 6.494336724281311035e-01 2.922827899456024170e-01
-5.399273037910461426e-01 3.468491435050964355e-01 -2.491965293884277344e-01
1.496625095605850220e-01 -4.702604413032531738e-01 3.736746907234191895e-01
2.770312428474426270e-01 6.548734903335571289e-01 3.815797865390777588e-01
4.312635362148284912e-01 -4.402240216732025146e-01 4.507133364677429199e-01
-3.649434149265289307e-01 -7.137926816940307617e-01 -5.313373804092407227e-01
-4.584534764289855957e-01 -6.144874691963195801e-01 -4.588315784931182861e-01
4.288564622402191162e-01 -5.949665307998657227e-01 4.021152555942535400e-01
-3.943531215190887451e-01 -5.602325201034545898e-01 -5.129246711730957031e-01
3.938727378845214844e-01 6.073037385940551758e-01 4.912178218364715576e-01
-4.045789316296577454e-02 6.548734903335571289e-01 -1.917498707771301270e-01
-3.476893603801727295e-01 -5.088704079389572144e-02 -5.111453533172607422e-01
2.943948507308959961e-01 6.255535483360290527e-01 5.043624043464660645e-01
2.895826995372772217e-01 -5.794356465339660645e-01 1.187415234744548798e-02
-5.432388558983802795e-02 2.393595427274703979e-01 1.862577944993972778e-01
5.869923904538154602e-02 2.780195176601409912e-01 -1.837312728166580200e-01
2.222906947135925293e-01 6.371309161186218262e-01 4.407840967178344727e-01
2.404161691665649414e-01 2.713658213615417480e-01 4.570571482181549072e-01
4.401318430900573730e-01 6.330678462982177734e-01 1.396542489528656006e-01
-1.304413676261901855e-01 -3.722040215507149696e-03 1.163228601217269897e-01
-2.737170159816741943e-01 6.139307618141174316e-01 -4.976494014263153076e-01
-4.403028637170791626e-02 6.282221078872680664e-01 -2.929962575435638428e-01
-7.364636659622192383e-02 7.420061230659484863e-01 1.140332520008087158e-01
8.004526793956756592e-02 6.467275619506835938e-01 3.138732612133026123e-01
4.170708656311035156e-01 7.420061230659484863e-01 2.712992429733276367e-01
2.178328633308410645e-01 5.671456456184387207e-01 -5.582553893327713013e-02
-3.680896759033203125e-01 -7.294706106185913086e-01 -8.683966845273971558e-02
-3.080296814441680908e-01 -4.643202722072601318e-01 -5.153633356094360352e-01
5.773435160517692566e-02 -1.872787624597549438e-01 2.892144918441772461e-01
-3.149172663688659668e-01 6.802891492843627930e-01 -2.048174440860748291e-01
-1.237274631857872009e-01 -6.223790347576141357e-02 -3.389504551887512207e-01
-1.740003228187561035e-01 -3.140346109867095947e-01 7.630215585231781006e-02
3.601818382740020752e-01 6.548734903335571289e-01 3.777249157428741455e-01
-4.685697704553604126e-02 8.138326555490493774e-02 1.931177675724029541e-01
-5.581178665161132812e-01 4.480589926242828369e-01 -3.116773664951324463e-01
-5.127153992652893066e-01 4.317642450332641602e-01 -2.221297025680541992e-01
-3.554661870002746582e-01 -7.639362812042236328e-01 -4.228905141353607178e-01
-4.869591891765594482e-01 7.050602231174707413e-03 -4.074208140373229980e-01
5.201736688613891602e-01 -1.003412604331970215e-01 2.094914913177490234e-01
5.454512238502502441e-01 1.763250529766082764e-01 2.956846356391906738e-01
3.452844917774200439e-01 -2.323397696018218994e-01 5.071444511413574219e-01
2.814368009567260742e-01 5.604515075683593750e-01 4.947460293769836426e-01
3.898431956768035889e-01 -6.645323634147644043e-01 4.151650965213775635e-01
-2.307107299566268921e-01 -2.766441367566585541e-02 2.419781312346458435e-02
-3.231105506420135498e-01 -6.432093381881713867e-01 -4.902103915810585022e-02
1.638724282383918762e-02 1.945518516004085541e-02 -2.196071892976760864e-01
3.164555877447128296e-02 -7.639362812042236328e-01 1.796879768371582031e-01
-8.170818537473678589e-02 7.420061230659484863e-01 -1.403400897979736328e-01
-2.395464926958084106e-01 6.747615337371826172e-01 -2.192232757806777954e-01
-2.305261939764022827e-01 -4.787319898605346680e-01 2.914308570325374603e-02
-5.605978965759277344e-01 6.314107775688171387e-01 -3.203186690807342529e-01
-1.891946792602539062e-01 -6.008109450340270996e-01 6.952095031738281250e-02
-5.353795886039733887e-01 6.462123990058898926e-01 -2.363875061273574829e-01
-5.504881143569946289e-01 -2.157568335533142090e-01 -2.814050912857055664e-01
2.717572748661041260e-01 6.662642955780029297e-01 -1.254045311361551285e-02
-4.802897274494171143e-01 5.598721504211425781e-01 -1.895401775836944580e-01
-1.265470385551452637e-01 -6.507561802864074707e-01 1.269330531358718872e-01
-4.319432973861694336e-01 -1.025729402899742126e-01 -1.606900542974472046e-01
-4.638251960277557373e-01 1.783452332019805908e-01 -1.855126321315765381e-01
-6.103443354368209839e-02 -3.502984046936035156e-01 1.800926178693771362e-01
2.909051775932312012e-01 7.420061230659484863e-01 6.554462015628814697e-02
-4.173144400119781494e-01 5.946071743965148926e-01 -1.275902837514877319e-01
2.803882211446762085e-02 6.494336724281311035e-01 1.333775520324707031e-01
-5.519871711730957031e-01 -3.121979832649230957e-01 -2.781157493591308594e-01
-3.000890612602233887e-01 6.494336724281311035e-01 -8.759405463933944702e-02
-4.276640713214874268e-01 -7.484576702117919922e-01 -1.395663470029830933e-01
-4.639495611190795898e-01 1.890452355146408081e-01 -4.400863349437713623e-01
-4.009160399436950684e-01 -1.508847177028656006e-01 -1.321823447942733765e-01
5.292818546295166016e-01 -2.006641179323196411e-01 2.172495275735855103e-01
4.661041796207427979e-01 -4.847629666328430176e-01 1.634386330842971802e-01
-5.463184714317321777e-01 -1.918175071477890015e-01 -3.248722851276397705e-01
-8.844734728336334229e-02 6.494336724281311035e-01 -2.805099487304687500e-01
-4.999784231185913086e-01 1.513909250497817993e-01 -2.186025083065032959e-01
5.311174392700195312e-01 -5.067571401596069336e-01 2.188127636909484863e-01
6.879496574401855469e-02 7.420061230659484863e-01 2.450505793094635010e-01
-8.993767201900482178e-02 5.537155643105506897e-02 -3.101693987846374512e-01
4.752340316772460938e-01 2.651503086090087891e-01 1.712154000997543335e-01
-3.607757091522216797e-01 -2.072704583406448364e-01 -5.153613686561584473e-01
2.121334969997406006e-01 -6.431264281272888184e-01 4.310719966888427734e-01
-4.926249980926513672e-01 -3.460566699504852295e-01 -2.089397460222244263e-01
5.357178673148155212e-02 -4.356655180454254150e-01 -1.919946074485778809e-01
8.341149985790252686e-02 2.772912085056304932e-01 3.128054440021514893e-01
-3.298821672797203064e-02 -2.721168994903564453e-01 -2.616630792617797852e-01
7.835924625396728516e-03 -7.124583721160888672e-01 2.488116621971130371e-01
2.394647896289825439e-01 6.494336724281311035e-01 1.764746159315109253e-01
-3.555875718593597412e-01 6.458952091634273529e-03 -5.121134519577026367e-01
2.729602754116058350e-01 -6.159562990069389343e-02 4.869583547115325928e-01
-4.689442813396453857e-01 -5.800712108612060547e-01 -1.812205761671066284e-01
2.044415771961212158e-01 1.501355916261672974e-01 -5.943237617611885071e-02
1.757355183362960815e-01 4.036957323551177979e-01 3.976307511329650879e-01
-6.188819929957389832e-02 6.548734903335571289e-01 1.062199398875236511e-01
-4.220436811447143555e-01 6.802891492843627930e-01 -2.480033338069915771e-01
4.687451124191284180e-01 -6.235472559928894043e-01 4.142442941665649414e-01
-4.198586642742156982e-01 -2.117564156651496887e-02 -1.495863944292068481e-01
-1.599902361631393433e-01 6.637190580368041992e-01 9.973104298114776611e-02
-5.285793915390968323e-02 5.541965365409851074e-01 1.924644261598587036e-01
6.070651113986968994e-03 1.306412965059280396e-01 -2.283945530652999878e-01
-3.210350871086120605e-01 -5.554913878440856934e-01 -5.247981548309326172e-01
-4.155883193016052246e-01 5.453193187713623047e-01 -1.320826560258865356e-01
2.938515320420265198e-02 -7.639362812042236328e-01 -1.961830258369445801e-01
-1.650283783674240112e-01 -7.639362812042236328e-01 -2.779676914215087891e-01
4.776741191744804382e-02 -7.639362812042236328e-01 -9.848897159099578857e-02
-2.424055486917495728e-01 -2.768717706203460693e-01 -4.487335681915283203e-01
3.483508229255676270e-01 -4.300865530967712402e-01 6.314160674810409546e-02
5.819700658321380615e-02 -2.402349859476089478e-01 -1.839957386255264282e-01
3.984667658805847168e-01 -7.487221360206604004e-01 1.008097305893898010e-01
-1.363953649997711182e-01 7.091462016105651855e-01 -2.382369637489318848e-01
4.252276420593261719e-01 1.962733119726181030e-01 1.286216676235198975e-01
2.090336233377456665e-01 7.269519567489624023e-01 2.443183064460754395e-01
-1.765879690647125244e-01 -1.448063850402832031e-01 -3.839739561080932617e-01
2.472929209470748901e-01 -7.239518761634826660e-01 4.633753001689910889e-01
-3.080316483974456787e-01 -4.205609560012817383e-01 -4.178367927670478821e-02
4.719644188880920410e-01 -7.639362812042236328e-01 2.914656400680541992e-01
3.513953983783721924e-01 -5.875647664070129395e-01 6.573558598756790161e-02
-3.878691792488098145e-01 2.724317014217376709e-01 -1.149618700146675110e-01
-5.066468715667724609e-01 -7.639362812042236328e-01 -3.682782649993896484e-01
2.654232978820800781e-01 1.460004746913909912e-01 -7.491287775337696075e-03
2.674721181392669678e-01 6.494336724281311035e-01 1.104182228446006775e-01
-1.840657442808151245e-01 6.342501044273376465e-01 7.737383991479873657e-02
-2.361495643854141235e-01 3.633807301521301270e-01 2.323459461331367493e-02
-1.194512099027633667e-01 4.045701324939727783e-01 1.287233084440231323e-01
-2.456366717815399170e-01 -7.451436519622802734e-01 2.308872900903224945e-02
3.996875584125518799e-01 2.680587172508239746e-01 4.322582185268402100e-01
2.386604696512222290e-01 -1.374351978302001953e-01 4.554445445537567139e-01
-3.309534788131713867e-01 -7.572884559631347656e-01 -5.345151424407958984e-01
-3.634275496006011963e-01 7.641331851482391357e-02 -5.132198333740234375e-01
3.042135536670684814e-01 -2.087656110525131226e-01 5.074493885040283203e-01
4.957931935787200928e-01 -7.639362812042236328e-01 3.399788439273834229e-01
-3.437062203884124756e-01 -7.639362812042236328e-01 -2.953816056251525879e-01
-5.538910031318664551e-01 -7.347021698951721191e-01 -2.582691311836242676e-01
3.661180138587951660e-01 4.891161620616912842e-01 4.806510508060455322e-01
-1.131491456180810928e-02 -4.896175563335418701e-01 -2.526931166648864746e-01
2.875259816646575928e-01 -4.834000766277313232e-01 1.133441645652055740e-02
5.128281712532043457e-01 5.892522931098937988e-01 3.671443462371826172e-01
-1.902753412723541260e-01 3.360553681850433350e-01 6.347893178462982178e-02
-1.986640095710754395e-01 7.420061230659484863e-01 5.039752647280693054e-02
2.137687802314758301e-01 -5.575816631317138672e-01 -5.482491850852966309e-02
2.680997848510742188e-01 -4.184647798538208008e-01 -5.211550742387771606e-03
5.502974148839712143e-03 6.494336724281311035e-01 -1.978528648614883423e-01
4.387087225914001465e-01 -3.889563679695129395e-01 4.417295455932617188e-01
-4.907646775245666504e-01 6.157239675521850586e-01 -1.973426491022109985e-01
-2.247947454452514648e-02 4.805833995342254639e-01 2.175544649362564087e-01
-1.141900271177291870e-01 1.555270552635192871e-01 -3.322207331657409668e-01
-3.276582062244415283e-01 -7.639362812042236328e-01 -7.293044775724411011e-02
-4.958758354187011719e-01 1.985925436019897461e-01 -2.136058062314987183e-01
1.410724967718124390e-01 -3.755838572978973389e-01 -1.134065166115760803e-01
1.784198880195617676e-01 -3.561704754829406738e-01 4.000970423221588135e-01
-1.546974778175354004e-01 4.642047584056854248e-01 -3.837874531745910645e-01
-3.376737609505653381e-02 3.272028267383575439e-01 -2.688516974449157715e-01
-3.597789406776428223e-01 -5.308997035026550293e-01 -5.263416767120361328e-01
1.012953668832778931e-01 3.890708088874816895e-01 -1.511674076318740845e-01
4.525293111801147461e-01 -6.970834136009216309e-01 1.517151743173599243e-01
2.061952948570251465e-01 2.979411780834197998e-01 4.256163835525512695e-01
-2.196238785982131958e-01 -7.639362812042236328e-01 -1.149648278951644897e-01
5.014758110046386719e-01 -1.978405863046646118e-01 3.623400926589965820e-01
-1.085834354162216187e-01 7.533809542655944824e-02 1.364053785800933838e-01
-2.950716316699981689e-01 1.341635435819625854e-01 -4.928846359252929688e-01
-4.758279025554656982e-01 -7.243150472640991211e-01 -1.832960247993469238e-01
7.933608442544937134e-02 4.681494235992431641e-01 3.090611398220062256e-01
5.172953382134437561e-02 6.494336724281311035e-01 2.418510466814041138e-01
-2.544132173061370850e-01 -9.897547960281372070e-02 -4.506234824657440186e-01
-7.884261012077331543e-02 3.738258033990859985e-02 1.637307554483413696e-01
-4.995648860931396484e-01 1.071154922246932983e-01 -2.194719761610031128e-01
2.074279338121414185e-01 -7.595652341842651367e-01 -7.053740322589874268e-02
3.816311955451965332e-01 -2.367689907550811768e-01 9.148843586444854736e-02
-2.240846753120422363e-01 6.251676678657531738e-01 4.133735969662666321e-02
4.532043635845184326e-01 1.577219218015670776e-01 4.213648140430450439e-01
-2.663813829421997070e-01 5.605686455965042114e-02 -4.633496105670928955e-01
3.385518491268157959e-01 -7.639362812042236328e-01 4.845710396766662598e-01
4.953777194023132324e-01 6.684877872467041016e-01 3.853822946548461914e-01
1.786824017763137817e-01 -3.355218097567558289e-02 4.003378450870513916e-01
2.586274743080139160e-01 6.494336724281311035e-01 3.398998677730560303e-01
-2.390204668045043945e-01 -1.915786862373352051e-01 1.656273379921913147e-02
-2.661820054054260254e-01 4.079354703426361084e-01 -2.362627768889069557e-03
5.516874790191650391e-01 2.899067699909210205e-01 2.736915051937103271e-01
-4.168189764022827148e-01 2.914029061794281006e-01 -4.924464523792266846e-01
5.073449611663818359e-01 -4.318402707576751709e-01 3.644352853298187256e-01
4.652070999145507812e-01 3.267073929309844971e-01 4.148403704166412354e-01
