1.802256144583225250e-02 -6.180785298347473145e-01 -3.075241148471832275e-01
3.240491151809692383e-01 2.169923186302185059e-01 2.831829786300659180e-01
-2.479759156703948975e-01 -1.223497986793518066e-01 -3.993003070354461670e-01
1.914448589086532593e-01 -8.477068692445755005e-02 -6.634414196014404297e-01
9.293209016323089600e-02 7.127061486244201660e-01 4.987844228744506836e-01
2.759073376655578613e-01 -6.842333823442459106e-02 -5.156188607215881348e-01
-2.155269235372543335e-01 -6.178865432739257812e-01 9.995402768254280090e-03
-1.971641331911087036e-01 8.943732082843780518e-02 4.310433566570281982e-01
-9.549041092395782471e-02 -1.995154917240142822e-01 -9.888564050197601318e-02
-2.611140608787536621e-01 3.809661865234375000e-01 1.988219916820526123e-01
-1.817250102758407593e-01 -9.544176608324050903e-02 -1.270264089107513428e-01
1.760883033275604248e-01 9.044437855482101440e-02 1.220442429184913635e-01
-4.059970080852508545e-01 7.249977588653564453e-01 3.800475001335144043e-01
-3.379793465137481689e-01 6.572904586791992188e-01 5.500150322914123535e-01
4.758079349994659424e-02 -2.492340058088302612e-01 -4.830057621002197266e-01
1.628297716379165649e-01 2.233788371086120605e-01 5.576500296592712402e-01
-2.594806253910064697e-01 7.802478969097137451e-02 -4.587080478668212891e-01
2.367534488439559937e-02 -1.898670643568038940e-01 2.875272333621978760e-01
-2.526305317878723145e-01 5.102127045392990112e-02 -2.319461107254028320e-01
1.448655966669321060e-03 -6.178865432739257812e-01 4.340725392103195190e-02
-7.694885879755020142e-02 6.854200959205627441e-01 1.954884529113769531e-01
2.298953980207443237e-01 -6.179532408714294434e-01 -3.921239078044891357e-01
1.859585940837860107e-01 -6.180168390274047852e-01 -1.998970210552215576e-01
2.666200101375579834e-01 6.268151402473449707e-01 5.576500296592712402e-01
9.284037351608276367e-02 -6.183491349220275879e-01 -6.818737983703613281e-01
-1.948990076780319214e-01 6.915158033370971680e-02 2.152141183614730835e-01
2.764932438731193542e-02 -6.182417273521423340e-01 -5.074178576469421387e-01
-5.861610919237136841e-02 8.943732082843780518e-02 5.207353830337524414e-01
1.005460992455482483e-01 -6.178865432739257812e-01 3.376576304435729980e-02
-3.239876776933670044e-02 7.282865047454833984e-01 5.067765116691589355e-01
6.671137362718582153e-02 -5.201188325881958008e-01 1.125023420900106430e-02
-1.166798025369644165e-01 9.213067591190338135e-02 5.437827110290527344e-01
1.965401470661163330e-01 -3.082468211650848389e-01 -4.533093273639678955e-01
-3.189112246036529541e-01 9.052551537752151489e-02 -2.857989668846130371e-01
1.136932224035263062e-01 6.637217998504638672e-01 1.928721666336059570e-01
1.876726150512695312e-01 -1.942262053489685059e-01 -4.758333265781402588e-01
6.604804843664169312e-02 -4.056942760944366455e-01 4.125134050846099854e-01
3.065238893032073975e-02 -3.091073334217071533e-01 -7.139129638671875000e-01
3.120957612991333008e-01 8.745685219764709473e-02 -1.650014370679855347e-01
-4.366414248943328857e-01 5.781491398811340332e-01 4.005112946033477783e-01
-2.094238996505737305e-01 4.454758390784263611e-02 -1.376334279775619507e-01
2.175650000572204590e-01 -7.273872196674346924e-02 -1.345124691724777222e-01
-4.508290886878967285e-01 6.638730168342590332e-01 4.789234697818756104e-01
-5.658992379903793335e-02 -3.104910850524902344e-01 4.814870655536651611e-01
-1.509432792663574219e-01 6.485453248023986816e-01 5.325425863265991211e-01
-7.973744720220565796e-02 -2.097717821598052979e-01 1.345487385988235474e-01
-1.213194876909255981e-01 -5.078674107789993286e-02 -8.449106216430664062e-01
2.298386991024017334e-01 6.471963524818420410e-01 1.896470487117767334e-01
3.842855393886566162e-01 1.460882872343063354e-01 5.108879804611206055e-01
-2.955596148967742920e-01 8.943732082843780518e-02 4.308423995971679688e-01
1.560910791158676147e-01 5.181047320365905762e-01 1.931964457035064697e-01
-1.034640371799468994e-01 5.793488025665283203e-01 1.912765055894851685e-01
2.229627221822738647e-01 -4.408093094825744629e-01 -3.829370439052581787e-01
-1.867158710956573486e-01 3.077852353453636169e-02 -6.375719308853149414e-01
-2.396982759237289429e-01 8.987124264240264893e-02 2.435665726661682129e-01
8.408076316118240356e-02 5.828832983970642090e-01 5.324072241783142090e-01
-1.733419448137283325e-01 2.511234879493713379e-01 2.042903304100036621e-01
2.340128272771835327e-01 -1.625173538923263550e-01 -3.734298348426818848e-01
-1.192572936415672302e-01 -5.615606904029846191e-01 -1.852994225919246674e-02
9.532625228166580200e-02 9.065212309360504150e-02 6.107567623257637024e-02
-3.968091309070587158e-01 3.969534635543823242e-01 3.436283171176910400e-01
4.595044255256652832e-01 6.485552191734313965e-01 4.950987100601196289e-01
-7.948974519968032837e-02 -3.044530563056468964e-02 1.218214184045791626e-01
-2.428497672080993652e-01 -6.134567856788635254e-01 -2.081308811902999878e-01
-1.208598986268043518e-01 -6.178865432739257812e-01 4.862889647483825684e-02
-1.172358840703964233e-01 -2.226244360208511353e-01 -1.759196370840072632e-01
-2.702412605285644531e-01 7.023490220308303833e-02 -3.286803066730499268e-01
2.730662226676940918e-01 -9.855446219444274902e-02 -3.088392317295074463e-01
-4.583427309989929199e-01 7.060112357139587402e-01 4.366081357002258301e-01
2.686404287815093994e-01 1.228517368435859680e-01 5.568680763244628906e-01
1.044874489307403564e-01 1.505614668130874634e-01 2.088922113180160522e-01
-3.723095357418060303e-02 4.456821382045745850e-01 5.576500296592712402e-01
8.908027410507202148e-02 -5.613089799880981445e-01 1.199412643909454346e-01
9.506481885910034180e-02 -1.126725003123283386e-01 -8.041581511497497559e-01
1.210536248981952667e-02 -4.057052135467529297e-01 2.781115770339965820e-01
-5.269473046064376831e-02 -6.181721091270446777e-01 -6.040654778480529785e-01
-2.754589021205902100e-01 -6.914456188678741455e-02 -3.940537869930267334e-01
2.067387253046035767e-01 -1.427558809518814087e-01 -1.976050138473510742e-01
-7.007458060979843140e-02 9.065212309360504150e-02 1.651444286108016968e-01
-2.271261364221572876e-01 4.274576306343078613e-01 1.965508908033370972e-01
-1.978087425231933594e-01 7.296613454818725586e-01 3.755331337451934814e-01
2.330876514315605164e-02 8.943732082843780518e-02 3.824041485786437988e-01
-4.219623506069183350e-01 4.442347288131713867e-01 5.526720881462097168e-01
2.333015389740467072e-02 -6.179482340812683105e-01 -7.597498297691345215e-01
-4.290104657411575317e-02 1.764506101608276367e-01 5.575315952301025391e-01
-2.009055316448211670e-01 4.269363582134246826e-01 5.576500296592712402e-01
1.660996377468109131e-01 -6.180954575538635254e-01 -3.004860281944274902e-01
-2.345094531774520874e-01 -5.984613299369812012e-01 -4.148826599121093750e-01
1.596971750259399414e-01 7.237532734870910645e-01 2.027106136083602905e-01
-3.488991558551788330e-01 2.532364130020141602e-01 3.093628287315368652e-01
-2.377345710992813110e-01 7.290186285972595215e-01 4.798844456672668457e-01
-5.463009327650070190e-02 8.943732082843780518e-02 2.861534357070922852e-01
3.386665284633636475e-01 -9.146162867546081543e-02 -3.027113378047943115e-01
8.151600509881973267e-02 -6.178865432739257812e-01 -5.726171657443046570e-02
-2.859390079975128174e-01 9.265974909067153931e-02 3.030986487865447998e-01
-7.177705317735671997e-02 -9.491055458784103394e-02 3.165591359138488770e-01
1.600791811943054199e-01 9.046793729066848755e-02 2.609106898307800293e-01
4.212528094649314880e-02 7.944355159997940063e-02 -7.686014175415039062e-01
8.742415159940719604e-02 -7.259348034858703613e-02 2.872487008571624756e-01
-1.003887783735990524e-02 -6.178865432739257812e-01 3.534100651741027832e-01
-5.244454741477966309e-02 7.296692728996276855e-01 3.700667917728424072e-01
6.222438067197799683e-02 -6.179830431938171387e-01 -1.812198609113693237e-01
3.805162608623504639e-01 5.221017003059387207e-01 2.841022014617919922e-01
2.171999216079711914e-01 -3.448092937469482422e-01 -3.037687838077545166e-01
-1.330719292163848877e-01 4.788264930248260498e-01 1.946010887622833252e-01
-2.113587558269500732e-01 -3.981478214263916016e-01 -4.114974141120910645e-01
-4.326990842819213867e-01 4.642538428306579590e-01 4.166736304759979248e-01
1.406708657741546631e-01 5.377305205911397934e-03 -7.484808564186096191e-01
-6.963756680488586426e-02 -7.203739136457443237e-02 -2.554648183286190033e-02
-2.496978640556335449e-01 -3.211556002497673035e-02 -5.752285718917846680e-01
-4.227900207042694092e-01 3.655430376529693604e-01 4.227806031703948975e-01
-2.425752133131027222e-01 2.700642645359039307e-01 2.037203311920166016e-01
3.229349553585052490e-01 7.130821347236633301e-01 4.684911072254180908e-01
-3.398216962814331055e-01 6.300502419471740723e-01 5.325455069541931152e-01
3.038728050887584686e-02 -7.507548481225967407e-02 3.899744749069213867e-01
-1.424398422241210938e-01 8.345621824264526367e-02 -8.073514103889465332e-01
2.275934666395187378e-01 -6.049244403839111328e-01 4.160171374678611755e-02
2.065715938806533813e-01 7.296643257141113281e-01 3.504923284053802490e-01
4.444811344146728516e-01 5.848788619041442871e-01 5.436373949050903320e-01
1.634157001972198486e-01 -3.917493224143981934e-01 -5.920982360839843750e-01
1.165940240025520325e-01 -5.615576505661010742e-01 2.055268734693527222e-01
-2.237936109304428101e-01 -4.520424306392669678e-01 -3.493828177452087402e-01
-1.516227275133132935e-01 8.943732082843780518e-02 3.031454086303710938e-01
2.282887883484363556e-02 -2.606790661811828613e-01 -3.841825127601623535e-01
-6.048680469393730164e-02 8.993702381849288940e-02 -8.374776244163513184e-01
-1.849620491266250610e-01 7.289689779281616211e-01 2.687376737594604492e-01
2.897816598415374756e-01 5.583826303482055664e-01 5.576500296592712402e-01
-5.573898181319236755e-02 -2.149406820535659790e-01 -5.830287337303161621e-01
-3.223114311695098877e-01 7.220780253410339355e-01 1.960803568363189697e-01
-1.091035269200801849e-02 -4.434196650981903076e-01 1.978649944067001343e-01
-1.026632338762283325e-01 7.291449904441833496e-01 2.860659062862396240e-01
3.442373126745223999e-02 -6.178865432739257812e-01 1.895376294851303101e-01
-2.045673429965972900e-01 9.058205038309097290e-02 -6.737543940544128418e-01
2.065905034542083740e-01 -1.815217882394790649e-01 -3.062328994274139404e-01
-1.994939334690570831e-02 -4.166459441184997559e-01 -3.481432422995567322e-02
2.056404799222946167e-01 -4.424039423465728760e-01 -4.909391999244689941e-01
-2.691579163074493408e-01 2.841759286820888519e-02 -2.965516149997711182e-01
9.981689043343067169e-03 -5.841920971870422363e-01 5.081413388252258301e-01
-3.230048120021820068e-01 6.465129852294921875e-01 2.307686209678649902e-01
-3.081854581832885742e-01 1.815859079360961914e-01 5.574640035629272461e-01
-2.332152575254440308e-01 -9.149345755577087402e-02 -2.145791053771972656e-01
-7.935743778944015503e-02 -6.178865432739257812e-01 2.552821636199951172e-01
2.379591614007949829e-01 -5.733469128608703613e-01 -1.524796485900878906e-01
7.397709786891937256e-02 2.282032184302806854e-02 1.455004047602415085e-02
-1.955864019691944122e-02 -4.962379038333892822e-01 4.980362951755523682e-01
-6.725087016820907593e-02 -7.535701245069503784e-02 3.669391870498657227e-01
-2.897470295429229736e-01 -1.852675527334213257e-02 -3.829549551010131836e-01
9.361919015645980835e-02 -2.175948023796081543e-01 -5.614786148071289062e-01
-3.765651881694793701e-01 1.594441980123519897e-01 4.342356026172637939e-01
9.549765288829803467e-02 -2.458178997039794922e-01 -3.322267234325408936e-01
-2.356216311454772949e-01 6.898587942123413086e-01 1.810053437948226929e-01
-6.916792690753936768e-02 -5.048557519912719727e-01 3.983068466186523438e-01
5.501365289092063904e-02 6.609303951263427734e-01 2.139178812503814697e-01
1.403893381357192993e-01 -2.195236831903457642e-01 -4.904189109802246094e-01
-2.440464943647384644e-01 8.932417631149291992e-02 -5.327690243721008301e-01
9.679058194160461426e-02 -1.964973211288452148e-01 6.761545315384864807e-03
2.550794780254364014e-01 -2.745895646512508392e-02 -5.796513333916664124e-02
-1.574173718690872192e-01 -3.082508444786071777e-01 -5.689514279365539551e-01
-1.226793676614761353e-01 6.615985184907913208e-02 3.376705348491668701e-01
1.795382350683212280e-01 -2.405912876129150391e-01 -4.996704459190368652e-01
1.551629453897476196e-01 -6.180467605590820312e-01 -2.418701052665710449e-01
-2.338867187500000000e-01 4.954583346843719482e-01 5.576500296592712402e-01
3.303948938846588135e-01 -8.704775571823120117e-02 -4.762690365314483643e-01
-3.655011653900146484e-01 1.711175590753555298e-01 3.890940845012664795e-01
4.420249909162521362e-02 8.943732082843780518e-02 4.978174567222595215e-01
-1.970566958189010620e-01 -5.626221299171447754e-01 6.523289531469345093e-02
-2.550956010818481445e-01 9.053112566471099854e-02 -9.537244588136672974e-02
2.135490477085113525e-01 -3.729767203330993652e-01 -3.945472240447998047e-01
-4.396606385707855225e-01 4.159946739673614502e-01 4.798396825790405273e-01
-3.053145296871662140e-02 7.035292387008666992e-01 1.837260723114013672e-01
1.093947440385818481e-01 6.757478117942810059e-01 5.641579031944274902e-01
6.898227334022521973e-02 7.295319437980651855e-01 3.262642920017242432e-01
-3.762687742710113525e-02 2.994532585144042969e-01 5.576500296592712402e-01
-2.453476786613464355e-01 6.584543585777282715e-01 5.326947569847106934e-01
-2.111767083406448364e-01 -5.289823412895202637e-01 -5.059445500373840332e-01
2.318143397569656372e-01 -4.327245522290468216e-03 -1.198481097817420959e-01
2.236501276493072510e-01 -5.921046137809753418e-01 -4.972083568572998047e-01
2.181579023599624634e-01 3.066482022404670715e-02 -5.844094157218933105e-01
-3.620860278606414795e-01 3.572232276201248169e-02 -3.810061514377593994e-01
6.563659757375717163e-02 2.870293557643890381e-01 5.576500296592712402e-01
-3.224118947982788086e-01 7.131110429763793945e-01 4.625622034072875977e-01
-1.157069299370050430e-02 9.064319729804992676e-02 -8.120388984680175781e-01
-8.773484826087951660e-02 -2.873612642288208008e-01 -1.905400454998016357e-01
-2.109648287296295166e-01 -2.111575156450271606e-01 -3.177714645862579346e-01
-1.469860225915908813e-01 -6.178865432739257812e-01 -7.324135303497314453e-02
-7.928223162889480591e-02 6.323049962520599365e-02 -7.525883316993713379e-01
8.929903060197830200e-02 -3.383431434631347656e-01 -1.211613342165946960e-01
-2.048230022192001343e-01 -1.258434802293777466e-01 -7.748660445213317871e-02
4.729230701923370361e-02 -2.813676893711090088e-01 3.827195167541503906e-01
2.347857803106307983e-01 -5.348715186119079590e-01 -3.512669503688812256e-01
1.403405964374542236e-01 3.776302933692932129e-02 -7.032040357589721680e-01
-9.301597625017166138e-02 -1.945787109434604645e-02 2.765746116638183594e-01
-3.481530547142028809e-01 7.128235101699829102e-01 3.740956783294677734e-01
2.017110586166381836e-01 7.056939005851745605e-01 1.847566962242126465e-01
-1.763422191143035889e-01 -2.026053071022033691e-01 -2.185821384191513062e-01
3.827843964099884033e-01 6.766918301582336426e-01 2.377052754163742065e-01
7.013224810361862183e-02 5.704385042190551758e-01 1.915122866630554199e-01
-3.144069015979766846e-02 -6.922254338860511780e-03 -8.859575390815734863e-01
-2.421365305781364441e-02 -3.586238920688629150e-01 3.638055920600891113e-01
-9.129599481821060181e-02 7.124574184417724609e-01 2.387786358594894409e-01
8.340866304934024811e-03 -2.222483903169631958e-01 -1.889642924070358276e-01
4.366710484027862549e-01 5.524865388870239258e-01 3.983744978904724121e-01
1.521646231412887573e-02 -5.546011328697204590e-01 -1.108176261186599731e-01
1.406400352716445923e-01 -2.263200879096984863e-01 -5.939345359802246094e-01
7.437541335821151733e-02 -4.482595995068550110e-02 4.075703024864196777e-01
-1.330550163984298706e-01 7.125937342643737793e-01 5.051799416542053223e-01
-3.117517530918121338e-01 4.618703126907348633e-01 5.576500296592712402e-01
8.335258066654205322e-02 -2.826320230960845947e-01 3.219002485275268555e-02
4.627613350749015808e-02 9.065212309360504150e-02 1.205690670758485794e-02
3.651527762413024902e-01 -4.890597891062498093e-03 -4.636292755603790283e-01
-2.766318060457706451e-02 4.557682871818542480e-01 1.954675614833831787e-01
-1.406422555446624756e-01 -6.005235314369201660e-01 -6.908736824989318848e-01
-2.256886810064315796e-01 -5.164340734481811523e-01 -4.089576900005340576e-01
1.919979602098464966e-01 4.710522294044494629e-01 5.576500296592712402e-01
-3.670490533113479614e-02 1.105999201536178589e-01 5.562493801116943359e-01
2.898522913455963135e-01 -7.584147155284881592e-02 -3.933992087841033936e-01
1.728632003068923950e-01 5.832971334457397461e-01 1.911720633506774902e-01
1.901018917560577393e-01 -2.691480889916419983e-02 -6.977854967117309570e-01
3.712428808212280273e-01 6.996720563620328903e-03 -3.886152803897857666e-01
4.850615188479423523e-02 -2.068142592906951904e-01 -7.037879824638366699e-01
-2.798021733760833740e-01 2.046619057655334473e-01 2.307278215885162354e-01
2.830817401409149170e-01 6.865153312683105469e-01 5.496131181716918945e-01
-4.901650175452232361e-02 -1.183308511972427368e-01 -7.229616045951843262e-01
2.251094877719879150e-01 -1.919382065534591675e-01 -1.394668221473693848e-01
-1.639113575220108032e-01 4.832648858428001404e-02 -8.932413160800933838e-02
3.581385016441345215e-01 -2.264616824686527252e-02 -2.261813133955001831e-01
3.351380228996276855e-01 9.037993103265762329e-02 -3.379417657852172852e-01
-1.565131098031997681e-01 -2.190809994935989380e-01 -5.601763725280761719e-01
2.296626269817352295e-01 -2.679997086524963379e-01 -3.772975802421569824e-01
-2.692802846431732178e-01 -8.645287156105041504e-02 -6.431676745414733887e-01
2.592685222625732422e-01 -2.690286934375762939e-02 -5.953392386436462402e-01
2.261291295289993286e-01 -4.859577715396881104e-01 -3.984547555446624756e-01
3.518683910369873047e-01 6.526746749877929688e-01 2.067016959190368652e-01
-1.896365731954574585e-01 1.589542925357818604e-01 5.574162006378173828e-01
5.172975733876228333e-02 6.738935112953186035e-01 5.642335414886474609e-01
-4.902565479278564453e-02 1.406609080731868744e-03 4.371403753757476807e-01
-8.515208214521408081e-02 -6.179214119911193848e-01 -1.313140392303466797e-01
-1.529209315776824951e-01 9.048778563737869263e-02 1.855445653200149536e-01
-1.925751715898513794e-01 -2.629720568656921387e-01 -2.345066815614700317e-01
-1.985588222742080688e-01 -2.379252761602401733e-01 -3.954106867313385010e-01
-1.224615052342414856e-01 2.982436120510101318e-01 5.576500296592712402e-01
-9.546613693237304688e-02 5.009804368019104004e-01 5.576500296592712402e-01
2.974036894738674164e-02 -5.653995275497436523e-01 -7.584207653999328613e-01
-3.831009566783905029e-01 3.500054180622100830e-01 3.307040035724639893e-01
-2.473741024732589722e-02 -4.059887528419494629e-01 5.025178790092468262e-01
2.402242869138717651e-01 7.282477021217346191e-01 2.420216649770736694e-01
-8.559425920248031616e-02 -5.612910985946655273e-01 8.511573076248168945e-02
-1.418608725070953369e-01 9.014619141817092896e-02 2.365224808454513550e-01
2.088287770748138428e-01 -3.232263624668121338e-01 -2.361401170492172241e-01
-2.138755619525909424e-01 -3.392275273799896240e-01 -3.105900585651397705e-01
5.772724002599716187e-02 -4.072043597698211670e-01 -5.830773711204528809e-02
1.788190007209777832e-01 -6.183063387870788574e-01 -6.315435171127319336e-01
-3.699110746383666992e-01 5.306728482246398926e-01 2.696031630039215088e-01
4.066831767559051514e-01 3.777998089790344238e-01 3.649824261665344238e-01
6.080073863267898560e-02 7.792163640260696411e-02 -3.643543273210525513e-02
-2.826651930809020996e-02 9.065212309360504150e-02 4.692750275135040283e-01
-2.389889955520629883e-01 2.282032184302806854e-02 -6.141585707664489746e-01
9.021204710006713867e-02 -3.944511711597442627e-01 -2.031947523355484009e-01
1.286130547523498535e-01 3.845669701695442200e-02 -8.373810648918151855e-01
2.153774537146091461e-02 2.144187837839126587e-01 2.058730572462081909e-01
9.849733859300613403e-02 -1.394760608673095703e-01 -7.633589506149291992e-01
2.579076588153839111e-01 -1.081671044230461121e-01 -1.163449659943580627e-01
-4.004530608654022217e-02 -2.419302910566329956e-01 4.269399121403694153e-02
5.632488802075386047e-02 -1.164978649467229843e-02 -8.846216201782226562e-01
7.106197625398635864e-02 -2.285404354333877563e-01 4.021129012107849121e-01
4.278582632541656494e-01 5.854717493057250977e-01 4.644065201282501221e-01
-1.123395413160324097e-01 -5.581823587417602539e-01 -1.753705143928527832e-01
1.724354475736618042e-01 -3.582031130790710449e-01 -5.580037832260131836e-01
1.902143061161041260e-01 -8.030309528112411499e-02 -7.711043357849121094e-01
-5.594748631119728088e-02 -6.180944442749023438e-01 -3.412902355194091797e-01
-2.704720199108123779e-01 4.138335958123207092e-02 -3.680360913276672363e-01
-8.585121482610702515e-02 4.903143048286437988e-01 1.941693723201751709e-01
2.194710224866867065e-01 -1.671026833355426788e-02 -2.460362203419208527e-02
-2.900524437427520752e-01 1.523217372596263885e-02 -4.602439999580383301e-01
-8.981505036354064941e-02 9.065212309360504150e-02 7.387860119342803955e-02
3.198590874671936035e-01 6.283710002899169922e-01 5.325236320495605469e-01
-5.453190952539443970e-02 -3.017628192901611328e-01 1.491591930389404297e-01
-7.254423946142196655e-02 -3.828837871551513672e-01 5.193167831748723984e-03
-2.330570667982101440e-01 -5.661934018135070801e-01 -2.085039317607879639e-01
-1.513213384896516800e-02 -3.248263150453567505e-02 4.424306452274322510e-01
-6.615981459617614746e-03 -1.658827364444732666e-01 -7.532717585563659668e-01
5.674717202782630920e-02 1.483455579727888107e-02 4.383032917976379395e-01
-5.774430464953184128e-03 9.126701205968856812e-02 2.273773849010467529e-01
9.640977531671524048e-02 4.912450537085533142e-02 2.652489542961120605e-01
9.276069700717926025e-02 -2.198589444160461426e-01 -3.645930811762809753e-02
-4.449777603149414062e-01 4.939641654491424561e-01 4.633201956748962402e-01
-5.392120406031608582e-02 6.325888633728027344e-01 1.899614036083221436e-01
-9.143485873937606812e-02 -1.773788593709468842e-02 3.998019993305206299e-01
2.508336901664733887e-01 7.136004567146301270e-01 3.616687953472137451e-01
2.552565336227416992e-01 -1.275200955569744110e-02 -7.375819683074951172e-01
3.548020124435424805e-01 6.946055591106414795e-02 -3.802739977836608887e-01
-2.182636037468910217e-02 5.471345782279968262e-01 5.576500296592712402e-01
8.693988621234893799e-02 -6.180855035781860352e-01 -3.029560446739196777e-01
2.939896285533905029e-01 1.861675977706909180e-01 2.532796561717987061e-01
1.183518096804618835e-01 1.047531589865684509e-01 2.122844606637954712e-01
2.394692450761795044e-01 8.943732082843780518e-02 4.795472025871276855e-01
-1.138904094696044922e-01 6.571229547262191772e-02 2.126545161008834839e-01
1.208457425236701965e-01 6.012172698974609375e-01 2.154618203639984131e-01
-8.349336683750152588e-02 2.303767949342727661e-02 -2.284105680882930756e-02
6.785149872303009033e-02 -5.027905702590942383e-01 2.610121667385101318e-01
-4.453886151313781738e-01 7.076446413993835449e-01 3.861873149871826172e-01
3.671970665454864502e-01 7.124862670898437500e-01 3.960665464401245117e-01
-2.114423215389251709e-01 5.971296429634094238e-01 2.155533283948898315e-01
2.170268148183822632e-01 6.004681587219238281e-01 1.907184273004531860e-01
-1.044349521398544312e-01 -1.042018756270408630e-01 -5.765421316027641296e-03
-3.952602446079254150e-01 5.993958115577697754e-01 3.583909571170806885e-01
3.163882493972778320e-01 1.363726854324340820e-01 3.129132390022277832e-01
1.393468081951141357e-01 -1.716893017292022705e-01 -1.553490012884140015e-01
2.081443518400192261e-01 -1.954110115766525269e-01 -4.417986571788787842e-01
1.007878333330154419e-01 -5.615378022193908691e-01 2.992687225341796875e-01
-2.387333363294601440e-01 -6.315792351961135864e-02 -7.274550199508666992e-01
3.869107663631439209e-01 3.802439868450164795e-01 5.571466684341430664e-01
2.867336273193359375e-01 9.042061865329742432e-02 -2.637037336826324463e-01
-1.912859231233596802e-01 -3.460925519466400146e-01 -4.853325784206390381e-01
-2.595353424549102783e-01 4.031131863594055176e-01 5.576500296592712402e-01
-5.310607701539993286e-02 -1.577324122190475464e-01 7.313053309917449951e-02
1.352622061967849731e-01 -5.615665912628173828e-01 2.099428139626979828e-02
7.885792851448059082e-02 -2.630934119224548340e-01 -6.791301965713500977e-01
-3.130569458007812500e-01 5.188040137290954590e-01 1.997232586145401001e-01
3.021906130015850067e-02 -6.181621551513671875e-01 -4.083657860755920410e-01
-7.534854114055633545e-02 -2.343987375497817993e-01 1.758732348680496216e-01
-2.458401024341583252e-01 9.063491225242614746e-02 -6.077571511268615723e-01
2.228841334581375122e-01 6.742651760578155518e-02 3.812493011355400085e-02
-1.052030548453330994e-02 -2.331701666116714478e-01 -5.539371371269226074e-01
-7.193274050951004028e-02 -5.387372374534606934e-01 2.522689700126647949e-01
-3.277658522129058838e-01 -3.984505683183670044e-02 -5.784407258033752441e-01
-2.232435047626495361e-01 1.985917091369628906e-01 5.576500296592712402e-01
1.503342390060424805e-01 7.286306619644165039e-01 2.514462769031524658e-01
-1.966090351343154907e-01 -5.374151468276977539e-01 -5.644470453262329102e-01
-3.364593535661697388e-02 5.907129123806953430e-02 -7.694101929664611816e-01
1.459969393908977509e-02 -3.587164282798767090e-01 1.282885372638702393e-01
5.879763141274452209e-02 -1.212605088949203491e-01 -7.227735519409179688e-01
-1.080599576234817505e-01 -3.823943436145782471e-01 -6.705043911933898926e-01
1.738022640347480774e-02 -2.538149952888488770e-01 -3.513404726982116699e-02
1.459830403327941895e-01 -1.799022555351257324e-01 -5.957709550857543945e-01
3.293828805908560753e-03 1.693933755159378052e-01 5.574848651885986328e-01
1.430812478065490723e-01 -4.488267377018928528e-02 1.563565433025360107e-02
-1.884268969297409058e-01 -1.873781085014343262e-01 -4.312548637390136719e-01
-3.081108331680297852e-01 2.884339988231658936e-01 2.373073548078536987e-01
2.326917499303817749e-01 -5.757890939712524414e-01 -5.543916672468185425e-02
1.664020568132400513e-01 -1.802444756031036377e-01 -2.061373293399810791e-01
-2.010587304830551147e-01 2.282032184302806854e-02 -6.812251806259155273e-01
5.392983183264732361e-02 -4.998250901699066162e-01 4.792010188102722168e-01
-1.145260781049728394e-01 3.078602254390716553e-01 2.017894536256790161e-01
4.250210821628570557e-01 4.652486145496368408e-01 5.530709624290466309e-01
1.593808531761169434e-01 -6.179820299148559570e-01 -1.616970449686050415e-01
3.571417331695556641e-01 2.413745671510696411e-01 3.262692689895629883e-01
3.104294538497924805e-01 2.932050228118896484e-01 2.363603115081787109e-01
-2.763293385505676270e-01 9.044305235147476196e-02 -2.255466282367706299e-01
-8.616805821657180786e-02 -6.181421875953674316e-01 -6.656568050384521484e-01
-7.947790622711181641e-02 -5.609598159790039062e-01 3.016940057277679443e-01
-1.492959260940551758e-01 -6.178865432739257812e-01 1.941643953323364258e-01
3.834210634231567383e-01 1.885616630315780640e-01 4.193396270275115967e-01
-3.230037987232208252e-01 -1.109017729759216309e-01 -3.281858861446380615e-01
-3.666929006576538086e-01 3.446823060512542725e-01 5.574411153793334961e-01
-1.006408259272575378e-01 -6.178865432739257812e-01 3.062551021575927734e-01
4.280999600887298584e-01 5.221832990646362305e-01 3.794028759002685547e-01
8.884082734584808350e-02 -6.178865432739257812e-01 2.740398943424224854e-01
9.164573252201080322e-02 2.335654646158218384e-01 5.576500296592712402e-01
-1.950492113828659058e-01 -1.628078371286392212e-01 -5.155293345451354980e-01
2.980314008891582489e-02 -1.404161453247070312e-01 4.531037211418151855e-01
-2.923613488674163818e-01 7.280507087707519531e-01 5.122966170310974121e-01
-5.243131145834922791e-02 -3.742341101169586182e-01 6.218586862087249756e-02
-4.814785346388816833e-02 -2.539085447788238525e-01 -4.265564978122711182e-01
1.705204844474792480e-01 6.834878772497177124e-02 3.436869978904724121e-01
6.486494094133377075e-02 -9.577701985836029053e-02 -8.346792459487915039e-01
-4.258360713720321655e-02 -9.798247367143630981e-02 3.991444408893585205e-01
1.229606382548809052e-02 -5.677039176225662231e-02 -7.708595991134643555e-01
-1.157884746789932251e-01 -2.334765791893005371e-01 -4.153044223785400391e-01
9.742376208305358887e-02 -4.322740435600280762e-01 -6.960952877998352051e-01
2.950898408889770508e-01 9.060267359018325806e-02 -2.114823311567306519e-01
3.891729116439819336e-01 4.940298497676849365e-01 5.574151873588562012e-01
2.419900298118591309e-01 4.553580656647682190e-02 -1.925107091665267944e-01
-1.625872850418090820e-01 -1.402937918901443481e-01 -7.043878436088562012e-01
3.007621169090270996e-01 -1.337749361991882324e-01 -3.226389586925506592e-01
4.330401122570037842e-01 3.730258047580718994e-01 4.559030532836914062e-01
-3.991120681166648865e-02 -6.144993305206298828e-01 -7.633509039878845215e-01
5.809925962239503860e-03 -2.057289481163024902e-01 3.384325504302978516e-01
-6.842979043722152710e-02 -5.611617565155029297e-01 -6.361019611358642578e-02
1.828787326812744141e-01 -2.959701418876647949e-01 -5.027204751968383789e-01
1.223478764295578003e-01 8.442249149084091187e-02 4.498418569564819336e-01
2.789364382624626160e-02 -6.178865432739257812e-01 4.664637446403503418e-01
3.467322587966918945e-01 -1.797365397214889526e-02 -5.513048768043518066e-01
-1.487746536731719971e-01 -5.615954995155334473e-01 1.478560268878936768e-01
-3.974149227142333984e-01 6.641237139701843262e-01 3.213659524917602539e-01
2.050376385450363159e-01 4.212527722120285034e-02 -7.493070326745510101e-03
-1.576561182737350464e-01 -1.054055765271186829e-01 -7.729476690292358398e-01
4.336358979344367981e-02 -4.621097147464752197e-01 2.511657476425170898e-01
2.102881371974945068e-01 4.917477965354919434e-01 1.941146403551101685e-01
3.898205459117889404e-01 3.418969213962554932e-01 3.429438769817352295e-01
2.524532377719879150e-01 8.943732082843780518e-02 3.248258233070373535e-01
-3.514170274138450623e-02 -3.830429613590240479e-01 -7.235186696052551270e-01
1.579125374555587769e-01 9.047807753086090088e-02 8.063918352127075195e-02
1.669860035181045532e-01 -6.179472208023071289e-01 -1.164861246943473816e-01
-2.046180665493011475e-01 7.293717861175537109e-01 3.103635907173156738e-01
2.296855002641677856e-01 -5.846705436706542969e-01 -5.778450984507799149e-03
6.787318736314773560e-02 -6.183093786239624023e-01 -6.057078838348388672e-01
-1.696025282144546509e-01 9.045556187629699707e-02 1.369829922914505005e-01
1.700678467750549316e-01 -6.178865432739257812e-01 1.049876213073730469e-01
-4.050917327404022217e-01 5.626871585845947266e-01 2.976780533790588379e-01
5.220626667141914368e-02 -1.504983305931091309e-01 -7.666228413581848145e-01
1.284479200839996338e-01 -1.784747540950775146e-01 -6.610956788063049316e-01
2.187318950891494751e-01 9.062321484088897705e-02 -5.875608697533607483e-02
-2.045544087886810303e-01 -6.178865432739257812e-01 -8.781315386295318604e-02
9.170253574848175049e-02 -2.201036512851715088e-01 -2.174072861671447754e-01
2.959414124488830566e-01 4.801153764128684998e-02 -6.292654871940612793e-01
-1.613189280033111572e-01 -4.775786995887756348e-01 -2.148815095424652100e-01
-2.206540554761886597e-01 6.169080734252929688e-01 5.576500296592712402e-01
-3.054159581661224365e-01 -9.926275908946990967e-02 -1.799923032522201538e-01
7.696982473134994507e-02 -5.571209192276000977e-01 3.819854557514190674e-02
-8.770115673542022705e-03 -4.881552457809448242e-01 -9.087998420000076294e-02
2.851190865039825439e-01 4.167069494724273682e-01 5.576500296592712402e-01
-1.216836180537939072e-02 -2.075752764940261841e-01 3.512763231992721558e-02
-1.286133006215095520e-02 -3.569745421409606934e-01 3.067554831504821777e-01
2.705762982368469238e-01 6.560091972351074219e-01 1.924702674150466919e-01
3.367784321308135986e-01 5.585358738899230957e-01 2.176324427127838135e-01
6.105231493711471558e-02 -2.388070523738861084e-02 1.796066761016845703e-03
-3.785915672779083252e-01 1.422484964132308960e-01 4.715381860733032227e-01
2.432782799005508423e-01 -2.366718351840972900e-01 -2.790732085704803467e-01
4.544797539710998535e-02 8.943732082843780518e-02 2.617453038692474365e-01
2.392354756593704224e-01 -5.650394558906555176e-01 -2.970519959926605225e-01
1.862858831882476807e-01 -4.794160425662994385e-01 -5.738229155540466309e-01
-2.483459860086441040e-01 -1.622845679521560669e-01 -4.363183379173278809e-01
-6.085040420293807983e-02 -4.091690778732299805e-01 -1.765861511230468750e-01
2.617156803607940674e-01 -1.102113947272300720e-01 -4.911232292652130127e-01
1.099886298179626465e-01 -5.383622050285339355e-01 -7.086763978004455566e-01
-8.325730264186859131e-02 -1.518114358186721802e-01 -6.747183203697204590e-01
-4.588063061237335205e-01 7.205142378807067871e-01 4.787244796752929688e-01
7.943082600831985474e-02 -1.440202593803405762e-01 3.587242066860198975e-01
-1.510925143957138062e-01 -6.180994510650634766e-01 -6.109284758567810059e-01
2.793662250041961670e-01 -5.715736001729965210e-02 -1.004176139831542969e-01
-4.114126265048980713e-01 4.372393786907196045e-01 3.619453310966491699e-01
4.621674492955207825e-02 6.029392480850219727e-01 5.576500296592712402e-01
-3.506459593772888184e-01 -6.479633599519729614e-02 -2.684518396854400635e-01
9.096519649028778076e-02 3.042089939117431641e-02 -7.483475208282470703e-01
3.233706653118133545e-01 5.407352466136217117e-03 -5.984071493148803711e-01
-1.450312584638595581e-01 2.203178703784942627e-01 5.576500296592712402e-01
-8.809904009103775024e-02 -1.210078224539756775e-01 2.480619996786117554e-01
1.508555114269256592e-01 -6.182675361633300781e-01 -5.170245170593261719e-01
-4.490942135453224182e-02 -2.509470582008361816e-01 -3.148597180843353271e-01
2.460766136646270752e-01 8.943732082843780518e-02 4.122637212276458740e-01
-1.315727829933166504e-01 6.578502058982849121e-02 1.685177534818649292e-01
5.304626375436782837e-02 1.521198898553848267e-01 2.088156342506408691e-01
-7.296472787857055664e-02 -1.252038329839706421e-01 1.502415090799331665e-01
-1.573586761951446533e-01 2.407613955438137054e-02 -6.900042295455932617e-01
-1.379016190767288208e-01 -4.649508595466613770e-01 -6.558521986007690430e-01
2.451902627944946289e-01 3.594310283660888672e-01 1.995959281921386719e-01
-1.586061418056488037e-01 -7.712213322520256042e-03 -5.591736361384391785e-02
4.029158949851989746e-01 6.188290119171142578e-01 3.108938336372375488e-01
2.160976827144622803e-01 7.291062474250793457e-01 2.806870639324188232e-01
1.163244396448135376e-01 7.062947750091552734e-01 2.064917832612991333e-01
3.136854171752929688e-01 7.284844517707824707e-01 2.683138847351074219e-01
1.183826476335525513e-01 -5.618780255317687988e-01 3.844156265258789062e-01
1.450807750225067139e-01 9.051988273859024048e-02 1.694230288267135620e-01
-3.538731113076210022e-02 3.685801029205322266e-01 1.990905702114105225e-01
2.631929814815521240e-01 7.230345904827117920e-02 -2.996075525879859924e-02
1.326966285705566406e-02 3.445201516151428223e-01 5.576500296592712402e-01
-1.590498238801956177e-01 -6.179392933845520020e-01 -1.679425388574600220e-01
-8.093119412660598755e-02 -1.411960572004318237e-01 -8.428115397691726685e-02
-4.356825351715087891e-02 -6.181591153144836426e-01 -4.423756003379821777e-01
-5.349456798285245895e-03 -2.582398355007171631e-01 -3.471773862838745117e-01
2.860986394807696342e-03 8.943732082843780518e-02 3.428006470203399658e-01
1.684553027153015137e-01 -2.061835825443267822e-01 -2.885863780975341797e-01
-7.818398624658584595e-02 -6.181372404098510742e-01 -5.651065707206726074e-01
1.716475784778594971e-01 -5.575606226921081543e-01 -6.359593868255615234e-01
-4.197379946708679199e-01 7.115064263343811035e-01 4.970027506351470947e-01
2.441168874502182007e-01 -1.761150956153869629e-01 -2.026058137416839600e-01
-1.248728707432746887e-01 -1.786856353282928467e-01 -1.709825247526168823e-01
-1.733120828866958618e-01 6.056112647056579590e-01 5.324689149856567383e-01
2.115962803363800049e-01 -5.834161639213562012e-01 1.255628168582916260e-01
1.701882183551788330e-01 -3.144781887531280518e-01 -5.457271337509155273e-01
-1.165793556720018387e-02 2.282032184302806854e-02 -8.249183893203735352e-01
-1.057269144803285599e-02 6.899105906486511230e-01 5.489078164100646973e-01
4.315797388553619385e-01 6.860945224761962891e-01 5.602911114692687988e-01
4.244142770767211914e-01 3.113111555576324463e-01 5.266195535659790039e-01
-1.295991241931915283e-01 -6.180596947669982910e-01 -4.353822767734527588e-01
-3.212988004088401794e-02 -2.717052698135375977e-01 -7.082605957984924316e-01
2.088019102811813354e-01 6.550790667533874512e-01 5.619604587554931641e-01
-3.281796872615814209e-01 2.610093168914318085e-02 -5.600988268852233887e-01
-1.565837413072586060e-01 6.455665826797485352e-02 3.325444832444190979e-02
-3.485918045043945312e-02 -2.181160449981689453e-01 -1.881177425384521484e-01
-3.560059070587158203e-01 1.722155325114727020e-02 -4.683007895946502686e-01
1.412269286811351776e-02 -3.628796041011810303e-01 1.720412969589233398e-01
-4.518229067325592041e-01 5.787450075149536133e-01 5.226224660873413086e-01
3.479787409305572510e-01 -8.036477118730545044e-02 -3.856249451637268066e-01
-5.289160087704658508e-02 -1.757321208715438843e-01 3.164696097373962402e-01
-1.549353748559951782e-01 8.943732082843780518e-02 4.357884526252746582e-01
-1.422190070152282715e-01 -1.957144290208816528e-01 -6.092075705528259277e-01
3.904263675212860107e-01 3.209128379821777344e-01 5.567606687545776367e-01
8.557732403278350830e-02 -1.371592134237289429e-01 7.227699458599090576e-02
2.001452744007110596e-01 5.907112956047058105e-01 5.576500296592712402e-01
1.534320116043090820e-01 -2.810533046722412109e-01 -5.743044614791870117e-01
-4.709636270999908447e-01 6.894380450248718262e-01 5.072371363639831543e-01
2.305330634117126465e-01 -5.319796204566955566e-01 -2.287150323390960693e-01
-2.843662202358245850e-01 9.036463499069213867e-02 -4.257377684116363525e-01
-1.022613421082496643e-01 6.057285666465759277e-01 5.324500203132629395e-01
1.746180057525634766e-01 -2.665164470672607422e-01 -1.847205162048339844e-01
-4.279081821441650391e-01 6.608090400695800781e-01 5.489982962608337402e-01
-4.646178483963012695e-01 6.576675176620483398e-01 4.229725897312164307e-01
2.394473552703857422e-01 1.391343176364898682e-01 2.112578451633453369e-01
1.967361420392990112e-01 8.943732082843780518e-02 2.498237788677215576e-01
2.336089126765727997e-02 2.450443208217620850e-01 5.576500296592712402e-01
-6.434201449155807495e-02 -4.853061735630035400e-01 -1.921854317188262939e-01
-7.710573077201843262e-02 -1.623074561357498169e-01 2.511120438575744629e-01
-4.241409301757812500e-01 6.080295443534851074e-01 4.508177042007446289e-01
-3.344348967075347900e-01 5.901800990104675293e-01 5.325077772140502930e-01
4.412371516227722168e-01 6.719566583633422852e-01 3.978949785232543945e-01
4.707773774862289429e-02 7.296732664108276367e-01 3.657106161117553711e-01
-2.243248224258422852e-01 4.176506400108337402e-02 -7.475507259368896484e-01
-1.700750589370727539e-01 9.408488869667053223e-03 1.198865938931703568e-02
-8.615174144506454468e-02 -3.216506242752075195e-01 -1.708561182022094727e-02
-1.227867975831031799e-01 -6.180775761604309082e-01 -5.071045160293579102e-01
-3.178130462765693665e-02 -1.831532269716262817e-01 -5.848242342472076416e-02
2.918617725372314453e-01 4.267901182174682617e-01 1.981017440557479858e-01
1.595061868429183960e-01 4.393559321761131287e-02 -8.387786895036697388e-02
3.300805389881134033e-01 7.266023755073547363e-01 2.366945743560791016e-01
2.106293439865112305e-01 8.934807777404785156e-02 -6.113393306732177734e-01
-3.743179738521575928e-01 5.895494222640991211e-01 2.268909364938735962e-01
-7.386812474578619003e-03 -6.178865432739257812e-01 1.454595625400543213e-01
-2.114562541246414185e-01 -6.180626153945922852e-01 -5.087140202522277832e-01
1.827344894409179688e-01 4.147094190120697021e-01 1.971010118722915649e-01
6.045246124267578125e-02 -2.555419802665710449e-01 -3.648010492324829102e-01
-3.222984969615936279e-01 7.268476486206054688e-02 -1.763036251068115234e-01
5.786780640482902527e-02 -1.787403672933578491e-01 2.594951093196868896e-01
-1.583435088396072388e-01 -5.615954995155334473e-01 -9.196798503398895264e-02
-1.399628221988677979e-01 -2.185378372669219971e-01 -3.286932408809661865e-01
-3.236762881278991699e-01 7.295906543731689453e-01 4.157753288745880127e-01
1.445465534925460815e-01 -1.044078022241592407e-01 -7.937148213386535645e-02
7.311551272869110107e-02 -5.287664532661437988e-01 2.278289943933486938e-01
-1.045344248414039612e-01 -6.178865432739257812e-01 -7.239209115505218506e-02
2.956618666648864746e-01 -4.164065793156623840e-02 -6.579471826553344727e-01
2.643299996852874756e-01 5.044598132371902466e-02 -2.690576910972595215e-01
-6.188717484474182129e-02 -2.474344372749328613e-01 3.925300836563110352e-01
2.374070137739181519e-02 5.814627408981323242e-01 2.159024924039840698e-01
-4.392547309398651123e-01 4.165447950363159180e-01 5.221440792083740234e-01
-3.265820741653442383e-01 9.142353385686874390e-02 5.417691469192504883e-01
-3.515054583549499512e-01 1.075801998376846313e-02 -2.189531624317169189e-01
-2.447080314159393311e-01 1.238404437899589539e-01 2.187436223030090332e-01
-1.526891291141510010e-01 -2.663025856018066406e-01 -5.672045946121215820e-01
-1.502737998962402344e-01 -2.378924340009689331e-01 -2.262887507677078247e-01
3.753891587257385254e-01 4.167318344116210938e-01 2.950279414653778076e-01
1.753233075141906738e-01 2.690923511981964111e-01 5.576500296592712402e-01
-5.864645540714263916e-02 -4.399229884147644043e-01 4.692869484424591064e-01
1.940233409404754639e-01 -5.741775631904602051e-01 1.978779435157775879e-01
3.073038347065448761e-02 -4.554137587547302246e-01 1.841807067394256592e-01
3.369733989238739014e-01 6.089795827865600586e-01 2.527962028980255127e-01
-8.229067176580429077e-02 -2.776312232017517090e-01 9.004888683557510376e-02
-1.823308318853378296e-01 6.679198145866394043e-01 1.777871847152709961e-01
-1.165833026170730591e-01 7.296682596206665039e-01 3.977278470993041992e-01
2.238759398460388184e-01 4.443560838699340820e-01 1.958973258733749390e-01
1.897129267454147339e-01 -3.960895836353302002e-01 -5.265356898307800293e-01
-1.355479508638381958e-01 -6.336384266614913940e-02 -5.795190110802650452e-02
3.737596422433853149e-02 -4.247892498970031738e-01 4.978055357933044434e-01
1.303638666868209839e-01 4.426380693912506104e-01 1.959619820117950439e-01
3.802655935287475586e-01 7.097694873809814453e-01 3.135359585285186768e-01
-3.101631067693233490e-02 3.407290279865264893e-01 5.576500296592712402e-01
-2.973959743976593018e-01 5.528238415718078613e-01 5.576500296592712402e-01
2.750667333602905273e-01 1.014956161379814148e-01 2.683705985546112061e-01
9.540434181690216064e-02 -2.785733044147491455e-01 -1.793685704469680786e-01
-1.666788458824157715e-01 5.157958269119262695e-01 1.932720839977264404e-01
3.237814828753471375e-02 -5.325138568878173828e-01 -1.865668445825576782e-01
2.643707990646362305e-01 2.507961988449096680e-01 2.059446871280670166e-01
2.727021276950836182e-01 7.125151157379150391e-01 5.101478695869445801e-01
4.557501077651977539e-01 5.756015181541442871e-01 5.045750737190246582e-01
7.972340285778045654e-02 3.770606815814971924e-01 5.576500296592712402e-01
1.415479811839759350e-03 -2.109506130218505859e-01 2.449025511741638184e-01
5.552706494927406311e-02 -5.222118496894836426e-01 -2.885604277253150940e-02
3.136625289916992188e-01 3.323190808296203613e-01 5.576500296592712402e-01
1.352233905345201492e-02 -4.475519657135009766e-01 1.461230963468551636e-01
3.755582571029663086e-01 6.268588900566101074e-01 2.633807659149169922e-01
-2.127295732498168945e-01 8.604069054126739502e-02 -1.382805556058883667e-01
-5.105472728610038757e-02 -1.796436160802841187e-01 -1.200891509652137756e-01
-9.539481252431869507e-02 -2.585820257663726807e-01 -1.633748561143875122e-01
-1.977490633726119995e-01 -1.138393878936767578e-01 -6.021326184272766113e-01
2.649039924144744873e-01 2.282032184302806854e-02 -5.608419179916381836e-01
-2.982007898390293121e-02 -4.426038861274719238e-01 -7.096881419420242310e-02
-6.331896781921386719e-02 -4.975719153881072998e-01 1.346124112606048584e-01
-6.876055896282196045e-02 -5.739408135414123535e-01 4.763489365577697754e-01
-2.059063501656055450e-02 -1.602074652910232544e-01 4.679608941078186035e-01
-3.424379825592041016e-01 -8.556054532527923584e-02 -3.824973404407501221e-01
2.881521880626678467e-01 -1.316848993301391602e-01 -2.260718792676925659e-01
1.123592108488082886e-01 -2.329761981964111328e-01 -7.305965572595596313e-02
5.200282856822013855e-02 7.126026749610900879e-01 5.048257708549499512e-01
-1.516237258911132812e-01 -5.774314999580383301e-01 3.323613405227661133e-01
-7.181008160114288330e-02 -1.156220510601997375e-01 -8.091291189193725586e-01
8.178211003541946411e-02 -6.625171005725860596e-02 1.482449918985366821e-01
1.368210464715957642e-01 2.798370420932769775e-01 2.030458599328994751e-01
2.576629519462585449e-01 -1.306413561105728149e-01 -4.369798898696899414e-01
2.114132344722747803e-01 7.293440103530883789e-01 4.520154595375061035e-01
-5.341595411300659180e-02 -1.347856372594833374e-01 4.349399209022521973e-01
-1.593970060348510742e-01 2.899072766304016113e-01 2.025952339172363281e-01
2.811359465122222900e-01 4.753735661506652832e-01 5.576500296592712402e-01
1.562651693820953369e-01 -6.182168722152709961e-01 -4.530457258224487305e-01
-2.069747298955917358e-01 9.042960405349731445e-02 -7.474867161363363266e-03
-4.145839810371398926e-01 2.677185237407684326e-01 5.233377814292907715e-01
-3.846349120140075684e-01 7.280606627464294434e-01 4.620677828788757324e-01
-1.940196007490158081e-01 -5.620859265327453613e-01 -1.155841499567031860e-01
-1.233588010072708130e-01 -5.612334012985229492e-01 -1.332244277000427246e-01
-2.050438709557056427e-02 -2.298406362533569336e-01 3.588525652885437012e-01
-2.984335124492645264e-01 5.811042338609695435e-02 -9.967271983623504639e-02
4.377812445163726807e-01 7.233055830001831055e-01 4.353855550289154053e-01
-1.956729292869567871e-01 7.116098403930664062e-01 1.847676336765289307e-01
7.101830840110778809e-02 -4.060176014900207520e-01 -1.072497218847274780e-01
-1.039843112230300903e-01 -5.615507364273071289e-01 1.491025090217590332e-01
-4.124554805457592010e-03 4.778466224670410156e-01 5.576500296592712402e-01
3.240690231323242188e-01 -6.023424491286277771e-02 -5.629588365554809570e-01
-3.037606179714202881e-01 9.057929366827011108e-02 -4.707529544830322266e-01
2.164408862590789795e-01 -1.369920969009399414e-01 -5.649663209915161133e-01
-2.631832063198089600e-01 -1.195325627923011780e-01 -5.826864838600158691e-01
1.471777707338333130e-01 -2.227597236633300781e-01 -3.192119002342224121e-01
5.595213547348976135e-02 7.294991612434387207e-01 4.337720572948455811e-01
-4.423107579350471497e-02 -4.676496684551239014e-01 1.119899302721023560e-01
3.266793489456176758e-01 -1.009399667382240295e-01 -2.648327946662902832e-01
8.546670526266098022e-02 -1.750556528568267822e-01 -6.529374718666076660e-01
-1.807242482900619507e-01 7.293260693550109863e-01 4.514245390892028809e-01
1.528371125459671021e-02 -3.816323578357696533e-01 8.552756905555725098e-02
6.346896290779113770e-02 -6.182307600975036621e-01 -4.879567921161651611e-01
-1.032372266054153442e-01 -2.904365584254264832e-02 2.383210361003875732e-01
-9.617383778095245361e-02 -5.929273366928100586e-01 4.499870538711547852e-01
3.099887967109680176e-01 9.053432941436767578e-02 -4.772529006004333496e-01
1.740350574254989624e-01 1.694670915603637695e-01 2.079630792140960693e-01
3.256765902042388916e-01 -5.731290206313133240e-03 -1.392604112625122070e-01
2.108213305473327637e-01 7.285103201866149902e-01 5.015379786491394043e-01
-1.962956786155700684e-01 -5.837497487664222717e-02 -7.828179597854614258e-01
-1.301860511302947998e-01 -6.178865432739257812e-01 3.661175072193145752e-01
-7.093068957328796387e-02 -5.330430865287780762e-01 4.009659588336944580e-02
-1.998182237148284912e-01 -1.777296364307403564e-01 -3.379626572132110596e-01
