3.788070082664489746e-01 -1.240663900971412659e-01 7.736114263534545898e-01
-1.729776859283447266e-01 -9.038146585226058960e-02 -3.974362909793853760e-01
1.094614062458276749e-02 8.478543162345886230e-02 7.143296599388122559e-01
-9.981195628643035889e-02 -1.693930774927139282e-01 8.468316197395324707e-01
1.685696393251419067e-01 -1.559309214353561401e-01 7.513310313224792480e-01
3.788070082664489746e-01 4.697268456220626831e-02 -6.865739226341247559e-01
3.098239898681640625e-01 -9.038146585226058960e-02 6.002001166343688965e-01
5.783583968877792358e-02 -4.597495123744010925e-02 -7.659078836441040039e-01
-2.786248922348022461e-02 1.915810443460941315e-02 9.094946384429931641e-01
2.116247117519378662e-01 -2.543890848755836487e-03 7.622320652008056641e-01
-1.652400791645050049e-01 -2.040927559137344360e-01 1.809260547161102295e-01
-3.645134568214416504e-01 -2.040927559137344360e-01 -3.447293043136596680e-01
3.651608526706695557e-01 1.266135871410369873e-01 -7.855642437934875488e-01
1.436003148555755615e-01 1.828655004501342773e-01 8.217741847038269043e-01
1.656560599803924561e-01 -1.650377064943313599e-01 8.492523431777954102e-01
-1.850019395351409912e-01 3.205720186233520508e-01 -6.210641264915466309e-01
-2.716301381587982178e-01 8.478543162345886230e-02 1.206669732928276062e-01
-3.318985104560852051e-01 -5.107503756880760193e-02 9.781242348253726959e-03
3.264398574829101562e-01 -2.040927559137344360e-01 5.153574347496032715e-01
5.135700851678848267e-02 -9.038146585226058960e-02 2.525321841239929199e-01
-4.314688742160797119e-01 8.478543162345886230e-02 -2.502986192703247070e-01
-2.751024067401885986e-01 -9.038146585226058960e-02 5.299834609031677246e-01
-1.452649086713790894e-01 -1.415924578905105591e-01 -6.260837316513061523e-01
3.867034018039703369e-01 4.088852927088737488e-02 4.416210651397705078e-01
-3.838094323873519897e-02 1.866921931505203247e-01 -7.784115076065063477e-01
3.254725337028503418e-01 2.210065126419067383e-01 2.236122190952301025e-01
2.243085391819477081e-02 1.273572295904159546e-01 -6.121664643287658691e-01
3.213950991630554199e-01 2.358668595552444458e-01 -3.341313600540161133e-01
-4.135049879550933838e-02 8.478543162345886230e-02 -3.662001788616180420e-01
3.531889021396636963e-01 2.763801813125610352e-01 -4.792579114437103271e-01
-1.980942040681838989e-01 -2.040927559137344360e-01 4.845396280288696289e-01
1.606577336788177490e-01 -2.040927559137344360e-01 3.344641327857971191e-01
-3.307239711284637451e-01 -7.276050746440887451e-02 7.031004428863525391e-01
-4.870720207691192627e-01 -9.038146585226058960e-02 -4.799444079399108887e-01
-5.509376525878906250e-01 -2.040927559137344360e-01 -4.873634278774261475e-01
-2.497746236622333527e-02 -2.040927559137344360e-01 -5.447763204574584961e-01
-3.154588341712951660e-01 -1.402927841991186142e-02 -6.320445537567138672e-01
-3.212211728096008301e-01 8.016552031040191650e-02 -3.663738071918487549e-02
2.137966006994247437e-01 6.802789866924285889e-02 -2.089816480875015259e-01
-3.129238784313201904e-01 -1.667283326387405396e-01 -7.157630324363708496e-01
-4.925612807273864746e-01 -9.038146585226058960e-02 -3.035478591918945312e-01
3.867034018039703369e-01 -1.896342337131500244e-01 -2.460933178663253784e-01
2.674128413200378418e-01 2.500165104866027832e-01 -2.086398303508758545e-01
-7.066437602043151855e-01 -6.750742346048355103e-02 -1.020018830895423889e-01
-2.192571908235549927e-01 -1.532262377440929413e-02 9.034466743469238281e-01
2.344096004962921143e-01 2.896399497985839844e-01 -5.003704428672790527e-01
2.914738953113555908e-01 3.668757081031799316e-01 6.409332156181335449e-01
-1.742558479309082031e-01 -9.038146585226058960e-02 -5.737950801849365234e-01
-1.585150063037872314e-01 2.272761762142181396e-01 -6.787452697753906250e-01
3.189152777194976807e-01 -2.040927559137344360e-01 -2.877192199230194092e-01
-7.795190811157226562e-02 -2.040927559137344360e-01 5.709625482559204102e-01
-2.122332006692886353e-01 -2.135762125253677368e-01 -6.723613142967224121e-01
3.348446488380432129e-01 1.203081756830215454e-01 9.158572554588317871e-01
3.867034018039703369e-01 1.642641797661781311e-02 -4.885718524456024170e-01
4.484926816076040268e-03 8.478543162345886230e-02 3.784904181957244873e-01
3.238041698932647705e-01 2.390322089195251465e-01 -5.753995180130004883e-01
1.668877154588699341e-01 2.049193084239959717e-01 2.439472973346710205e-01
-3.316264152526855469e-01 8.478543162345886230e-02 -4.522425234317779541e-01
1.935535073280334473e-01 2.458121627569198608e-01 6.523677706718444824e-01
-2.498551905155181885e-01 -2.040927559137344360e-01 -1.009096652269363403e-01
-3.318985104560852051e-01 1.125193666666746140e-02 4.365433454513549805e-01
6.805713474750518799e-02 -9.038146585226058960e-02 -4.052068293094635010e-01
2.176775038242340088e-01 1.517320275306701660e-01 -5.863983035087585449e-01
-3.977432847023010254e-01 -2.040927559137344360e-01 -5.876009464263916016e-01
-9.842526912689208984e-02 -9.038146585226058960e-02 -1.308037340641021729e-01
3.784158229827880859e-01 1.854121088981628418e-01 -4.465848207473754883e-01
-4.322928786277770996e-01 -2.040927559137344360e-01 -4.985636472702026367e-01
-3.737914562225341797e-02 8.478543162345886230e-02 9.580899029970169067e-02
-3.739513754844665527e-01 5.296495929360389709e-02 -9.957535564899444580e-02
-7.241909205913543701e-02 -2.040927559137344360e-01 2.479037493467330933e-01
1.206266358494758606e-01 1.628576964139938354e-01 -4.842270910739898682e-01
1.398927271366119385e-01 -2.040927559137344360e-01 -6.725379079580307007e-02
3.867034018039703369e-01 -5.728827416896820068e-02 -2.165597677230834961e-02
-8.980631083250045776e-02 2.702451050281524658e-01 -5.623382329940795898e-01
-1.077491417527198792e-01 1.708567440509796143e-01 9.130259752273559570e-01
-2.346849590539932251e-01 -9.038146585226058960e-02 6.580699980258941650e-02
2.756152451038360596e-01 1.599150598049163818e-01 3.159242570400238037e-01
2.761661708354949951e-01 1.753254234790802002e-01 7.980626821517944336e-01
3.506326377391815186e-01 2.415100783109664917e-01 -1.499500498175621033e-02
3.867034018039703369e-01 -8.502003550529479980e-02 3.337379097938537598e-01
2.828435003757476807e-01 8.478543162345886230e-02 4.161259531974792480e-01
1.959509998559951782e-01 -9.038146585226058960e-02 -4.637332856655120850e-01
1.789332777261734009e-01 8.478543162345886230e-02 3.208867609500885010e-01
3.867034018039703369e-01 -3.186733648180961609e-02 1.249355897307395935e-01
-5.821046233177185059e-02 8.478543162345886230e-02 -5.959292054176330566e-01
-7.436865940690040588e-03 -1.296776384115219116e-01 -7.364621758460998535e-01
-3.215194046497344971e-01 -3.706211969256401062e-02 8.178178071975708008e-01
-8.161747455596923828e-02 7.984928041696548462e-02 9.152453541755676270e-01
3.458947837352752686e-01 -9.038146585226058960e-02 -4.073109328746795654e-01
2.511155009269714355e-01 -2.040927559137344360e-01 2.646800130605697632e-02
2.352200597524642944e-01 2.891432344913482666e-01 -3.910058736801147461e-01
3.201143699698150158e-04 -6.122215464711189270e-02 -6.211425662040710449e-01
-1.992629319429397583e-01 -9.038146585226058960e-02 -1.449223756790161133e-01
-2.358653098344802856e-01 -9.038146585226058960e-02 4.620839655399322510e-01
1.561619639396667480e-01 -9.038146585226058960e-02 2.014722377061843872e-01
-7.185798287391662598e-01 7.295117527246475220e-02 -2.118351757526397705e-01
4.120543971657752991e-02 8.478543162345886230e-02 5.060454010963439941e-01
3.867034018039703369e-01 -1.474089920520782471e-01 -4.732603132724761963e-01
-2.086166292428970337e-01 1.761048883199691772e-01 8.005124330520629883e-01
2.044903486967086792e-01 8.478543162345886230e-02 -4.607479870319366455e-01
-1.869094818830490112e-01 -9.038146585226058960e-02 5.870439410209655762e-01
2.976496517658233643e-01 -5.356596410274505615e-02 3.843743726611137390e-02
3.867034018039703369e-01 -1.202028989791870117e-01 6.577427387237548828e-01
3.547982275485992432e-01 -9.038146585226058960e-02 2.695537507534027100e-01
3.313917219638824463e-01 8.478543162345886230e-02 -5.387006327509880066e-02
3.867034018039703369e-01 7.300800830125808716e-02 7.021902203559875488e-01
1.001095026731491089e-01 -9.038146585226058960e-02 -1.528332978487014771e-01
2.330917418003082275e-01 -3.085062839090824127e-02 -1.028859391808509827e-01
-6.686044335365295410e-01 -9.038146585226058960e-02 -5.023525357246398926e-01
-2.028572261333465576e-01 8.478543162345886230e-02 -2.466239482164382935e-01
-7.226428389549255371e-01 -4.672777373343706131e-03 -3.458815813064575195e-01
2.890754640102386475e-01 1.568775326013565063e-01 5.760964155197143555e-01
1.569579094648361206e-01 8.478543162345886230e-02 5.184307694435119629e-01
3.267429471015930176e-01 2.704784274101257324e-01 6.300573796033859253e-02
3.337368965148925781e-01 8.478543162345886230e-02 5.316179394721984863e-01
-3.233591318130493164e-01 -1.231523230671882629e-01 2.796559631824493408e-01
3.152977228164672852e-01 -9.038146585226058960e-02 1.364812105894088745e-01
1.649221032857894897e-01 5.016301572322845459e-02 7.622320652008056641e-01
3.834780454635620117e-01 1.786989420652389526e-01 3.961220383644104004e-01
-1.488943547010421753e-01 -1.665683463215827942e-02 -7.729464173316955566e-01
1.962540596723556519e-01 2.011555582284927368e-01 4.913647845387458801e-02
3.867034018039703369e-01 -2.462238632142543793e-02 -2.651241123676300049e-01
2.417986243963241577e-01 1.910824179649353027e-01 -7.760556340217590332e-01
-2.552417814731597900e-01 -9.038146585226058960e-02 -2.079474776983261108e-01
1.324213892221450806e-01 -2.040927559137344360e-01 -5.667904019355773926e-01
3.920629096683114767e-04 -5.890880525112152100e-02 -7.622574567794799805e-01
1.733346134424209595e-01 4.424937069416046143e-02 9.125060439109802246e-01
2.443143911659717560e-02 8.478543162345886230e-02 3.131249248981475830e-01
-1.395785212516784668e-01 -1.601371765136718750e-01 7.513310313224792480e-01
3.867034018039703369e-01 2.421912550926208496e-02 2.379610016942024231e-02
3.867034018039703369e-01 -1.341511309146881104e-01 -3.538738489151000977e-01
3.867034018039703369e-01 5.437847226858139038e-02 -2.893817722797393799e-01
-1.804587095975875854e-01 -2.040927559137344360e-01 -5.706655383110046387e-01
3.867034018039703369e-01 4.408969730138778687e-02 1.808863580226898193e-01
3.788070082664489746e-01 6.892849504947662354e-02 8.649435639381408691e-01
2.932613790035247803e-01 -1.894860863685607910e-01 -7.051650285720825195e-01
-4.389913380146026611e-02 3.656866550445556641e-01 -7.160564064979553223e-01
3.504999876022338867e-01 8.478543162345886230e-02 9.270968288183212280e-02
2.251769304275512695e-01 2.288612872362136841e-01 7.337061762809753418e-01
1.028584837913513184e-01 -9.038146585226058960e-02 -5.772053599357604980e-01
2.939575612545013428e-01 6.540595740079879761e-02 -5.676657557487487793e-01
-1.791273206472396851e-01 1.041805967688560486e-01 -7.859341502189636230e-01
-1.559317018836736679e-02 -4.261275380849838257e-02 7.513310313224792480e-01
3.005797266960144043e-01 -1.264764666557312012e-01 -6.260837316513061523e-01
-6.386910080909729004e-01 -2.040927559137344360e-01 -5.250560641288757324e-01
-2.863423526287078857e-01 -8.859400451183319092e-02 8.831154704093933105e-01
5.883124470710754395e-02 -9.038146585226058960e-02 6.451965570449829102e-01
3.633056282997131348e-01 3.150459825992584229e-01 -8.694108575582504272e-02
-5.197169780731201172e-01 8.478543162345886230e-02 -4.401757121086120605e-01
1.436158120632171631e-01 -2.040927559137344360e-01 1.866351068019866943e-01
3.480891138315200806e-02 -9.038146585226058960e-02 -5.655781030654907227e-01
3.867034018039703369e-01 -1.173319295048713684e-01 5.027270317077636719e-01
3.455326259136199951e-01 3.775133490562438965e-01 4.383288919925689697e-01
4.793119803071022034e-02 -2.140439003705978394e-01 -6.578766107559204102e-01
-2.539994716644287109e-01 8.478543162345886230e-02 7.158411741256713867e-01
-4.043807461857795715e-02 8.478543162345886230e-02 -2.472891658544540405e-01
-3.153852522373199463e-01 -2.077035158872604370e-01 8.112546801567077637e-01
-1.215262711048126221e-01 -9.038146585226058960e-02 -4.700049161911010742e-01
-5.654193758964538574e-01 8.478543162345886230e-02 -1.810357719659805298e-01
1.208338439464569092e-01 -9.038146585226058960e-02 -2.509580254554748535e-01
-9.772383607923984528e-03 2.368448376655578613e-01 -5.522437691688537598e-01
2.215535938739776611e-01 9.572267532348632812e-02 -3.054779954254627228e-02
-2.703219652175903320e-01 1.336123943328857422e-01 9.156345725059509277e-01
2.363219708204269409e-01 5.408197641372680664e-02 -6.211425662040710449e-01
-5.383179187774658203e-01 -9.038146585226058960e-02 -1.261588186025619507e-01
-3.576637506484985352e-01 -9.038146585226058960e-02 -3.335745930671691895e-01
-2.467053234577178955e-01 -6.450291723012924194e-02 7.513310313224792480e-01
-2.753018736839294434e-01 8.478543162345886230e-02 4.387936592102050781e-01
1.676683686673641205e-02 -2.140439003705978394e-01 7.966789603233337402e-01
-9.809566289186477661e-02 8.478543162345886230e-02 2.197445370256900787e-02
1.175312139093875885e-02 8.478543162345886230e-02 -5.731365680694580078e-01
-4.657444357872009277e-01 -2.040927559137344360e-01 -1.454045921564102173e-01
-2.255723923444747925e-01 8.478543162345886230e-02 -5.690949559211730957e-01
-1.690938919782638550e-01 -9.038146585226058960e-02 2.562765479087829590e-01
8.182913810014724731e-02 1.077997833490371704e-01 7.513310313224792480e-01
-3.936859965324401855e-02 -9.038146585226058960e-02 -1.470390707254409790e-01
-2.025928944349288940e-01 -2.040927559137344360e-01 2.753761112689971924e-01
3.838701844215393066e-01 -2.006301581859588623e-01 5.898655652999877930e-01
-6.303878426551818848e-01 8.478543162345886230e-02 -4.651789367198944092e-01
-3.318985104560852051e-01 8.748129010200500488e-03 6.035881638526916504e-01
2.295216619968414307e-01 -2.040927559137344360e-01 -3.674144148826599121e-01
1.586514264345169067e-01 -7.366101443767547607e-02 7.602538466453552246e-01
3.501806035637855530e-02 -2.040927559137344360e-01 -3.258701786398887634e-02
3.141396641731262207e-01 2.496156245470046997e-01 3.373302817344665527e-01
2.683152854442596436e-01 8.478543162345886230e-02 7.118634581565856934e-01
1.561367660760879517e-01 -2.040927559137344360e-01 6.263284683227539062e-01
8.949993550777435303e-02 2.736214995384216309e-01 -6.298600435256958008e-01
1.410808414220809937e-01 8.478543162345886230e-02 6.685072183609008789e-01
-3.017982244491577148e-01 -2.040927559137344360e-01 8.212547749280929565e-02
1.045839786529541016e-01 -9.038146585226058960e-02 4.464034438133239746e-01
-1.824320852756500244e-01 3.998588770627975464e-02 -9.957535564899444580e-02
2.198164761066436768e-01 -6.743034720420837402e-02 -7.596120834350585938e-01
3.176342248916625977e-01 -9.038146585226058960e-02 7.280262112617492676e-01
2.599753737449645996e-01 3.385106027126312256e-01 5.168941020965576172e-01
-2.855851352214813232e-01 8.813853561878204346e-02 -7.854306101799011230e-01
2.341849356889724731e-01 -9.038146585226058960e-02 3.057272136211395264e-01
3.788070082664489746e-01 1.462001800537109375e-01 -6.641821265220642090e-01
-3.318985104560852051e-01 -5.141123011708259583e-02 -6.633972376585006714e-02
1.797727644443511963e-01 9.803214669227600098e-02 3.790878355503082275e-01
9.797849692404270172e-03 8.478543162345886230e-02 -3.887207210063934326e-01
-6.695992499589920044e-02 8.478543162345886230e-02 3.007501661777496338e-01
2.976496517658233643e-01 1.646095700562000275e-02 -6.964352726936340332e-02
2.976496517658233643e-01 6.790792196989059448e-02 -3.855292201042175293e-01
-6.127921342849731445e-01 -6.766126025468111038e-03 -6.320445537567138672e-01
-2.312940210103988647e-01 8.478543162345886230e-02 6.286649703979492188e-01
-7.220453768968582153e-02 1.898449510335922241e-01 8.437234163284301758e-01
-2.557384967803955078e-01 1.790988445281982422e-01 -6.797396540641784668e-01
-2.862600386142730713e-01 -9.038146585226058960e-02 -1.088370606303215027e-01
3.535849452018737793e-01 3.252198398113250732e-01 -1.983478665351867676e-01
1.901606023311614990e-01 8.547776192426681519e-02 2.084691077470779419e-01
2.976496517658233643e-01 -3.334378823637962341e-02 -4.925273358821868896e-01
-1.495961844921112061e-02 -2.040927559137344360e-01 -2.572364509105682373e-01
-1.992290467023849487e-01 -2.040927559137344360e-01 -4.081920683383941650e-01
-4.433963000774383545e-01 8.478543162345886230e-02 -4.494810104370117188e-01
-1.340306997299194336e-01 -9.038146585226058960e-02 6.550711989402770996e-01
1.108023449778556824e-01 -2.140439003705978394e-01 7.665970921516418457e-01
-6.016251817345619202e-02 -9.038146585226058960e-02 5.390138030052185059e-01
3.841771483421325684e-01 1.772194057703018188e-01 6.171800494194030762e-01
1.669961661100387573e-01 8.478543162345886230e-02 -3.601280152797698975e-01
-7.344601303339004517e-02 -9.038146585226058960e-02 1.594256460666656494e-01
-2.185241878032684326e-01 8.478543162345886230e-02 2.930425703525543213e-01
1.075024083256721497e-01 -9.038146585226058960e-02 5.486711859703063965e-02
-3.035362958908081055e-01 -9.038146585226058960e-02 6.233374476432800293e-01
-5.163831710815429688e-01 -9.038146585226058960e-02 -3.837679028511047363e-01
-1.657503545284271240e-01 -4.381924495100975037e-02 -9.957535564899444580e-02
1.014815717935562134e-01 8.478543162345886230e-02 -3.410917893052101135e-02
-7.121484875679016113e-01 -1.331325024366378784e-01 -5.507196784019470215e-01
-1.978879570960998535e-01 -2.040927559137344360e-01 -1.806358695030212402e-01
9.277567267417907715e-02 5.713897198438644409e-02 -6.320445537567138672e-01
-7.186892628669738770e-01 4.337809979915618896e-02 -6.218213438987731934e-01
3.514914810657501221e-01 -1.321562379598617554e-02 6.890776157379150391e-01
-5.209661126136779785e-01 8.478543162345886230e-02 -2.538958191871643066e-01
2.391464710235595703e-01 2.617454230785369873e-01 -5.811337232589721680e-01
-8.844570256769657135e-03 6.704556196928024292e-02 -1.010452210903167725e-01
-3.232303559780120850e-01 -9.038146585226058960e-02 -5.902860164642333984e-01
2.902364134788513184e-01 -9.038146585226058960e-02 5.104433298110961914e-01
-1.759290546178817749e-01 -2.040927559137344360e-01 -2.641064524650573730e-01
1.592837274074554443e-01 -1.393682956695556641e-01 -7.319421768188476562e-01
-5.100912451744079590e-01 7.357823848724365234e-02 -1.043170765042304993e-01
3.260515928268432617e-01 -2.040927559137344360e-01 -8.758500963449478149e-02
1.110347360372543335e-01 1.619261950254440308e-01 -6.408279538154602051e-01
-9.218888729810714722e-02 -2.040927559137344360e-01 1.305472105741500854e-01
-1.402888596057891846e-01 -9.038146585226058960e-02 -3.236447572708129883e-01
3.867034018039703369e-01 -1.548948585987091064e-01 -3.914525732398033142e-02
5.872667953372001648e-02 8.478543162345886230e-02 -5.150536298751831055e-01
3.867034018039703369e-01 -1.911641359329223633e-01 1.621983349323272705e-01
2.976496517658233643e-01 -2.331674285233020782e-02 6.222267746925354004e-01
-7.302852463908493519e-04 -2.040927559137344360e-01 5.111289024353027344e-01
3.784623146057128906e-01 -1.577048301696777344e-01 8.533279299736022949e-01
3.231225013732910156e-01 3.701410070061683655e-02 7.622320652008056641e-01
-3.668401017785072327e-02 -2.040927559137344360e-01 7.121529579162597656e-01
-2.485547661781311035e-01 -6.516367942094802856e-02 -7.603160142898559570e-01
-3.603139817714691162e-01 -9.038146585226058960e-02 -4.541888535022735596e-01
3.525082170963287354e-01 3.179818391799926758e-01 6.950016021728515625e-01
-1.189021170139312744e-01 2.010242082178592682e-02 9.096582531929016113e-01
-3.426368534564971924e-01 8.478543162345886230e-02 -3.601444959640502930e-01
1.882095038890838623e-01 -2.040927559137344360e-01 -1.879600286483764648e-01
1.826282590627670288e-01 -9.038146585226058960e-02 -2.703403234481811523e-01
2.212070859968662262e-02 8.478543162345886230e-02 2.136349380016326904e-01
3.257707655429840088e-01 7.053411751985549927e-02 -6.420866847038269043e-01
-2.017892152070999146e-01 -5.195511877536773682e-02 -6.211425662040710449e-01
3.365749716758728027e-01 3.352939188480377197e-01 -3.796255290508270264e-01
-2.411491051316261292e-02 -1.438805311918258667e-01 -6.211425662040710449e-01
-1.037026494741439819e-01 7.051785290241241455e-02 -6.288385391235351562e-01
-2.135190814733505249e-01 -2.040927559137344360e-01 6.282640695571899414e-01
2.507049441337585449e-01 -1.633644998073577881e-01 7.513310313224792480e-01
-1.400327384471893311e-01 3.745319843292236328e-01 -6.793978810310363770e-01
9.447985887527465820e-02 7.031654566526412964e-02 -7.846143245697021484e-01
-1.775770783424377441e-01 -2.040927559137344360e-01 3.822619020938873291e-01
-3.290711045265197754e-01 -7.622892409563064575e-02 4.673679172992706299e-01
1.046120598912239075e-01 -1.121680289506912231e-01 8.740348219871520996e-01
3.196550309658050537e-01 1.722346246242523193e-01 -1.650076359510421753e-01
3.867034018039703369e-01 5.179313197731971741e-02 5.241514444351196289e-01
-1.619294881820678711e-01 8.478543162345886230e-02 -3.695040047168731689e-01
2.657909393310546875e-01 1.605018526315689087e-01 7.106801867485046387e-01
3.859888017177581787e-01 1.714106202125549316e-01 1.951993070542812347e-02
-2.076580077409744263e-01 2.854656577110290527e-01 -6.876099109649658203e-01
3.129109144210815430e-01 -2.040927559137344360e-01 3.214222192764282227e-01
-7.138545513153076172e-01 -8.393845707178115845e-02 -4.102158248424530029e-01
2.429208606481552124e-01 8.478543162345886230e-02 9.739350527524948120e-02
1.880119740962982178e-01 2.353778779506683350e-01 5.325233340263366699e-01
-7.226428389549255371e-01 5.979247391223907471e-02 -4.829945266246795654e-01
2.939575612545013428e-01 4.769996926188468933e-02 -1.964229047298431396e-01
-5.708302259445190430e-01 -9.089927189052104950e-03 -9.957535564899444580e-02
3.306577503681182861e-01 2.924005687236785889e-01 2.660921216011047363e-01
2.976496517658233643e-01 5.711069703102111816e-02 6.493418812751770020e-01
2.976496517658233643e-01 -8.815827220678329468e-02 -1.183766573667526245e-01
1.269418448209762573e-01 -4.851448908448219299e-02 -9.957535564899444580e-02
-2.037122398614883423e-01 1.306823343038558960e-01 7.541400194168090820e-01
-4.193137586116790771e-02 -6.502512097358703613e-02 8.905422687530517578e-01
-3.524504899978637695e-01 -9.038146585226058960e-02 -1.472211033105850220e-01
3.788070082664489746e-01 1.503463983535766602e-01 7.643361687660217285e-01
8.585626631975173950e-02 -4.333645105361938477e-02 -6.320445537567138672e-01
-5.510957539081573486e-02 -9.038146585226058960e-02 -2.507576048374176025e-01
-1.708939373493194580e-01 -9.038146585226058960e-02 3.866240382194519043e-01
3.514914810657501221e-01 -5.755474790930747986e-02 5.611240863800048828e-02
3.275640606880187988e-01 -2.040927559137344360e-01 -2.022474631667137146e-02
6.536139547824859619e-02 4.187511652708053589e-02 -1.028859391808509827e-01
1.657489985227584839e-01 8.478543162345886230e-02 4.526053667068481445e-01
2.022352069616317749e-01 -1.984793692827224731e-02 9.023602604866027832e-01
2.220106124877929688e-01 2.357690632343292236e-01 1.312730461359024048e-01
1.990591883659362793e-01 -9.271505475044250488e-02 -6.211425662040710449e-01
-6.991568803787231445e-01 8.447857946157455444e-02 -3.267123103141784668e-01
-2.326418757438659668e-01 8.478543162345886230e-02 2.184712328016757965e-02
5.276780575513839722e-02 -7.934079505503177643e-03 7.513310313224792480e-01
2.715328931808471680e-01 1.195509657263755798e-01 -5.403854697942733765e-02
-1.046524420380592346e-01 -1.563337296247482300e-01 -7.239015102386474609e-01
-3.215194046497344971e-01 9.298698976635932922e-03 -7.188470363616943359e-01
2.940544188022613525e-01 -9.038146585226058960e-02 -1.756462603807449341e-01
1.749487519264221191e-01 1.070728898048400879e-01 -1.593896001577377319e-01
7.154104113578796387e-02 -9.038146585226058960e-02 1.750475615262985229e-01
-1.855606287717819214e-01 1.563130170106887817e-01 -6.358276605606079102e-01
-3.183346688747406006e-01 8.162435144186019897e-02 6.153703331947326660e-01
-6.339367032051086426e-01 -1.528623998165130615e-01 -9.640322625637054443e-02
-1.418673694133758545e-01 -2.040927559137344360e-01 -3.766935467720031738e-01
2.957082390785217285e-01 -5.987932160496711731e-02 -7.619563341140747070e-01
-2.812276408076286316e-02 -9.038146585226058960e-02 3.193791210651397705e-01
1.706834286451339722e-01 2.408642172813415527e-01 -4.623098671436309814e-01
-3.318985104560852051e-01 1.328941527754068375e-02 1.822845786809921265e-01
3.454212844371795654e-01 7.748851552605628967e-03 9.075173735618591309e-01
2.241757214069366455e-01 -9.038146585226058960e-02 6.203444004058837891e-01
-1.097625046968460083e-01 8.179786056280136108e-02 -1.121011674404144287e-01
3.133950531482696533e-01 1.915781944990158081e-01 4.921068251132965088e-01
2.905424237251281738e-01 -2.040927559137344360e-01 -5.924046635627746582e-01
2.255439013242721558e-01 -2.126185595989227295e-01 -6.786057949066162109e-01
-2.392979115247726440e-01 7.593467086553573608e-02 9.150661826133728027e-01
1.354966759681701660e-01 -9.038146585226058960e-02 3.992215096950531006e-01
2.700274251401424408e-02 8.478543162345886230e-02 -3.045732676982879639e-01
3.788070082664489746e-01 1.137772426009178162e-01 8.111453056335449219e-01
-7.933890447020530701e-03 -9.038146585226058960e-02 4.623705744743347168e-01
2.976496517658233643e-01 9.442293643951416016e-02 2.410685718059539795e-01
-1.972430795431137085e-01 8.478543162345886230e-02 3.712553381919860840e-01
3.224505186080932617e-01 3.467420339584350586e-01 1.979050487279891968e-01
2.976496517658233643e-01 1.220570318400859833e-02 -1.652090549468994141e-01
3.235359489917755127e-01 -2.040927559137344360e-01 -1.993200033903121948e-01
2.976496517658233643e-01 1.170940250158309937e-01 6.643542647361755371e-01
-2.622900009155273438e-01 -9.038146585226058960e-02 2.811955213546752930e-01
4.176802188158035278e-02 -9.038146585226058960e-02 -3.257294893264770508e-01
-6.566256880760192871e-01 -1.200566962361335754e-01 -6.260837316513061523e-01
2.997750639915466309e-01 -9.038146585226058960e-02 2.126802057027816772e-01
2.976496517658233643e-01 1.264489740133285522e-01 4.973840117454528809e-01
-3.477029502391815186e-01 7.827241718769073486e-02 -6.234296560287475586e-01
3.514914810657501221e-01 3.135428298264741898e-03 2.827273607254028320e-01
-5.126376822590827942e-02 -2.133486717939376831e-01 8.041697144508361816e-01
-8.444982022047042847e-02 6.142569333314895630e-02 7.616209983825683594e-01
-5.056555271148681641e-01 7.499600946903228760e-02 -6.265940666198730469e-01
-3.034327030181884766e-01 1.887701451778411865e-01 9.077004194259643555e-01
-6.512506604194641113e-01 -9.038146585226058960e-02 -3.007127046585083008e-01
-2.413603812456130981e-01 -9.038146585226058960e-02 -4.159965217113494873e-01
3.867034018039703369e-01 1.057057604193687439e-01 -3.553892076015472412e-01
-1.815159246325492859e-02 -9.038146585226058960e-02 -4.546916857361793518e-02
-3.297808468341827393e-01 6.925142556428909302e-02 1.111797466874122620e-01
1.500144694000482559e-02 1.610073000192642212e-01 -7.836218476295471191e-01
3.788070082664489746e-01 -1.928208917379379272e-01 7.697595357894897461e-01
3.438178002834320068e-01 3.416972160339355469e-01 1.081183925271034241e-01
2.392771989107131958e-01 -2.040927559137344360e-01 4.897054433822631836e-01
-3.182155787944793701e-01 -9.038146585226058960e-02 -2.579103708267211914e-01
-6.917020082473754883e-01 4.172929376363754272e-02 -9.957535564899444580e-02
2.976496517658233643e-01 1.722636818885803223e-01 -2.980363368988037109e-01
3.213573098182678223e-01 2.238300442695617676e-01 6.615239381790161133e-01
1.845174133777618408e-01 8.478543162345886230e-02 5.883782505989074707e-01
7.192544639110565186e-02 8.478543162345886230e-02 7.263513654470443726e-02
-3.233591318130493164e-01 -1.849699765443801880e-01 3.195137381553649902e-01
1.622418612241744995e-01 -1.621667146682739258e-01 -6.211425662040710449e-01
1.962163150310516357e-01 2.333715856075286865e-01 -2.322964556515216827e-02
3.867034018039703369e-01 5.755969882011413574e-02 -1.994730085134506226e-01
-3.318985104560852051e-01 -7.953057065606117249e-03 2.725874185562133789e-01
2.106205970048904419e-01 8.478543162345886230e-02 -5.384495258331298828e-01
-3.213993310928344727e-01 -1.016105059534311295e-02 7.657769322395324707e-01
-9.798972308635711670e-02 8.478543162345886230e-02 -1.946189701557159424e-01
-1.212542783468961716e-02 -2.074943631887435913e-01 -6.243010759353637695e-01
1.495436728000640869e-01 -2.040927559137344360e-01 -3.529810905456542969e-01
3.050503134727478027e-01 2.956811189651489258e-01 3.896296322345733643e-01
2.479182332754135132e-01 -4.928767308592796326e-02 -6.211425662040710449e-01
-2.779249846935272217e-01 8.478543162345886230e-02 -3.293015062808990479e-01
2.333599627017974854e-01 1.127348765730857849e-01 2.899398468434810638e-02
3.223595023155212402e-01 8.478543162345886230e-02 5.881932973861694336e-01
2.976496517658233643e-01 4.135262593626976013e-02 1.612450480461120605e-01
-2.598353624343872070e-01 -2.040927559137344360e-01 -5.023118853569030762e-01
3.069297671318054199e-01 1.915781944990158081e-01 -1.098705362528562546e-02
1.970935761928558350e-01 8.478543162345886230e-02 1.465526819229125977e-01
-4.390484839677810669e-02 -9.038146585226058960e-02 -4.710003137588500977e-01
5.025412514805793762e-02 -2.040927559137344360e-01 -5.824554562568664551e-01
3.867034018039703369e-01 -1.194793544709682465e-02 -6.096973419189453125e-01
1.252792775630950928e-01 -6.817448139190673828e-02 -7.593806385993957520e-01
-5.913702026009559631e-02 -9.038146585226058960e-02 8.258348703384399414e-02
-3.527767956256866455e-01 8.478543162345886230e-02 -1.867671012878417969e-01
2.493048310279846191e-01 1.121169105172157288e-01 9.159937500953674316e-01
-7.179747223854064941e-01 -7.971283793449401855e-02 -1.767907738685607910e-01
9.902115166187286377e-02 7.295610755681991577e-02 9.149296283721923828e-01
-5.189625546336174011e-02 -9.038146585226058960e-02 3.870956003665924072e-01
2.976496517658233643e-01 5.602010712027549744e-02 3.716242313385009766e-01
1.053179502487182617e-01 2.011110186576843262e-01 8.917971849441528320e-01
2.733610570430755615e-01 -9.038146585226058960e-02 2.527219653129577637e-01
-9.740614145994186401e-02 1.953603327274322510e-01 -7.308751344680786133e-01
-9.308098256587982178e-02 -2.040927559137344360e-01 -1.738674938678741455e-01
-5.838785320520401001e-02 8.478543162345886230e-02 4.270637631416320801e-01
-1.247645244002342224e-01 8.478543162345886230e-02 2.132021188735961914e-01
-2.992128729820251465e-01 -9.038146585226058960e-02 3.691948056221008301e-01
-2.024321556091308594e-01 -9.038146585226058960e-02 -2.241082787513732910e-01
-3.318985104560852051e-01 3.398117423057556152e-02 3.608239293098449707e-01
-3.175823092460632324e-01 -1.507583111524581909e-01 -6.266734004020690918e-01
2.492263913154602051e-01 -9.038146585226058960e-02 -3.324339389801025391e-01
-1.949569433927536011e-01 -1.066855639219284058e-01 7.513310313224792480e-01
-5.693342089653015137e-01 -2.040927559137344360e-01 -5.622317194938659668e-01
2.939575612545013428e-01 5.289088562130928040e-02 -2.719186544418334961e-01
-1.927289068698883057e-01 -2.040927559137344360e-01 7.128075361251831055e-01
-5.349966883659362793e-01 -2.040927559137344360e-01 -1.895189583301544189e-01
2.571750879287719727e-01 -9.038146585226058960e-02 1.329437345266342163e-01
9.015837311744689941e-02 -2.040927559137344360e-01 5.657414793968200684e-01
-6.991801857948303223e-01 8.447500318288803101e-02 -2.703344821929931641e-01
-2.474896460771560669e-01 -9.038146585226058960e-02 -5.995758175849914551e-01
1.181981638073921204e-01 -9.038146585226058960e-02 6.961752176284790039e-01
3.788070082664489746e-01 -1.337618976831436157e-01 -6.650061607360839844e-01
1.732222735881805420e-01 1.911821514368057251e-01 -7.759549021720886230e-01
2.725534737110137939e-01 -9.038146585226058960e-02 -4.493483006954193115e-01
-6.428391933441162109e-01 -9.038146585226058960e-02 -4.010179936885833740e-01
2.992773652076721191e-01 1.982797235250473022e-01 8.702478408813476562e-01
-1.277372837066650391e-01 1.038225293159484863e-01 7.513310313224792480e-01
-2.444598525762557983e-01 9.926235675811767578e-02 -6.211425662040710449e-01
2.430970966815948486e-01 8.478543162345886230e-02 4.408106207847595215e-01
1.480922102928161621e-01 1.579126417636871338e-01 -5.810185074806213379e-01
-2.837482988834381104e-01 8.478543162345886230e-02 4.126436635851860046e-02
-2.197306752204895020e-01 1.934847533702850342e-01 -7.249763011932373047e-01
1.934314966201782227e-01 2.305945158004760742e-01 3.861834704875946045e-01
-2.883408963680267334e-01 8.478543162345886230e-02 2.915117144584655762e-01
-2.766361832618713379e-01 -9.038146585226058960e-02 8.821473456919193268e-03
-7.822138816118240356e-02 -2.040927559137344360e-01 -4.889688193798065186e-01
-2.551071941852569580e-01 -1.391552686691284180e-01 7.513310313224792480e-01
-1.952772587537765503e-02 -9.038146585226058960e-02 6.949357986450195312e-01
-1.141631901264190674e-01 8.478543162345886230e-02 4.636758267879486084e-01
4.334149509668350220e-02 -9.038146585226058960e-02 -4.963191449642181396e-01
2.939575612545013428e-01 -1.381402742117643356e-02 -3.581294715404510498e-01
-2.504603564739227295e-01 1.780811697244644165e-01 8.067269921302795410e-01
1.300771534442901611e-01 -9.038146585226058960e-02 -4.097713530063629150e-01
3.867034018039703369e-01 -1.657416522502899170e-01 3.230934739112854004e-01
-5.703528523445129395e-01 -7.758937776088714600e-02 -6.280997395515441895e-01
4.400186613202095032e-02 -6.946385651826858521e-02 8.891643881797790527e-01
-5.159280896186828613e-01 -9.038146585226058960e-02 -5.476773381233215332e-01
-2.237557061016559601e-02 8.478543162345886230e-02 6.561179757118225098e-01
-3.461594879627227783e-01 -2.040927559137344360e-01 -2.502105236053466797e-01
2.939575612545013428e-01 -3.459326550364494324e-02 -5.566882491111755371e-01
6.681191176176071167e-02 -9.038146585226058960e-02 -8.001199364662170410e-02
-5.611511468887329102e-01 -9.038146585226058960e-02 -2.749154865741729736e-01
-9.865823388099670410e-02 -1.915163733065128326e-02 7.513310313224792480e-01
1.870417296886444092e-01 -2.040927559137344360e-01 9.793110191822052002e-02
3.511942327022552490e-01 -5.107116326689720154e-02 -1.028859391808509827e-01
1.945634186267852783e-01 -2.040927559137344360e-01 7.255086302757263184e-01
1.264944970607757568e-01 1.485444158315658569e-01 -3.450836837291717529e-01
-1.799309998750686646e-01 1.488300710916519165e-01 9.147737622261047363e-01
2.795745730400085449e-01 -2.162049151957035065e-02 7.622320652008056641e-01
4.620763286948204041e-02 1.918405890464782715e-01 8.500008583068847656e-01
-3.215194046497344971e-01 -7.678569108247756958e-02 -6.705777049064636230e-01
-6.277453899383544922e-02 -2.040927559137344360e-01 -7.003278285264968872e-02
-2.833357751369476318e-01 -9.038146585226058960e-02 1.580505669116973877e-01
3.514914810657501221e-01 -6.358671933412551880e-02 5.508433580398559570e-01
2.521990537643432617e-01 8.478543162345886230e-02 2.013608813285827637e-01
1.907377243041992188e-01 -9.038146585226058960e-02 -3.368021920323371887e-02
3.144592046737670898e-01 -9.038146585226058960e-02 6.689758896827697754e-01
3.820275366306304932e-01 -9.218442440032958984e-02 -2.122883498668670654e-01
1.727594286203384399e-01 1.191287860274314880e-01 -1.022981926798820496e-01
-1.945647746324539185e-01 -5.621279403567314148e-02 -7.630950808525085449e-01
2.538722455501556396e-01 3.260380327701568604e-01 6.909948587417602539e-01
3.314411044120788574e-01 -9.038146585226058960e-02 4.555422067642211914e-01
-6.496114134788513184e-01 8.478543162345886230e-02 -1.706973165273666382e-01
-3.237851858139038086e-01 -9.038146585226058960e-02 -5.136340856552124023e-01
1.678637564182281494e-01 1.225060895085334778e-01 8.803274482488632202e-02
2.312045544385910034e-01 1.410895287990570068e-01 3.760522603988647461e-01
8.503030985593795776e-02 1.603837162256240845e-01 -7.836712002754211426e-01
3.651019930839538574e-02 -9.038146585226058960e-02 -1.562610566616058350e-01
1.848679333925247192e-01 -9.038146585226058960e-02 -5.586122274398803711e-01
3.514914810657501221e-01 5.785202234983444214e-02 3.946017920970916748e-01
-2.286805808544158936e-01 1.590368151664733887e-01 -7.837777137756347656e-01
1.724311709403991699e-01 -9.038146585226058960e-02 7.086032629013061523e-01
-3.318985104560852051e-01 -5.511300638318061829e-02 1.389519870281219482e-01
1.080882251262664795e-01 -9.038146585226058960e-02 5.185208916664123535e-01
3.867034018039703369e-01 -3.628642112016677856e-02 2.571460902690887451e-01
2.978665530681610107e-01 1.915781944990158081e-01 -4.505354464054107666e-01
-1.911146007478237152e-02 -2.040927559137344360e-01 3.403155207633972168e-01
3.478962481021881104e-01 1.915781944990158081e-01 7.814658433198928833e-02
-1.292172223329544067e-01 8.478543162345886230e-02 -5.935640633106231689e-02
-3.890489935874938965e-01 -1.946255378425121307e-02 -9.957535564899444580e-02
3.788070082664489746e-01 -4.051107540726661682e-02 8.905645012855529785e-01
3.867034018039703369e-01 -7.345379889011383057e-02 7.453624606132507324e-01
-7.226428389549255371e-01 -6.181803718209266663e-02 -5.287240147590637207e-01
1.268449872732162476e-01 8.478543162345886230e-02 1.732504069805145264e-01
1.980579942464828491e-01 8.478543162345886230e-02 2.559453845024108887e-01
-1.426518857479095459e-01 -7.290090620517730713e-02 -6.211425662040710449e-01
2.221597433090209961e-01 2.610133588314056396e-01 -1.082173511385917664e-01
-9.548905305564403534e-03 -1.979818791151046753e-01 -6.990106105804443359e-01
3.197325170040130615e-01 8.478543162345886230e-02 3.271193429827690125e-02
-6.424847245216369629e-01 -2.040927559137344360e-01 -3.135745227336883545e-01
2.154291421175003052e-01 3.746949136257171631e-02 -9.957535564899444580e-02
3.867034018039703369e-01 1.090559512376785278e-01 4.307974874973297119e-01
2.629635334014892578e-01 1.256259232759475708e-01 -7.855806946754455566e-01
9.769167751073837280e-02 8.478543162345886230e-02 3.132217526435852051e-01
2.853523790836334229e-01 -9.038146585226058960e-02 4.305748045444488525e-01
-4.537831246852874756e-01 -9.038146585226058960e-02 -1.400722116231918335e-01
-5.584825277328491211e-01 8.478543162345886230e-02 -6.000405550003051758e-01
8.266477286815643311e-02 -2.040927559137344360e-01 -3.762452602386474609e-01
-2.346239835023880005e-01 -2.040927559137344360e-01 1.139799971133470535e-02
-1.156990975141525269e-01 -2.040927559137344360e-01 -5.925527811050415039e-01
3.867034018039703369e-01 -1.542606055736541748e-01 4.531098306179046631e-01
2.345480471849441528e-01 8.478543162345886230e-02 -3.751733601093292236e-01
3.211684823036193848e-01 2.362979762256145477e-02 -7.800837159156799316e-01
3.788070082664489746e-01 -1.611045002937316895e-01 -7.132387161254882812e-01
8.911166340112686157e-02 -2.040927559137344360e-01 1.037901341915130615e-01
2.385829091072082520e-01 -1.459410637617111206e-01 8.590630888938903809e-01
-2.171114385128021240e-01 4.330493509769439697e-03 7.622320652008056641e-01
-2.283968776464462280e-01 8.478543162345886230e-02 -1.738984882831573486e-01
2.311861515045166016e-01 1.604495495557785034e-01 7.947227358818054199e-02
2.265422195196151733e-01 -9.038146585226058960e-02 -4.008592069149017334e-01
2.104753553867340088e-01 -2.040927559137344360e-01 2.272152304649353027e-01
-3.311645388603210449e-01 -7.000571489334106445e-02 6.469561904668807983e-02
3.608790934085845947e-01 1.915781944990158081e-01 -6.175444126129150391e-01
-3.318985104560852051e-01 -5.256766080856323242e-02 4.026454091072082520e-01
-4.508153498172760010e-01 -1.716162711381912231e-01 -9.640322625637054443e-02
-3.180344998836517334e-01 1.153186988085508347e-02 -1.003335267305374146e-01
3.735433816909790039e-01 1.887672394514083862e-01 -3.755112588405609131e-01
-3.017701506614685059e-01 -2.040927559137344360e-01 6.124731898307800293e-01
9.783790260553359985e-02 -2.040927559137344360e-01 -1.273062527179718018e-01
2.734541520476341248e-02 1.252143979072570801e-01 7.528309226036071777e-01
2.340687662363052368e-01 2.941705882549285889e-01 1.829526871442794800e-01
3.559204638004302979e-01 -9.038146585226058960e-02 -6.722957640886306763e-02
-4.308588504791259766e-01 8.478543162345886230e-02 -6.020769476890563965e-01
6.851126253604888916e-02 2.064550220966339111e-01 -6.399767994880676270e-01
-9.834469854831695557e-02 8.478543162345886230e-02 -4.239113330841064453e-01
-6.416568756103515625e-01 8.478543162345886230e-02 -4.072073101997375488e-01
-7.226428389549255371e-01 -6.343585997819900513e-02 -2.454300373792648315e-01
-4.028064906597137451e-01 -3.807504847645759583e-02 -6.320445537567138672e-01
2.197854816913604736e-01 -9.558098390698432922e-03 -7.743397951126098633e-01
3.867034018039703369e-01 1.427065879106521606e-01 -2.241479903459548950e-01
2.736612260341644287e-01 -2.040927559137344360e-01 -5.197750926017761230e-01
3.414474129676818848e-01 1.825106516480445862e-02 -1.028859391808509827e-01
-3.580975830554962158e-01 -2.040927559137344360e-01 -5.012148618698120117e-01
-3.239672183990478516e-01 -9.038146585226058960e-02 -3.936841785907745361e-01
-3.233591318130493164e-01 -1.687288284301757812e-01 1.703997701406478882e-01
3.971330821514129639e-02 8.464358001947402954e-02 9.154641032218933105e-01
3.307729661464691162e-01 -9.038146585226058960e-02 4.264017101377248764e-03
-1.410786956548690796e-01 -2.040927559137344360e-01 3.094231486320495605e-01
6.258434057235717773e-02 8.478543162345886230e-02 -5.840037465095520020e-01
-6.559226512908935547e-01 -2.040927559137344360e-01 -6.001848578453063965e-01
3.545377552509307861e-01 1.915781944990158081e-01 -5.120412707328796387e-01
-7.226428389549255371e-01 -5.862354487180709839e-02 -2.994917035102844238e-01
2.976496517658233643e-01 1.262979209423065186e-01 -4.542450010776519775e-01
2.607006430625915527e-01 1.854053288698196411e-01 -6.995702385902404785e-01
3.514914810657501221e-01 -6.423324346542358398e-02 2.269828468561172485e-01
2.648807466030120850e-01 -2.040927559137344360e-01 -2.370272129774093628e-01
1.269061677157878876e-02 -1.711222156882286072e-02 9.030167460441589355e-01
3.867034018039703369e-01 3.563719242811203003e-02 -5.554759502410888672e-01
1.379687488079071045e-01 8.478543162345886230e-02 6.110788583755493164e-01
3.514914810657501221e-01 5.401904135942459106e-02 2.729495763778686523e-01
2.503999769687652588e-01 5.014481022953987122e-02 7.622320652008056641e-01
2.594563663005828857e-01 8.478543162345886230e-02 -1.602765619754791260e-01
-1.641371995210647583e-01 -9.038146585226058960e-02 3.310654461383819580e-01
-1.784282028675079346e-01 3.370513021945953369e-02 -6.320445537567138672e-01
2.976496517658233643e-01 1.490111351013183594e-01 -8.659443259239196777e-02
-3.024605214595794678e-01 1.101131644099950790e-02 -7.779031395912170410e-01
-5.288304015994071960e-02 -2.327849529683589935e-02 -7.713565230369567871e-01
3.465745151042938232e-01 3.846157789230346680e-01 6.858270764350891113e-01
1.695369631052017212e-01 -2.135936319828033447e-01 8.024296760559082031e-01
-3.033968508243560791e-01 -9.038146585226058960e-02 -5.470763519406318665e-02
-1.663071364164352417e-01 -2.040927559137344360e-01 5.459012389183044434e-01
2.712288796901702881e-01 2.960771620273590088e-01 -3.324542641639709473e-01
4.900212213397026062e-02 5.801818147301673889e-02 7.621400356292724609e-01
-2.216265797615051270e-01 -1.803734898567199707e-01 8.407284617424011230e-01
1.076437830924987793e-01 1.203653961420059204e-01 -5.511525273323059082e-01
-3.081569671630859375e-01 -2.040927559137344360e-01 -6.327991932630538940e-02
6.356716901063919067e-02 -9.038146585226058960e-02 -3.841062076389789581e-03
2.976496517658233643e-01 1.098436564207077026e-01 -1.634393259882926941e-02
2.976496517658233643e-01 -2.048942819237709045e-02 3.442041873931884766e-01
-3.215194046497344971e-01 -1.306420564651489258e-01 8.419291973114013672e-01
3.788070082664489746e-01 -1.007673591375350952e-01 8.657433390617370605e-01
-3.215194046497344971e-01 1.714677512645721436e-01 -7.132532000541687012e-01
-8.272732794284820557e-02 -9.038146585226058960e-02 -4.038173258304595947e-01
-3.233591318130493164e-01 -1.326076835393905640e-01 4.772580564022064209e-01
1.858528144657611847e-02 1.385071128606796265e-01 -5.258491039276123047e-01
-2.866580188274383545e-01 8.478543162345886230e-02 -4.919860363006591797e-01
5.342624709010124207e-02 8.478543162345886230e-02 -4.479385316371917725e-01
-3.934130966663360596e-01 -2.040927559137344360e-01 -4.427126348018646240e-01
2.754806280136108398e-01 -9.038146585226058960e-02 6.411423683166503906e-01
-1.438579708337783813e-01 8.478543162345886230e-02 3.278187513351440430e-01
-5.256679281592369080e-02 1.667395681142807007e-01 7.777401804924011230e-01
-4.768614172935485840e-01 8.478543162345886230e-02 -3.019008040428161621e-01
3.788070082664489746e-01 -5.691693723201751709e-02 -6.919556260108947754e-01
3.514914810657501221e-01 1.240730192512273788e-02 1.349489688873291016e-01
2.758185565471649170e-01 -2.642272971570491791e-02 9.007819294929504395e-01
-3.280805051326751709e-01 -7.815872877836227417e-02 5.678514242172241211e-01
2.641555070877075195e-01 8.478543162345886230e-02 5.539700388908386230e-01
-1.193157732486724854e-01 -2.040927559137344360e-01 -3.103201091289520264e-01
-4.822131395339965820e-01 8.478543162345886230e-02 -3.914774060249328613e-01
3.867034018039703369e-01 -8.098420500755310059e-02 -5.605013370513916016e-01
-6.131784319877624512e-01 -9.038146585226058960e-02 -1.511562317609786987e-01
-4.395608901977539062e-01 -1.667622327804565430e-01 -6.260837316513061523e-01
1.152390614151954651e-01 1.201052218675613403e-01 -4.321001768112182617e-01
-1.837857514619827271e-01 -5.026961490511894226e-02 7.622320652008056641e-01
-2.294716686010360718e-01 -5.725544691085815430e-02 -9.957535564899444580e-02
3.867034018039703369e-01 4.993585497140884399e-02 -4.541882127523422241e-02
3.175112605094909668e-01 -1.325147300958633423e-01 8.653240799903869629e-01
-1.493227183818817139e-01 -9.038146585226058960e-02 1.157624721527099609e-01
3.867034018039703369e-01 -1.161786913871765137e-01 1.310813426971435547e-01
2.976496517658233643e-01 -6.122350320219993591e-02 1.614995300769805908e-01
2.285136729478836060e-01 1.320214867591857910e-01 7.545796632766723633e-01
3.167046606540679932e-01 -2.040927559137344360e-01 5.841951966285705566e-01
-1.630188077688217163e-01 2.626459300518035889e-01 -5.816633701324462891e-01
-3.215194046497344971e-01 -2.125225029885768890e-02 8.818557262420654297e-01
3.867034018039703369e-01 1.587879657745361328e-01 2.060416042804718018e-01
1.068410724401473999e-01 -4.937007278203964233e-02 7.513310313224792480e-01
6.296681612730026245e-02 1.779282279312610626e-02 -6.320445537567138672e-01
9.888849407434463501e-02 -1.703497469425201416e-01 8.463000655174255371e-01
2.006200850009918213e-01 -9.038146585226058960e-02 3.830568790435791016e-01
8.906033635139465332e-02 -2.040927559137344360e-01 6.516725420951843262e-01
3.040200471878051758e-01 -9.038146585226058960e-02 3.123599588871002197e-01
1.957883238792419434e-01 2.700223624706268311e-01 3.318226635456085205e-01
-6.636438369750976562e-01 -9.038146585226058960e-02 -1.417715698480606079e-01
9.514992684125900269e-02 -9.038146585226058960e-02 5.792811512947082520e-01
3.215151429176330566e-01 8.478543162345886230e-02 3.177039623260498047e-01
-1.226689759641885757e-02 -2.040927559137344360e-01 2.183572947978973389e-01
2.694045901298522949e-01 -9.038146585226058960e-02 6.898763775825500488e-02
3.031979799270629883e-01 2.328535318374633789e-01 1.093614920973777771e-01
-3.065834939479827881e-01 -1.936022937297821045e-01 7.515643835067749023e-01
-1.525069475173950195e-01 -2.011026889085769653e-01 -6.964640021324157715e-01
6.958412379026412964e-02 3.388155996799468994e-01 -6.492598056793212891e-01
2.754883766174316406e-01 1.912644654512405396e-01 -5.754120945930480957e-01
-5.352309942245483398e-01 -9.038146585226058960e-02 -1.805438697338104248e-01
3.075941838324069977e-02 -9.038146585226058960e-02 5.862799286842346191e-01
-1.212697941809892654e-02 1.613752394914627075e-01 -6.403147578239440918e-01
