8.679176121950149536e-02 3.784815222024917603e-02 -6.113602519035339355e-01
7.115513831377029419e-02 2.924156561493873596e-02 -4.400371909141540527e-01
-8.926984667778015137e-02 -7.487551122903823853e-02 -3.171105682849884033e-01
-1.267519742250442505e-01 7.202723622322082520e-02 -6.433312296867370605e-01
-1.785863339900970459e-01 5.699067935347557068e-02 -6.040315032005310059e-01
-2.395214289426803589e-01 -2.264334075152873993e-02 -4.662283658981323242e-01
-1.994061022996902466e-01 7.771015167236328125e-02 -4.129877388477325439e-01
-7.336405664682388306e-02 -7.487551122903823853e-02 -9.457777738571166992e-01
2.120855748653411865e-01 1.412543002516031265e-02 -9.472672939300537109e-01
-6.900833547115325928e-02 4.481535777449607849e-02 -8.882221579551696777e-01
-2.342639565467834473e-01 7.904488593339920044e-02 2.261418402194976807e-01
2.196363061666488647e-01 3.353980183601379395e-02 2.133504897356033325e-01
-3.300246596336364746e-02 4.081482812762260437e-02 -1.156599000096321106e-01
-1.073295697569847107e-01 -7.487551122903823853e-02 -5.644771456718444824e-01
6.127476692199707031e-02 -7.487551122903823853e-02 -3.423910140991210938e-01
-2.395214289426803589e-01 8.822969160974025726e-03 -5.674502849578857422e-01
9.881000965833663940e-02 4.287985712289810181e-02 -4.884167611598968506e-01
1.696492433547973633e-01 -7.487551122903823853e-02 -8.306090235710144043e-01
1.125881299376487732e-01 4.543376713991165161e-02 6.210312619805335999e-02
-8.024603128433227539e-02 6.685994565486907959e-02 1.202224642038345337e-01
2.595742344856262207e-01 -7.089093327522277832e-02 1.895030885934829712e-01
5.003032833337783813e-02 -7.487551122903823853e-02 -1.339000016450881958e-01
1.137486472725868225e-01 4.259552806615829468e-02 8.885043263435363770e-01
-1.404858082532882690e-01 -7.487551122903823853e-02 -6.705570220947265625e-01
-1.687463074922561646e-01 5.589736253023147583e-02 8.247843980789184570e-01
-2.063205838203430176e-01 8.086830377578735352e-02 -1.379305720329284668e-01
2.482208758592605591e-01 3.036391735076904297e-02 3.767164945602416992e-01
2.455054223537445068e-01 2.934205532073974609e-02 6.459096670150756836e-01
1.130668148398399353e-01 -7.487551122903823853e-02 2.630105316638946533e-01
-1.300818771123886108e-01 7.239718735218048096e-02 -5.626387596130371094e-01
-6.061105057597160339e-02 -4.742112755775451660e-02 9.656568169593811035e-01
2.122411727905273438e-01 1.356539316475391388e-02 3.192005157470703125e-01
-1.079023852944374084e-01 4.913698509335517883e-02 7.846938967704772949e-01
-1.648614257574081421e-01 5.546576902270317078e-02 -5.129173398017883301e-01
1.526380479335784912e-01 -7.487551122903823853e-02 -8.568986505270004272e-02
-2.395214289426803589e-01 4.054496809840202332e-02 -1.943524330854415894e-01
1.465120259672403336e-02 3.551989793777465820e-02 2.227663546800613403e-01
-2.395214289426803589e-01 -1.297969184815883636e-02 6.578526496887207031e-01
2.595742344856262207e-01 -2.585619315505027771e-02 1.052917167544364929e-02
-6.696549803018569946e-02 4.458840936422348022e-02 -4.075618088245391846e-01
1.647693514823913574e-01 -7.487551122903823853e-02 -3.583140373229980469e-01
9.347999840974807739e-02 1.979289017617702484e-02 -9.475388526916503906e-01
-5.854691937565803528e-02 4.365306347608566284e-02 5.497011914849281311e-02
2.006965428590774536e-01 -7.487551122903823853e-02 -5.521138906478881836e-01
2.160497307777404785e-01 1.314241625368595123e-02 6.824978590011596680e-01
-3.824566304683685303e-02 6.219274550676345825e-02 -1.533491611480712891e-01
-9.508130699396133423e-02 -7.487551122903823853e-02 6.279153227806091309e-01
8.642120659351348877e-02 4.793643951416015625e-02 7.512344121932983398e-01
1.199188679456710815e-01 3.733142092823982239e-02 -3.420372009277343750e-01
-4.421548545360565186e-02 -7.487551122903823853e-02 -2.080218642950057983e-01
-1.920000612735748291e-01 -7.487551122903823853e-02 6.830617189407348633e-01
7.947719842195510864e-02 -7.487551122903823853e-02 -3.448243439197540283e-02
-1.478977948427200317e-01 -7.487551122903823853e-02 -5.635604262351989746e-01
9.947053343057632446e-02 2.824110910296440125e-02 -2.550674974918365479e-01
-2.621463499963283539e-02 -7.487551122903823853e-02 4.575635492801666260e-01
2.130404673516750336e-02 3.478068113327026367e-02 -2.844914793968200684e-01
-5.929828039370477200e-04 5.800937488675117493e-02 -5.832206606864929199e-01
-1.445193439722061157e-01 5.320550128817558289e-02 -6.239107847213745117e-01
-1.491365879774093628e-01 5.371856316924095154e-02 6.403073668479919434e-01
2.595742344856262207e-01 -2.241649292409420013e-02 -8.403935432434082031e-01
2.595742344856262207e-01 -9.798176586627960205e-03 -2.372733950614929199e-01
-1.236163303256034851e-01 5.444866046309471130e-02 -4.496324360370635986e-01
1.081150025129318237e-02 3.773180022835731506e-02 -2.230896204710006714e-01
-2.395214289426803589e-01 1.824439130723476410e-02 2.882334589958190918e-01
-2.054345905780792236e-01 -7.487551122903823853e-02 1.949131786823272705e-01
7.656551897525787354e-02 3.002498112618923187e-02 -7.820975780487060547e-01
-2.395214289426803589e-01 -7.283138483762741089e-02 3.022028133273124695e-02
-2.395214289426803589e-01 -6.634532660245895386e-02 -1.535159815102815628e-02
1.133314147591590881e-01 2.644990384578704834e-02 -5.877130627632141113e-01
2.053574025630950928e-01 2.859233506023883820e-02 -8.160297870635986328e-01
-9.812775999307632446e-02 4.805090650916099548e-02 4.959366023540496826e-01
-2.353640049695968628e-01 6.329924613237380981e-02 -4.916743338108062744e-01
2.541601955890655518e-01 8.907901123166084290e-03 8.750787377357482910e-01
-1.141578480601310730e-01 -7.487551122903823853e-02 -8.108278512954711914e-01
2.248442173004150391e-01 -7.487551122903823853e-02 6.445628404617309570e-01
3.747266530990600586e-02 5.331481248140335083e-02 1.473858803510665894e-01
2.394065558910369873e-01 3.134326264262199402e-02 -1.837483197450637817e-01
2.483328580856323242e-01 -7.487551122903823853e-02 7.832073569297790527e-01
-2.131062448024749756e-01 6.082620471715927124e-02 -7.237105369567871094e-01
-1.819444634020328522e-02 5.996498465538024902e-02 -7.864789962768554688e-01
2.243516743183135986e-01 1.221985742449760437e-02 -4.769663214683532715e-01
1.384295076131820679e-01 -7.487551122903823853e-02 1.946109086275100708e-01
8.183993399143218994e-02 4.884938523173332214e-02 2.239992171525955200e-01
-2.395214289426803589e-01 -3.998996224254369736e-03 8.326225280761718750e-01
-2.147365063428878784e-01 6.100746244192123413e-02 -7.743160128593444824e-01
-1.796848885715007782e-02 3.914432972669601440e-02 8.847503066062927246e-01
-1.045249253511428833e-01 -7.487551122903823853e-02 6.618564724922180176e-01
-2.082263678312301636e-01 8.107958734035491943e-02 4.702211022377014160e-01
-3.534220904111862183e-02 6.187016889452934265e-02 2.652664203196763992e-03
1.293486058712005615e-01 -7.487551122903823853e-02 -5.616566538810729980e-01
6.824654061347246170e-03 3.638953715562820435e-02 9.061478376388549805e-01
1.289690434932708740e-01 -7.487551122903823853e-02 4.347379207611083984e-01
-7.363480329513549805e-02 4.570779204368591309e-02 -7.812998294830322266e-01
-8.001055568456649780e-02 6.624332815408706665e-02 -5.209301412105560303e-02
2.555664479732513428e-01 -7.487551122903823853e-02 7.034494280815124512e-01
-4.445413127541542053e-02 4.208712279796600342e-02 -3.796530961990356445e-01
-2.085504233837127686e-01 -7.487551122903823853e-02 9.065363407135009766e-01
-1.023902297019958496e-01 -7.487551122903823853e-02 -2.577809691429138184e-01
-2.395214289426803589e-01 3.601432964205741882e-02 -1.191701665520668030e-01
-1.018104702234268188e-01 6.925568729639053345e-02 -5.083723664283752441e-01
1.333940327167510986e-01 2.232618629932403564e-02 -2.294184118509292603e-01
1.048916205763816833e-01 -7.487551122903823853e-02 3.320024162530899048e-02
2.159208953380584717e-01 1.315649040043354034e-02 -5.214639902114868164e-01
-2.805430442094802856e-02 6.106048822402954102e-02 7.090805768966674805e-01
-9.204179048538208008e-02 6.201277673244476318e-02 -4.435652792453765869e-01
2.595742344856262207e-01 7.719842717051506042e-03 8.102380037307739258e-01
1.906366087496280670e-02 -2.338791079819202423e-02 -9.475388526916503906e-01
-4.009415209293365479e-02 4.160270467400550842e-02 2.484749108552932739e-01
-1.100460141897201538e-01 -7.487551122903823853e-02 5.552324652671813965e-01
4.241415590513497591e-04 5.789639428257942200e-02 -6.742130517959594727e-01
-1.157380058430135250e-03 3.727631643414497375e-02 -4.753300845623016357e-01
4.171391949057579041e-02 -7.487551122903823853e-02 -6.655097007751464844e-01
-4.019820690155029297e-02 -7.487551122903823853e-02 -1.295463740825653076e-01
1.459356397390365601e-01 -7.487551122903823853e-02 -3.437886759638786316e-02
-1.338250339031219482e-01 7.281312346458435059e-02 8.159255385398864746e-01
-2.242316603660583496e-01 8.285830914974212646e-02 1.986097544431686401e-01
-7.527676224708557129e-02 5.171993374824523926e-02 8.118939995765686035e-01
1.531345546245574951e-01 4.092889651656150818e-02 4.737383127212524414e-01
1.539808958768844604e-01 -7.487551122903823853e-02 -7.233180403709411621e-01
-2.232961058616638184e-01 -7.487551122903823853e-02 -3.522588014602661133e-01
-1.693637222051620483e-01 5.596594512462615967e-02 8.802053928375244141e-01
-1.504090875387191772e-01 7.156352698802947998e-02 2.241815626621246338e-01
9.658896364271640778e-03 3.718524053692817688e-02 3.971438109874725342e-01
1.715001091361045837e-02 -7.487551122903823853e-02 1.664188057184219360e-01
-2.395214289426803589e-01 5.828160792589187622e-02 6.541630625724792480e-01
5.209377035498619080e-02 5.215480178594589233e-02 2.115229964256286621e-01
-1.443369984626770020e-01 7.398127019405364990e-02 2.839591205120086670e-01
1.385018527507781982e-01 4.255459457635879517e-02 -1.346554979681968689e-02
1.718325018882751465e-01 3.162174299359321594e-02 2.283161729574203491e-01
-6.659099459648132324e-02 4.454678297042846680e-02 4.273516833782196045e-01
-7.047219574451446533e-02 5.269065871834754944e-02 2.264936566352844238e-01
1.996153146028518677e-01 -7.487551122903823853e-02 -4.080454111099243164e-01
4.308839142322540283e-02 5.315545573830604553e-02 -5.064685940742492676e-01
-4.753131046891212463e-02 6.322452425956726074e-02 -5.282467007637023926e-01
-2.395214289426803589e-01 -5.776916444301605225e-02 9.019812196493148804e-02
-1.293257027864456177e-01 5.151736363768577576e-02 -3.966930508613586426e-01
-2.395214289426803589e-01 3.144950047135353088e-02 4.844514429569244385e-01
-2.395214289426803589e-01 -4.760416969656944275e-02 5.199633836746215820e-01
-5.542861297726631165e-02 4.330659657716751099e-02 6.427085995674133301e-01
1.973547637462615967e-01 -7.487551122903823853e-02 3.411401510238647461e-01
7.575981318950653076e-02 4.952507466077804565e-02 -3.736038208007812500e-01
-4.439952597022056580e-02 -7.487551122903823853e-02 -1.496588625013828278e-02
-2.359834015369415283e-01 -7.487551122903823853e-02 -9.107980728149414062e-01
-1.141831092536449432e-02 -7.487551122903823853e-02 1.509516388177871704e-01
2.595742344856262207e-01 -4.998038709163665771e-02 4.975232183933258057e-01
1.724816262722015381e-01 -7.487551122903823853e-02 7.970888018608093262e-01
1.177356019616127014e-01 -7.487551122903823853e-02 -1.929164379835128784e-01
-1.556957885622978210e-02 -7.487551122903823853e-02 -3.612316548824310303e-01
1.020500138401985168e-01 -7.487551122903823853e-02 8.231043815612792969e-02
-6.368465721607208252e-02 4.422390460968017578e-02 -3.457625210285186768e-01
-7.614412158727645874e-02 4.560828953981399536e-02 -4.710924029350280762e-01
-1.004041731357574463e-01 6.909950822591781616e-02 5.547280907630920410e-01
1.968037337064743042e-01 -2.751787006855010986e-02 -9.475388526916503906e-01
-2.317249029874801636e-01 8.369078487157821655e-02 -9.228273034095764160e-01
-4.951575770974159241e-03 3.769790753722190857e-02 -5.461102128028869629e-01
-9.087186306715011597e-03 5.895313620567321777e-02 3.823227882385253906e-01
1.501753032207489014e-01 2.046144381165504456e-02 -5.932787060737609863e-01
1.731376945972442627e-01 -7.487551122903823853e-02 -7.956659197807312012e-01
1.159041672945022583e-01 2.426961623132228851e-02 5.380468964576721191e-01
1.853998303413391113e-01 1.654763147234916687e-02 -1.734266430139541626e-01
-2.101083546876907349e-01 6.049311533570289612e-02 3.087182641029357910e-01
-1.282593458890914917e-01 7.219471782445907593e-02 -8.014684915542602539e-01
-1.111405994743108749e-02 -7.487551122903823853e-02 -7.812126278877258301e-01
-1.198711842298507690e-01 7.126265019178390503e-02 -8.841935396194458008e-01
-2.329404093325138092e-02 5.177602544426918030e-02 -7.297320365905761719e-01
-2.395214289426803589e-01 4.081462696194648743e-02 -6.794030666351318359e-01
1.823573547881096601e-04 3.712756186723709106e-02 5.220148563385009766e-01
-1.991137564182281494e-01 -7.487551122903823853e-02 -3.728030323982238770e-01
1.042905598878860474e-01 4.635563120245933533e-02 -6.951913833618164062e-01
4.974619671702384949e-02 3.162055462598800659e-02 4.332137107849121094e-01
2.043564617633819580e-01 -7.487551122903823853e-02 8.673664331436157227e-01
2.455034404993057251e-01 -7.487551122903823853e-02 -7.609696388244628906e-01
1.777351349592208862e-01 -7.487551122903823853e-02 -6.418169140815734863e-01
-1.771641969680786133e-01 5.683270841836929321e-02 -2.519823908805847168e-01
1.199426427483558655e-01 -7.487551122903823853e-02 -3.041487634181976318e-01
-1.558003425598144531e-01 -7.487551122903823853e-02 -7.376375794410705566e-01
1.278085261583328247e-01 -7.487551122903823853e-02 5.410863757133483887e-01
-1.743208914995193481e-01 -4.831157624721527100e-02 9.656568169593811035e-01
-1.509343385696411133e-01 7.003564387559890747e-02 -7.259204983711242676e-01
-1.650645881891250610e-01 5.548826232552528381e-02 4.182142913341522217e-01
-1.510730981826782227e-01 6.963387131690979004e-02 -3.558651804924011230e-01
2.046686261892318726e-01 -7.487551122903823853e-02 -2.933523654937744141e-01
1.435908377170562744e-01 4.198921099305152893e-02 -4.331236779689788818e-01
-2.430757880210876465e-02 -7.487551122903823853e-02 -7.748474180698394775e-02
1.582433581352233887e-01 4.036132618784904480e-02 4.577079042792320251e-02
-2.228580713272094727e-01 8.270569145679473877e-02 -5.287504568696022034e-02
-2.395214289426803589e-01 2.487672679126262665e-02 -6.010454893112182617e-01
1.918673664331436157e-01 3.662500530481338501e-02 2.685385346412658691e-01
-3.740486130118370056e-02 -7.487551122903823853e-02 8.067950606346130371e-01
9.170533716678619385e-02 -7.487551122903823853e-02 6.419315934181213379e-01
2.430273406207561493e-02 3.444749489426612854e-02 -1.231690123677253723e-01
-2.395214289426803589e-01 2.839125134050846100e-02 -3.536287322640419006e-02
-1.589290648698806763e-01 6.223684921860694885e-02 -1.325680464506149292e-01
-2.045753747224807739e-01 -7.487551122903823853e-02 1.556234061717987061e-01
-1.925926953554153442e-01 7.934299111366271973e-02 -7.107704877853393555e-01
-2.395214289426803589e-01 -2.868546871468424797e-03 -2.826798558235168457e-01
-1.779074668884277344e-01 5.691526085138320923e-02 -8.500899076461791992e-01
-2.204954326152801514e-01 6.164728105068206787e-02 -5.445225834846496582e-01
2.595742344856262207e-01 -7.282593846321105957e-02 -4.787462055683135986e-01
-1.086050346493721008e-01 5.471198260784149170e-02 8.843073248863220215e-01
1.650329828262329102e-01 -7.487551122903823853e-02 -9.350487589836120605e-01
1.154611632227897644e-01 4.370797052979469299e-02 -7.469840645790100098e-01
-4.791662469506263733e-02 6.326723098754882812e-02 1.199806556105613708e-01
-1.498055458068847656e-01 7.331895828247070312e-02 4.701566994190216064e-01
2.020240575075149536e-02 3.490307554602622986e-02 1.833990402519702911e-02
-3.255580365657806396e-02 -7.487551122903823853e-02 -2.795888185501098633e-01
-5.598229821771383286e-03 3.776985779404640198e-02 6.470721960067749023e-01
-2.395214289426803589e-01 3.951884433627128601e-02 -9.139009714126586914e-01
-2.395214289426803589e-01 -4.511160776019096375e-02 7.965635657310485840e-01
-9.062162786722183228e-02 -7.487551122903823853e-02 7.455607056617736816e-01
2.259333729743957520e-01 -7.487551122903823853e-02 -7.933181524276733398e-01
-1.593452841043472290e-01 6.354175508022308350e-02 -1.707541197538375854e-02
-1.073969677090644836e-01 -7.487551122903823853e-02 -6.296756267547607422e-01
2.595742344856262207e-01 -5.223936215043067932e-02 8.927080035209655762e-02
1.646038591861724854e-01 3.965461626648902893e-02 -5.422649383544921875e-01
2.246901206672191620e-02 5.544663965702056885e-02 -9.336285591125488281e-01
-1.287469416856765747e-01 5.145294964313507080e-02 -7.114493846893310547e-01
-3.968624025583267212e-02 -7.487551122903823853e-02 8.513651490211486816e-01
5.021753534674644470e-02 -7.487551122903823853e-02 -9.091340899467468262e-01
2.070699185132980347e-01 1.413989905267953873e-02 -3.251042962074279785e-01
2.206511348485946655e-01 -7.487551122903823853e-02 -1.341715455055236816e-01
-1.056576892733573914e-01 6.968322396278381348e-02 7.648017406463623047e-01
-1.874432563781738281e-01 7.877046614885330200e-02 7.381547093391418457e-01
-2.395214289426803589e-01 3.186910599470138550e-02 -7.450941801071166992e-01
-1.261127591133117676e-01 5.116039514541625977e-02 -1.584341824054718018e-01
-1.625978946685791016e-01 -7.487551122903823853e-02 -1.660523116588592529e-01
3.999198600649833679e-02 3.270425647497177124e-02 -1.664982736110687256e-01
-1.127584949135780334e-01 -7.487551122903823853e-02 -7.123283743858337402e-01
8.549697697162628174e-02 2.764816954731941223e-02 6.395323276519775391e-01
3.864337876439094543e-02 -7.487551122903823853e-02 -2.876779809594154358e-02
2.070927023887634277e-01 1.413751952350139618e-02 6.428162753582000732e-02
-1.876989454030990601e-01 -7.487551122903823853e-02 5.488997697830200195e-01
2.595742344856262207e-01 -3.087898157536983490e-02 -6.265796422958374023e-01
1.311503052711486816e-01 3.609757497906684875e-02 7.206172347068786621e-01
-1.752277016639709473e-01 5.661755055189132690e-02 1.216307431459426880e-01
-1.769481450319290161e-01 -7.487551122903823853e-02 2.528444230556488037e-01
-1.405829191207885742e-01 -7.487551122903823853e-02 -1.146202981472015381e-01
-8.997149765491485596e-02 -7.487551122903823853e-02 -7.678665965795516968e-02
3.835766809061169624e-03 3.672163560986518860e-02 2.561693489551544189e-01
2.595742344856262207e-01 -7.409367710351943970e-02 2.642106711864471436e-01
-1.453399211168289185e-01 7.409266382455825806e-02 9.551329612731933594e-01
1.638685017824172974e-01 -7.487551122903823853e-02 4.114821553230285645e-01
2.011444866657257080e-01 3.559432923793792725e-02 4.414611458778381348e-01
2.060848325490951538e-01 -7.487551122903823853e-02 -9.237588644027709961e-01
1.115108802914619446e-01 4.555348306894302368e-02 -1.191285401582717896e-01
1.860728487372398376e-02 -7.487551122903823853e-02 -7.279193997383117676e-01
2.590187452733516693e-02 3.579927235841751099e-02 -6.142987012863159180e-01
-3.947366029024124146e-02 4.153382778167724609e-02 3.128598034381866455e-01
-2.395214289426803589e-01 6.187908723950386047e-02 -3.359809517860412598e-01
-2.176015973091125488e-01 6.132578849792480469e-02 -1.123012751340866089e-01
2.594840526580810547e-01 8.316350169479846954e-03 7.641962766647338867e-01
2.291383892297744751e-01 3.230645135045051575e-02 4.180993437767028809e-01
3.877449035644531250e-02 -7.487551122903823853e-02 -8.406961709260940552e-02
8.396828919649124146e-02 4.861292243003845215e-02 6.855687499046325684e-02
1.591055691242218018e-01 4.026549309492111206e-02 -7.296270132064819336e-01
-6.547766178846359253e-02 -1.707151718437671661e-02 9.656568169593811035e-01
-2.395214289426803589e-01 -2.656944468617439270e-02 -1.306484043598175049e-01
1.976867467164993286e-01 3.597855195403099060e-02 -4.621879160404205322e-01
-1.045368164777755737e-01 4.876306653022766113e-02 -3.475027978420257568e-01
-1.077319234609603882e-01 4.911795631051063538e-02 -5.748453736305236816e-01
-1.678811162710189819e-01 5.580123513936996460e-02 -3.145794570446014404e-01
2.481049299240112305e-01 3.037679754197597504e-02 -7.769630551338195801e-01
2.354077249765396118e-01 1.181204523891210556e-02 -8.223774433135986328e-01
-2.068319767713546753e-01 6.012910604476928711e-02 2.348748743534088135e-01
-1.860667169094085693e-01 7.861804217100143433e-02 -8.541769385337829590e-01
-1.750205755233764648e-01 -7.487551122903823853e-02 1.126003861427307129e-01
-9.034314006567001343e-02 6.798151135444641113e-02 3.687970936298370361e-01
1.153907924890518188e-01 -7.487551122903823853e-02 6.046447157859802246e-01
-1.571432054042816162e-01 -3.247639629989862442e-03 -9.475388526916503906e-01
2.595742344856262207e-01 -3.892682492733001709e-02 -3.585162162780761719e-01
-7.125017046928405762e-02 -7.487551122903823853e-02 4.322702288627624512e-01
2.595742344856262207e-01 -5.481646582484245300e-02 8.503522872924804688e-01
1.116932258009910583e-01 -7.487551122903823853e-02 5.001713037490844727e-01
7.890843786299228668e-03 -7.487551122903823853e-02 -3.244918584823608398e-01
2.387237399816513062e-01 1.062299497425556183e-02 -2.679718434810638428e-01
2.557879500091075897e-02 3.430557623505592346e-02 -6.947255134582519531e-01
-1.558399796485900879e-01 5.606356263160705566e-02 6.971649080514907837e-02
-1.638436168432235718e-01 7.614837586879730225e-02 7.046218514442443848e-01
1.918832361698150635e-01 1.593328639864921570e-02 8.824391961097717285e-01
-1.423261761665344238e-01 -7.487551122903823853e-02 -2.719023227691650391e-01
-3.050524555146694183e-02 -8.467664942145347595e-03 -9.475388526916503906e-01
1.769244670867919922e-01 1.870988123118877411e-02 8.332073092460632324e-01
-2.348516434431076050e-01 7.704328000545501709e-02 8.471868634223937988e-01
-1.572542041540145874e-01 -7.487551122903823853e-02 -4.693098366260528564e-02
-9.244018793106079102e-02 -7.487551122903823853e-02 4.902718365192413330e-01
2.595742344856262207e-01 -4.168657213449478149e-02 -4.206464886665344238e-01
1.481605321168899536e-01 -7.487551122903823853e-02 -5.940824747085571289e-01
6.948206573724746704e-02 2.942768111824989319e-02 7.679958343505859375e-01
-8.617305010557174683e-02 -7.487551122903823853e-02 -8.822640180587768555e-01
-2.395214289426803589e-01 -3.644595295190811157e-02 5.904678702354431152e-01
2.595742344856262207e-01 -3.882256522774696350e-02 1.727317124605178833e-01
-1.150775328278541565e-01 -7.487551122903823853e-02 -3.804053068161010742e-01
-2.395214289426803589e-01 1.660857908427715302e-02 -8.071987032890319824e-01
1.361401975154876709e-01 2.202124334871768951e-02 4.518412947654724121e-01
-1.717818528413772583e-01 -7.487551122903823853e-02 -3.858332633972167969e-01
8.824869245290756226e-02 4.250742495059967041e-02 -6.707743555307388306e-02
-8.215189725160598755e-02 6.533454358577728271e-02 -3.589086830615997314e-01
-1.302612423896789551e-01 -7.487551122903823853e-02 -3.262142539024353027e-01
-1.676402986049652100e-01 7.657016068696975708e-02 3.872700929641723633e-01
-2.395214289426803589e-01 -2.203598851338028908e-03 -4.913086295127868652e-01
-6.862767040729522705e-02 5.805287882685661316e-02 9.383675456047058105e-01
6.566378474235534668e-02 -7.487551122903823853e-02 -8.392469286918640137e-01
-3.277056291699409485e-02 4.078895971179008484e-02 -5.841208621859550476e-02
1.679278165102005005e-02 5.512286722660064697e-02 -8.420842289924621582e-01
3.779118135571479797e-02 3.294884413480758667e-02 1.694147139787673950e-01
2.095356285572052002e-01 -7.487551122903823853e-02 2.419092804193496704e-01
-1.001247093081474304e-01 4.827279970049858093e-02 7.442029714584350586e-01
-3.917436674237251282e-02 4.150053113698959351e-02 3.919775187969207764e-01
-1.039218809455633163e-02 -1.954257674515247345e-02 9.656568169593811035e-01
-2.395214289426803589e-01 -4.695553705096244812e-02 2.844407856464385986e-01
1.085386499762535095e-01 4.588370025157928467e-02 1.526800096035003662e-01
2.595742344856262207e-01 -3.144571324810385704e-03 -4.976116716861724854e-01
2.022346407175064087e-01 -7.487551122903823853e-02 4.073218107223510742e-01
1.505320817232131958e-01 -4.869991447776556015e-03 9.656568169593811035e-01
1.632946878671646118e-01 -7.487551122903823853e-02 -4.872651696205139160e-01
-2.015313878655433655e-02 3.938703611493110657e-02 -3.987008929252624512e-01
-1.156116873025894165e-01 -6.068569794297218323e-02 -9.475388526916503906e-01
-1.828468143939971924e-01 -7.487551122903823853e-02 6.547051668167114258e-01
2.803895436227321625e-02 -7.487551122903823853e-02 2.199983745813369751e-01
-2.395214289426803589e-01 -1.063585747033357620e-03 -4.423690736293792725e-01
2.282851040363311768e-01 -3.097788803279399872e-02 -9.475388526916503906e-01
2.547379732131958008e-01 2.344170212745666504e-02 7.261403203010559082e-01
-1.745845079421997070e-01 -7.487551122903823853e-02 -8.797388672828674316e-01
-1.728482246398925781e-01 5.635314434766769409e-02 7.546257376670837402e-01
2.163926362991333008e-01 1.310416311025619507e-02 5.854918956756591797e-01
-1.101074516773223877e-01 4.938197135925292969e-02 -7.776815295219421387e-01
-6.018877029418945312e-02 4.383531957864761353e-02 -7.385671734809875488e-01
6.751227378845214844e-02 2.964630536735057831e-02 -5.885475277900695801e-01
-7.557784020900726318e-02 4.554535821080207825e-02 -1.955317854881286621e-01
2.386087626218795776e-01 -7.487551122903823853e-02 -6.673243045806884766e-01
-1.042821183800697327e-01 6.953030824661254883e-02 -2.930154204368591309e-01
-2.250819653272628784e-01 6.215687468647956848e-02 -4.389708042144775391e-01
-2.332560569047927856e-01 8.197242021560668945e-02 -3.171204924583435059e-01
-1.402469575405120850e-01 7.352677732706069946e-02 3.580522239208221436e-01
-2.395214289426803589e-01 4.059005901217460632e-02 1.563171297311782837e-01
1.805258989334106445e-01 2.918031625449657440e-02 -2.287940531969070435e-01
1.404532045125961304e-01 -7.487551122903823853e-02 3.057649731636047363e-01
2.706753648817539215e-02 5.493566021323204041e-02 -2.236465960741043091e-01
-1.602858006954193115e-01 6.648425012826919556e-02 -2.764987349510192871e-01
9.110447019338607788e-02 -7.487551122903823853e-02 -8.182120919227600098e-01
-1.942269355058670044e-01 -7.487551122903823853e-02 -2.513947188854217529e-01
-1.905210956465452909e-04 3.716878965497016907e-02 -7.918980121612548828e-01
2.595742344856262207e-01 1.105612609535455704e-03 6.320169568061828613e-02
2.163490206003189087e-01 -7.487551122903823853e-02 -6.095410138368606567e-02
-2.206356450915336609e-02 -7.487551122903823853e-02 -1.801766008138656616e-01
2.473170459270477295e-01 -7.487551122903823853e-02 -2.627827525138854980e-01
-2.371449023485183716e-01 6.911011040210723877e-02 8.843459486961364746e-01
5.004856362938880920e-02 -1.766247302293777466e-02 -9.475388526916503906e-01
-4.426186904311180115e-02 4.206581786274909973e-02 -1.770905107259750366e-01
-1.121777370572090149e-01 7.040807604789733887e-02 1.084954962134361267e-01
1.081462949514389038e-01 2.513152174651622772e-02 -9.124266356229782104e-02
-1.671418100595474243e-01 7.651536166667938232e-02 -5.332603454589843750e-01
-6.564583629369735718e-02 -7.487551122903823853e-02 -2.337165623903274536e-01
-2.213883697986602783e-01 -7.487551122903823853e-02 -4.989227950572967529e-01
1.829331368207931519e-01 3.617913648486137390e-02 -2.644318342208862305e-01
1.558732055127620697e-02 3.541583940386772156e-02 -4.275966584682464600e-01
2.484250366687774658e-01 -7.487551122903823853e-02 -9.428760409355163574e-01
1.891734264791011810e-02 3.504588454961776733e-02 6.010492444038391113e-01
1.440338194370269775e-01 3.682212531566619873e-02 -6.754894852638244629e-01
2.595742344856262207e-01 -5.006095767021179199e-02 -1.199164241552352905e-01
-7.377631962299346924e-02 4.534516856074333191e-02 4.799035787582397461e-01
1.932805925607681274e-01 3.042833320796489716e-02 7.894548773765563965e-01
-4.243141785264015198e-02 -7.487551122903823853e-02 -4.959506988525390625e-01
2.149031013250350952e-01 1.326976530253887177e-02 4.779284298419952393e-01
1.358062177896499634e-01 4.285409301519393921e-02 1.489259451627731323e-01
1.043743640184402466e-02 -7.487551122903823853e-02 -2.822725474834442139e-01
-1.916859000921249390e-01 7.924230396747589111e-02 -1.934149116277694702e-01
1.897554695606231689e-01 -7.487551122903823853e-02 -2.282076887786388397e-02
8.010888099670410156e-02 2.824685722589492798e-02 1.630601733922958374e-01
-6.681199371814727783e-02 6.333135068416595459e-02 7.340388894081115723e-01
-1.582819074392318726e-01 6.021324545145034790e-02 -4.803169965744018555e-01
1.804089546203613281e-01 1.710221730172634125e-02 -3.738684058189392090e-01
1.969008594751358032e-01 3.606586158275604248e-02 5.393233299255371094e-01
-2.006676942110061646e-01 -7.487551122903823853e-02 6.202318668365478516e-01
1.533991545438766479e-01 2.010357938706874847e-02 7.177749276161193848e-01
-2.029669135808944702e-01 -3.012361004948616028e-02 -9.475388526916503906e-01
5.524904653429985046e-02 5.180466920137405396e-02 9.450154304504394531e-01
2.289609909057617188e-01 1.170778740197420120e-02 8.418600559234619141e-01
1.301583927124738693e-02 -7.487551122903823853e-02 -4.679627120494842529e-01
8.425302058458328247e-02 -7.487551122903823853e-02 9.133824110031127930e-01
2.328815460205078125e-01 3.206820413470268250e-02 1.246335878968238831e-01
-6.183637678623199463e-02 4.401846602559089661e-02 -5.512537360191345215e-01
1.758363097906112671e-01 -7.487551122903823853e-02 -1.692999452352523804e-01
3.812496736645698547e-02 -7.487551122903823853e-02 1.170263662934303284e-01
2.595742344856262207e-01 -6.145980209112167358e-02 -3.249377906322479248e-01
2.551462650299072266e-01 2.216345816850662231e-02 -3.181253969669342041e-01
-3.726611658930778503e-02 -6.149622611701488495e-03 9.656568169593811035e-01
1.986272484064102173e-01 2.506817108951508999e-04 9.656568169593811035e-01
2.455123662948608398e-01 3.066489659249782562e-02 4.672866463661193848e-01
-1.808112114667892456e-01 5.723794922232627869e-02 7.879831790924072266e-01
1.780017316341400146e-01 2.184057608246803284e-02 -3.069048523902893066e-01
1.949286907911300659e-01 -7.487551122903823853e-02 -5.115090012550354004e-01
4.858093336224555969e-02 4.376059398055076599e-02 -2.029011696577072144e-01
1.669090092182159424e-01 1.860225573182106018e-02 -4.666862189769744873e-01
1.306538134813308716e-01 -7.487551122903823853e-02 -3.484660983085632324e-01
1.863363683223724365e-01 -7.487551122903823853e-02 5.592590570449829102e-01
2.507450580596923828e-01 9.287270717322826385e-03 -5.888022184371948242e-01
1.284933388233184814e-01 -7.487551122903823853e-02 9.351740777492523193e-02
1.998164951801300049e-01 3.574179485440254211e-02 -7.569013833999633789e-01
-4.676602780818939209e-02 4.234410077333450317e-02 8.632632344961166382e-02
-2.096584141254425049e-01 6.044317036867141724e-02 -6.618716120719909668e-01
-2.395214289426803589e-01 -4.715007543563842773e-02 -5.764958262443542480e-02
2.556903660297393799e-01 8.737838827073574066e-03 5.962992310523986816e-01
1.373522281646728516e-01 2.188636176288127899e-02 -8.213328719139099121e-01
-2.395214289426803589e-01 -6.740048527717590332e-02 8.146054744720458984e-01
-1.272365897893905640e-01 7.208105176687240601e-02 9.022817611694335938e-01
-1.662290543317794800e-01 5.561769381165504456e-02 3.312842547893524170e-01
-1.077418327331542969e-01 -7.487551122903823853e-02 1.012274995446205139e-01
-2.395214289426803589e-01 4.239186644554138184e-02 9.164893031120300293e-01
-2.395214289426803589e-01 -6.224033981561660767e-02 -8.438066840171813965e-01
1.221050992608070374e-01 -7.487551122903823853e-02 -1.339346915483474731e-01
6.273595988750457764e-02 -7.487551122903823853e-02 -6.848993897438049316e-01
1.417167782783508301e-01 2.140164561569690704e-02 -9.378980398178100586e-01
-2.260849028825759888e-01 8.306425064802169800e-02 -3.845082223415374756e-01
-5.506638437509536743e-02 4.326616227626800537e-02 -6.040216088294982910e-01
1.511832028627395630e-01 2.034955844283103943e-02 1.315946578979492188e-01
1.035789996385574341e-01 4.643471911549568176e-02 8.561320304870605469e-01
1.288183927536010742e-01 -7.487551122903823853e-02 -5.315290689468383789e-01
5.641589686274528503e-02 3.087915666401386261e-02 -7.395443320274353027e-01
1.807340234518051147e-01 1.706634089350700378e-02 6.851390004158020020e-01
-2.395214289426803589e-01 6.838114466518163681e-03 2.582158744335174561e-01
-1.217373088002204895e-01 -7.487551122903823853e-02 -5.636281147599220276e-02
2.553375363349914551e-01 2.156645432114601135e-02 2.447922229766845703e-01
-1.261513978242874146e-01 -7.487551122903823853e-02 9.654655456542968750e-01
2.244448214769363403e-01 -7.487551122903823853e-02 -3.914798609912395477e-03
1.444282680749893188e-01 -7.487551122903823853e-02 7.903478145599365234e-01
6.422678381204605103e-02 -7.487551122903823853e-02 1.316342949867248535e-01
2.068063020706176758e-01 3.496531397104263306e-02 -2.897390127182006836e-01
1.336675584316253662e-01 -7.487551122903823853e-02 7.421733140945434570e-01
2.246841788291931152e-02 3.465135022997856140e-02 3.623652458190917969e-01
7.937204837799072266e-02 -7.487551122903823853e-02 5.499978065490722656e-01
3.649976337328553200e-03 -7.487551122903823853e-02 5.005716681480407715e-01
-1.231762990355491638e-01 5.083414167165756226e-02 2.872979342937469482e-01
-3.519365563988685608e-02 4.105822741985321045e-02 5.415016412734985352e-01
-6.720622628927230835e-02 -7.487551122903823853e-02 -3.721876144409179688e-01
6.253348290920257568e-02 5.099469050765037537e-02 9.021694958209991455e-02
-3.007443994283676147e-02 6.128495559096336365e-02 8.208886384963989258e-01
2.595742344856262207e-01 -2.439490519464015961e-02 6.366593241691589355e-01
2.595742344856262207e-01 -5.313375731930136681e-04 5.262514948844909668e-01
-2.047517746686935425e-01 -7.487551122903823853e-02 2.901778817176818848e-01
1.978036910295486450e-01 3.596547245979309082e-02 -3.887716829776763916e-01
3.615398332476615906e-02 5.392599105834960938e-02 -2.705673873424530029e-01
2.080599814653396606e-01 3.482597321271896362e-02 -5.425949692726135254e-01
1.096249297261238098e-01 2.496740594506263733e-02 5.935014486312866211e-01
-9.012809395790100098e-02 -7.487551122903823853e-02 4.051454663276672363e-01
4.404117912054061890e-02 3.225422650575637817e-02 -4.469130039215087891e-01
1.482734978199005127e-01 2.067283354699611664e-02 -3.339513242244720459e-01
9.963563829660415649e-02 2.607717178761959076e-02 -8.651338815689086914e-01
-8.308169990777969360e-02 1.693780347704887390e-02 -9.475388526916503906e-01
1.126931905746459961e-01 -7.487551122903823853e-02 -2.491014450788497925e-01
2.534461393952369690e-02 3.934124857187271118e-02 -7.845137715339660645e-01
-2.395214289426803589e-01 4.042287170886993408e-02 5.683211684226989746e-01
4.358579590916633606e-02 3.230496495962142944e-02 4.735916256904602051e-01
-1.753793358802795410e-01 7.743008434772491455e-02 4.327657520771026611e-01
2.003704905509948730e-01 -7.487551122903823853e-02 -3.800227642059326172e-01
-8.839753270149230957e-02 6.776526570320129395e-02 9.245445132255554199e-01
-5.145206302404403687e-02 4.286469519138336182e-02 7.781550288200378418e-01
3.578839451074600220e-02 3.317133337259292603e-02 9.373527169227600098e-01
-2.395214289426803589e-01 -2.175249531865119934e-02 -6.701497435569763184e-01
-1.126237064599990845e-01 4.966154322028160095e-02 2.223114669322967529e-01
5.556508898735046387e-02 3.205551952123641968e-02 -3.656229674816131592e-01
-2.395214289426803589e-01 3.625197708606719971e-02 -6.216287612915039062e-02
2.352947294712066650e-01 1.100405026227235794e-02 9.405309557914733887e-01
-1.285378187894821167e-01 5.142975598573684692e-02 8.972717821598052979e-02
2.197284698486328125e-01 -7.487551122903823853e-02 4.794655442237854004e-01
2.259373366832733154e-01 3.283973038196563721e-02 -3.627965152263641357e-01
-1.888792812824249268e-01 -7.487551122903823853e-02 -2.970350682735443115e-01
6.331779807806015015e-02 5.090757831931114197e-02 -3.056402802467346191e-01
-1.886642277240753174e-01 5.811045691370964050e-02 6.142449378967285156e-01
-2.395214289426803589e-01 7.465289672836661339e-04 -6.406081467866897583e-02
1.225778236985206604e-01 2.352811954915523529e-02 -9.177194833755493164e-01
1.668009907007217407e-01 3.941042348742485046e-02 -5.699030756950378418e-01
-1.526260375976562500e-01 5.410625785589218140e-02 -7.379827648401260376e-02
-2.395214289426803589e-01 3.391550481319427490e-02 -3.298612833023071289e-01
6.434104405343532562e-03 4.727650806307792664e-02 1.582724452018737793e-01
-2.395214289426803589e-01 -4.522190988063812256e-02 -7.137465476989746094e-01
1.123126298189163208e-01 2.466860786080360413e-02 -8.330588340759277344e-01
-1.873966902494430542e-01 -7.487551122903823853e-02 3.508424460887908936e-01
-5.750484019517898560e-02 -7.487551122903823853e-02 -8.706291913986206055e-01
2.383996546268463135e-01 3.145504742860794067e-02 -8.880180120468139648e-01
-2.395214289426803589e-01 4.663044959306716919e-02 -6.272872686386108398e-01
7.010889798402786255e-02 -7.487551122903823853e-02 -2.535234689712524414e-01
1.731327474117279053e-01 -2.090367116034030914e-02 9.656568169593811035e-01
2.492753565311431885e-01 -7.487551122903823853e-02 9.353775382041931152e-01
5.106259509921073914e-02 3.147427737712860107e-02 7.328575253486633301e-01
-1.939266473054885864e-01 5.869527161121368408e-02 8.185151219367980957e-01
1.544948667287826538e-02 -7.487551122903823853e-02 -8.051004260778427124e-03
-2.395214289426803589e-01 1.152018364518880844e-02 -6.857655644416809082e-01
-8.808931708335876465e-02 4.693548753857612610e-02 -4.996581673622131348e-01
-1.413291841745376587e-01 -7.487551122903823853e-02 2.761219739913940430e-01
-2.395214289426803589e-01 1.323587168008089066e-02 -1.918798089027404785e-01
-2.395214289426803589e-01 5.864026769995689392e-02 -3.659341335296630859e-01
1.888694614171981812e-01 -7.487551122903823853e-02 1.604785025119781494e-01
-1.492228060960769653e-01 7.452415674924850464e-02 -4.403830468654632568e-01
-2.060460597276687622e-01 -7.487551122903823853e-02 2.609270252287387848e-02
-1.275368779897689819e-01 5.131856352090835571e-02 -6.411922629922628403e-03
1.646534055471420288e-01 1.885298825800418854e-02 9.370920658111572266e-01
-1.441149860620498657e-01 -7.487551122903823853e-02 4.811860024929046631e-01
2.595742344856262207e-01 -4.831286147236824036e-02 -9.142478108406066895e-01
1.165532916784286499e-01 -7.487551122903823853e-02 -4.625219106674194336e-01
1.418305560946464539e-02 3.557192906737327576e-02 3.347508907318115234e-01
7.451129704713821411e-02 -7.487551122903823853e-02 -4.421418532729148865e-03
9.121551178395748138e-03 3.886673972010612488e-02 8.801161646842956543e-01
9.167491644620895386e-02 -7.487551122903823853e-02 8.849614262580871582e-01
2.595742344856262207e-01 -1.667847111821174622e-02 1.339959353208541870e-01
7.216034084558486938e-02 2.912997268140316010e-02 1.943786814808845520e-02
1.028169840574264526e-01 2.572376839816570282e-02 4.887951910495758057e-01
2.424307353794574738e-02 3.445413708686828613e-02 2.947010099887847900e-01
1.243517920374870300e-01 4.412668570876121521e-02 5.010414719581604004e-01
-1.886771023273468018e-01 7.356860488653182983e-02 -6.897082179784774780e-02
-5.151221901178359985e-02 6.366672366857528687e-02 -8.788785934448242188e-01
-8.147184737026691437e-03 3.805299848318099976e-02 -3.469537496566772461e-01
2.373868227005004883e-01 -7.487551122903823853e-02 -8.687244057655334473e-01
5.714163184165954590e-02 1.240429095923900604e-02 -9.475388526916503906e-01
3.157141804695129395e-02 3.363989666104316711e-02 5.662597417831420898e-01
2.530918419361114502e-01 -7.487551122903823853e-02 4.325496852397918701e-01
1.675462573766708374e-01 -7.487551122903823853e-02 6.878224015235900879e-02
2.430050224065780640e-01 -7.487551122903823853e-02 5.912845730781555176e-01
-2.395214289426803589e-01 -6.633769720792770386e-02 1.978446841239929199e-01
-2.395214289426803589e-01 1.579384505748748779e-02 1.721836775541305542e-01
1.661231219768524170e-01 3.948574140667915344e-02 -7.770363688468933105e-01
-1.633233278989791870e-01 -7.487551122903823853e-02 -4.168557524681091309e-01
2.492793053388595581e-01 -7.487551122903823853e-02 3.368985056877136230e-01
-2.395214289426803589e-01 -3.066828846931457520e-02 -5.782496333122253418e-01
-6.794337183237075806e-02 6.004248559474945068e-02 -2.671839594841003418e-01
1.656166911125183105e-01 3.760336339473724365e-02 6.392132639884948730e-01
6.522346287965774536e-02 -7.487551122903823853e-02 7.560776472091674805e-01
2.188880741596221924e-01 3.362295031547546387e-02 9.512500762939453125e-01
-7.035922259092330933e-02 -7.487551122903823853e-02 -1.461363732814788818e-01
2.213785648345947266e-01 -7.487551122903823853e-02 8.885875940322875977e-01
-6.489551812410354614e-02 6.515368074178695679e-02 -4.843168556690216064e-01
-2.066144347190856934e-02 -7.487551122903823853e-02 3.246657177805900574e-02
-2.395214289426803589e-01 1.186595857143402100e-02 7.200473546981811523e-01
-6.754972040653228760e-02 4.465332254767417908e-02 -3.147409856319427490e-01
-1.529927253723144531e-01 5.414699018001556396e-02 -4.401752725243568420e-02
3.052329272031784058e-02 -7.487551122903823853e-02 6.949393749237060547e-01
1.991227716207504272e-01 1.502291578799486160e-02 -7.826763987541198730e-01
-6.375761330127716064e-02 -7.487551122903823853e-02 8.003979325294494629e-01
1.756529659032821655e-01 1.966514624655246735e-02 -5.330218747258186340e-02
-4.127328284084796906e-03 5.840211734175682068e-02 -2.040956914424896240e-02
1.049507930874824524e-01 -7.487551122903823853e-02 -9.105046987533569336e-01
-7.094938308000564575e-02 -7.487551122903823853e-02 -6.520067453384399414e-01
3.625467419624328613e-02 -7.487551122903823853e-02 4.002556800842285156e-01
6.018719822168350220e-02 -7.487551122903823853e-02 9.618026614189147949e-01
6.433440744876861572e-02 -7.487551122903823853e-02 2.078967988491058350e-01
-2.131666839122772217e-01 8.162892609834671021e-02 -6.070799827575683594e-01
4.725719988346099854e-02 -7.487551122903823853e-02 3.601106405258178711e-01
1.454718261957168579e-01 2.098421938717365265e-02 1.866637617349624634e-01
1.294160038232803345e-01 4.356417059898376465e-02 1.920669078826904297e-01
-6.135800108313560486e-02 -7.487551122903823853e-02 6.282053887844085693e-02
-2.169980406761169434e-01 -7.487551122903823853e-02 -1.053411886096000671e-01
-1.983040720224380493e-01 7.997765392065048218e-02 1.378074735403060913e-01
-2.427091076970100403e-02 3.984459862112998962e-02 -9.416629672050476074e-01
-2.395214289426803589e-01 -3.505215048789978027e-02 -1.875033676624298096e-01
2.016073167324066162e-01 1.474681217223405838e-02 -6.039690971374511719e-01
1.503982841968536377e-01 -7.487551122903823853e-02 -8.704637289047241211e-01
-3.814288973808288574e-02 -7.487551122903823853e-02 -3.759506046772003174e-01
2.304763048887252808e-01 3.233548998832702637e-02 2.412363588809967041e-01
1.375494599342346191e-01 4.266044124960899353e-02 -4.954789578914642334e-01
-1.598314009606838226e-02 3.892372548580169678e-02 7.886330038309097290e-02
-8.677669614553451538e-02 6.758519262075424194e-02 -5.641362667083740234e-01
8.175213821232318878e-03 -5.058581382036209106e-02 -9.475388526916503906e-01
1.745509356260299683e-01 2.311406284570693970e-02 7.491542100906372070e-01
-1.378104928880929947e-02 3.867903724312782288e-02 4.735361337661743164e-01
-2.395214289426803589e-01 -4.787284135818481445e-02 3.541455864906311035e-01
2.595742344856262207e-01 -8.386618457734584808e-03 -3.953135311603546143e-01
1.282366514205932617e-01 2.289920486509799957e-02 -2.433140948414802551e-02
7.302968949079513550e-02 2.903334423899650574e-02 -2.156105823814868927e-02
2.213180959224700928e-01 1.255691051483154297e-02 9.912957251071929932e-02
3.183840215206146240e-02 -7.487551122903823853e-02 8.128979206085205078e-01
2.432944178581237793e-01 1.011508796364068985e-02 2.876428067684173584e-01
2.470905892550945282e-02 -7.487551122903823853e-02 4.743240177631378174e-01
2.595742344856262207e-01 -7.127198576927185059e-02 -6.235103607177734375e-01
-2.395214289426803589e-01 -1.060116570442914963e-02 7.390882372856140137e-01
2.390963733196258545e-01 -7.487551122903823853e-02 -5.031208992004394531e-01
-1.650675684213638306e-01 -7.487551122903823853e-02 6.746240258216857910e-01
2.121172845363616943e-01 -7.487551122903823853e-02 7.267934083938598633e-01
-1.032335981726646423e-01 5.079301446676254272e-02 -1.981719136238098145e-01
-1.266964823007583618e-01 6.857435405254364014e-02 -8.585731983184814453e-01
1.063713356852531433e-01 4.612442478537559509e-02 -6.515251398086547852e-01
-2.194736599922180176e-01 6.153370812535285950e-02 9.344479441642761230e-01
-6.052918266505002975e-03 4.067479446530342102e-02 1.070566996932029724e-01
2.021949887275695801e-01 3.547758236527442932e-02 -7.303822040557861328e-01
-2.340627759695053101e-01 7.962870597839355469e-02 1.781252399086952209e-02
-1.835786923766136169e-02 3.918753936886787415e-02 -8.902388811111450195e-01
-2.395214289426803589e-01 5.347654968500137329e-02 -2.473552525043487549e-01
-8.508141338825225830e-02 4.660131037235260010e-02 1.759327799081802368e-01
-1.396865118294954300e-02 5.949553847312927246e-02 -1.225179061293601990e-01
1.381896585226058960e-01 2.179340273141860962e-02 1.076025664806365967e-01
-1.016746982932090759e-01 4.844504222273826599e-02 -9.442139267921447754e-01
-3.327024355530738831e-02 4.084455966949462891e-02 -2.041003108024597168e-01
-2.395214289426803589e-01 6.072848662734031677e-02 2.042745351791381836e-01
-1.624878942966461182e-01 -7.487551122903823853e-02 -4.714016020298004150e-01
-4.095784202218055725e-02 -7.487551122903823853e-02 7.805186510086059570e-01
1.705223470926284790e-01 3.572326153516769409e-02 -8.024485707283020020e-01
2.595742344856262207e-01 -4.708853363990783691e-02 3.861518576741218567e-02
-1.441764384508132935e-01 7.396342605352401733e-02 -4.995729327201843262e-01
2.595445215702056885e-01 8.399894461035728455e-03 -2.010172009468078613e-01
-8.124182373285293579e-02 -7.487551122903823853e-02 -4.510436654090881348e-01
-1.736360937356948853e-01 7.723683118820190430e-02 -4.189875125885009766e-01
1.242110505700111389e-01 2.334666065871715546e-02 3.686405122280120850e-01
2.090093791484832764e-01 1.392454653978347778e-02 1.522181928157806396e-01
3.611037880182266235e-02 3.313555568456649780e-02 -9.055653214454650879e-01
1.901171952486038208e-01 1.602366752922534943e-02 3.531366884708404541e-01
-2.395214289426803589e-01 3.215819224715232849e-02 -3.827838301658630371e-01
1.441220343112945557e-01 2.113416232168674469e-02 6.663541309535503387e-03
4.990803450345993042e-02 5.239770561456680298e-02 5.784353986382484436e-02
-1.763564944267272949e-01 4.553891718387603760e-02 -9.475388526916503906e-01
-4.957215860486030579e-02 -7.487551122903823853e-02 6.144788265228271484e-01
-2.118714004755020142e-01 -7.487551122903823853e-02 -8.816178441047668457e-01
7.955608516931533813e-02 2.975383214652538300e-02 9.651751518249511719e-01
-6.979016959667205811e-02 4.490227252244949341e-02 1.099889874458312988e-01
2.467243969440460205e-01 3.053021244704723358e-02 -4.755639731884002686e-01
-1.891884952783584595e-01 5.816873162984848022e-02 -3.105314075946807861e-02
1.011032760143280029e-01 -7.487551122903823853e-02 -7.618549466133117676e-02
-3.502378985285758972e-02 -7.487551122903823853e-02 -4.376190304756164551e-01
1.049185842275619507e-01 2.548998035490512848e-02 -5.053933262825012207e-01
1.817983984947204590e-01 1.694781146943569183e-02 -8.178176879882812500e-01
2.595742344856262207e-01 -2.084509842097759247e-02 8.627561926841735840e-01
2.595742344856262207e-01 -3.827987238764762878e-02 -1.267935801297426224e-02
8.699402958154678345e-02 4.643352702260017395e-02 1.259030997753143311e-01
-6.606375426054000854e-02 -7.487551122903823853e-02 1.722034960985183716e-01
-2.395214289426803589e-01 -5.423640832304954529e-02 -8.118456602096557617e-01
-1.078964397311210632e-01 6.993237137794494629e-02 1.635362207889556885e-02
5.550631880760192871e-02 3.098043799400329590e-02 -9.255942702293395996e-01
8.131666481494903564e-02 -7.487551122903823853e-02 3.145961463451385498e-01
-1.503397077322006226e-01 5.385225638747215271e-02 1.457833647727966309e-01
