-2.818716466426849365e-01 -3.291076123714447021e-01 3.082654438912868500e-02
-2.823733687400817871e-01 1.502224206924438477e-01 -1.095905974507331848e-01
1.834235638380050659e-01 2.706693708896636963e-01 -2.767919003963470459e-01
-1.814941018819808960e-01 5.738784074783325195e-01 2.804145514965057373e-01
3.048532009124755859e-01 -6.060109138488769531e-01 -1.821687817573547363e-01
1.022290363907814026e-01 8.212336301803588867e-01 -2.818497419357299805e-01
-2.641898393630981445e-01 -8.265500068664550781e-01 -8.129004389047622681e-02
-6.485520303249359131e-02 4.249676167964935303e-01 2.650022208690643311e-01
2.478622347116470337e-01 -1.158691290766000748e-02 -7.159916311502456665e-02
2.190327793359756470e-01 -3.748984038829803467e-01 -2.489046454429626465e-01
-7.248483598232269287e-02 -3.355700969696044922e-01 2.580590546131134033e-01
-7.739903032779693604e-02 7.462731599807739258e-01 2.650022208690643311e-01
-2.920608818531036377e-01 -4.249098896980285645e-01 -2.517226040363311768e-01
2.928073406219482422e-01 6.866009235382080078e-01 2.650022208690643311e-01
4.596486687660217285e-02 -7.412847280502319336e-01 1.579213589429855347e-01
-1.224369183182716370e-02 -5.918108858168125153e-03 -2.366829365491867065e-01
3.041308224201202393e-01 7.096052169799804688e-01 -2.818497419357299805e-01
-7.285837084054946899e-02 2.701896727085113525e-01 -2.615926563739776611e-01
1.097512617707252502e-01 -8.285214304924011230e-01 5.529823154211044312e-02
3.045741915702819824e-01 2.657443583011627197e-01 2.746429145336151123e-01
2.032687962055206299e-01 -2.189536690711975098e-01 -2.346561700105667114e-01
-3.071521520614624023e-01 7.467730045318603516e-01 -2.288195639848709106e-01
-6.189829856157302856e-02 -8.285214304924011230e-01 9.089329838752746582e-02
-1.508803479373455048e-02 6.263534426689147949e-01 -2.664383351802825928e-01
2.080944031476974487e-01 -7.412847280502319336e-01 1.752543896436691284e-01
2.641240656375885010e-01 -1.227873042225837708e-01 -8.272272534668445587e-03
2.599169872701168060e-02 6.167470812797546387e-01 2.650022208690643311e-01
2.616185545921325684e-01 -8.285214304924011230e-01 -1.118963807821273804e-01
1.069619655609130859e-01 -7.412847280502319336e-01 -2.198936194181442261e-01
-2.917407751083374023e-01 4.398391246795654297e-01 -1.734167486429214478e-01
-2.364927232265472412e-01 -7.051920294761657715e-01 2.417437136173248291e-01
1.887948215007781982e-01 4.762758612632751465e-01 -2.664383351802825928e-01
-1.683235317468643188e-01 -5.172883868217468262e-01 -2.770613729953765869e-01
5.591318011283874512e-02 -6.433811783790588379e-01 2.689009308815002441e-01
1.890308409929275513e-01 8.338136225938796997e-02 -2.496327757835388184e-01
-2.577875554561614990e-01 -3.896126989275217056e-03 -2.942033857107162476e-02
-5.605959519743919373e-02 -1.968666911125183105e-01 2.446495890617370605e-01
-7.433873414993286133e-02 5.032946541905403137e-02 -2.314617186784744263e-01
-2.364363521337509155e-01 9.155653715133666992e-01 -2.664383351802825928e-01
-2.922672927379608154e-01 2.697701752185821533e-01 -2.766619622707366943e-01
3.113367259502410889e-01 7.855030298233032227e-01 -2.557179145514965057e-02
1.959434151649475098e-01 -3.804838284850120544e-02 -2.320235818624496460e-01
2.464374750852584839e-01 -5.378751158714294434e-01 2.623572051525115967e-01
-1.440654993057250977e-01 6.135889887809753418e-01 -2.818497419357299805e-01
-2.460895031690597534e-01 -7.412847280502319336e-01 3.850433602929115295e-02
-3.071521520614624023e-01 5.990576148033142090e-01 -1.418677419424057007e-01
2.949480898678302765e-02 -3.696150481700897217e-01 -2.484211176633834839e-01
-1.105470806360244751e-01 1.707877516746520996e-01 2.608731985092163086e-01
2.952096164226531982e-01 3.007410466670989990e-01 -1.060502156615257263e-01
2.612296640872955322e-01 7.659415155649185181e-02 8.324524387717247009e-03
-2.598936259746551514e-01 -1.655756831169128418e-01 -2.430594265460968018e-01
-3.071521520614624023e-01 4.498897790908813477e-01 1.721975207328796387e-01
2.888980805873870850e-01 -4.971574246883392334e-01 1.022385582327842712e-01
1.745845824480056763e-01 6.210662722587585449e-01 2.650022208690643311e-01
1.107918769121170044e-01 -8.285214304924011230e-01 -7.924178987741470337e-02
-3.003313243389129639e-01 9.161959886550903320e-01 8.852511644363403320e-02
1.777551621198654175e-01 9.158787131309509277e-01 2.804145514965057373e-01
7.459203898906707764e-02 4.820187985897064209e-01 2.804145514965057373e-01
-2.917407751083374023e-01 6.332363486289978027e-01 6.807675212621688843e-02
-1.489599198102951050e-01 -2.706192731857299805e-01 -2.393766939640045166e-01
2.421613186597824097e-01 -5.489262938499450684e-01 -2.801201343536376953e-01
-1.145528182387351990e-01 -8.285214304924011230e-01 -1.744028776884078979e-01
6.436001509428024292e-02 -7.412847280502319336e-01 -1.504535079002380371e-01
2.804451584815979004e-01 -7.535714507102966309e-01 -2.445510774850845337e-01
-1.708223372697830200e-01 4.700082838535308838e-01 -2.664383351802825928e-01
3.113367259502410889e-01 8.009842038154602051e-01 -2.025452852249145508e-01
-1.380805112421512604e-02 7.678021788597106934e-01 -2.818497419357299805e-01
1.981842219829559326e-01 4.320971071720123291e-01 2.650022208690643311e-01
-3.071521520614624023e-01 6.419377923011779785e-01 1.274348609149456024e-02
-2.786017060279846191e-01 -7.394195199012756348e-01 1.142108589410781860e-01
1.986629664897918701e-01 2.091107666492462158e-01 -2.532218694686889648e-01
2.959377765655517578e-01 5.529267191886901855e-01 1.918754354119300842e-02
-1.827439963817596436e-01 -7.190381884574890137e-01 -2.589591145515441895e-01
-2.857656180858612061e-01 2.661237120628356934e-01 1.823762357234954834e-01
6.076316162943840027e-02 2.939727902412414551e-01 -2.801717519760131836e-01
2.959377765655517578e-01 5.272200107574462891e-01 -1.575524210929870605e-01
-2.917407751083374023e-01 6.731322407722473145e-01 2.069333493709564209e-01
-2.980570495128631592e-01 5.108072161674499512e-01 2.804145514965057373e-01
-6.315267086029052734e-02 -7.412847280502319336e-01 3.584327176213264465e-02
2.935736775398254395e-01 1.941733360290527344e-01 -1.662824749946594238e-01
-2.448606342077255249e-01 -3.147397041320800781e-01 2.419663518667221069e-01
-2.573413252830505371e-01 -6.693169474601745605e-03 1.665443927049636841e-01
-1.685184687376022339e-01 -1.379369664937257767e-02 -2.355410307645797729e-01
2.887633740901947021e-01 -3.545132577419281006e-01 1.040722876787185669e-01
-9.031199663877487183e-02 3.624745011329650879e-01 -2.664383351802825928e-01
3.100170791149139404e-01 4.765042364597320557e-01 2.804145514965057373e-01
-2.815496623516082764e-01 -4.659534096717834473e-01 4.075239971280097961e-02
-2.688224315643310547e-01 -3.399972617626190186e-01 -8.511824160814285278e-02
2.615574300289154053e-01 -9.864777326583862305e-02 2.288741171360015869e-01
2.185877645388245583e-03 -3.315758407115936279e-01 -2.449457347393035889e-01
-2.548539638519287109e-01 -2.017486691474914551e-01 -1.281289267353713512e-03
8.925426006317138672e-02 -1.511284708976745605e-01 -2.284593284130096436e-01
-2.071893215179443359e-01 -4.644904434680938721e-01 2.705225348472595215e-01
3.053625226020812988e-01 -5.106299519538879395e-01 -5.154849588871002197e-02
9.477667510509490967e-02 5.301564335823059082e-01 -2.664383351802825928e-01
-1.094051748514175415e-01 7.998241186141967773e-01 -2.664383351802825928e-01
1.399424076080322266e-01 -8.285214304924011230e-01 1.023627817630767822e-01
-5.948998779058456421e-02 2.008880972862243652e-01 2.506562769412994385e-01
1.665504463016986847e-02 -9.500706195831298828e-02 2.348024696111679077e-01
1.644211560487747192e-01 -2.559770941734313965e-01 -2.380388826131820679e-01
2.775382995605468750e-01 1.841742843389511108e-01 1.613709628582000732e-01
-1.792026609182357788e-01 4.453153535723686218e-02 2.425645291805267334e-01
2.959377765655517578e-01 5.843763351440429688e-01 2.222004383802413940e-01
-1.926350742578506470e-01 4.148644208908081055e-01 2.650022208690643311e-01
5.525527521967887878e-02 9.125514626502990723e-01 2.650022208690643311e-01
-3.058869540691375732e-01 -5.549157261848449707e-01 -1.685615032911300659e-01
2.959377765655517578e-01 8.305848240852355957e-01 1.586236953735351562e-01
-3.071521520614624023e-01 6.516060829162597656e-01 -1.905433684587478638e-01
-2.123006433248519897e-01 8.698185682296752930e-01 2.650022208690643311e-01
-3.051187098026275635e-01 -5.791078805923461914e-01 -7.050502113997936249e-03
8.515209704637527466e-02 -8.285214304924011230e-01 -2.011979520320892334e-01
1.096585765480995178e-01 2.068355530500411987e-01 2.514713704586029053e-01
3.113367259502410889e-01 6.637972593307495117e-01 -2.257436700165271759e-02
-2.994082272052764893e-01 2.570037841796875000e-01 -2.467996068298816681e-02
2.373854070901870728e-01 -6.923759579658508301e-01 2.438985109329223633e-01
2.487002611160278320e-01 -9.940648823976516724e-02 1.300436407327651978e-01
-2.917407751083374023e-01 3.831099569797515869e-01 -3.614542260766029358e-02
6.597234308719635010e-02 7.433022558689117432e-02 2.333069890737533569e-01
2.625722289085388184e-01 -2.548399567604064941e-01 -2.516891658306121826e-01
2.187091112136840820e-02 -5.057948231697082520e-01 2.594255208969116211e-01
-5.451864749193191528e-02 -4.665936529636383057e-01 -2.572820782661437988e-01
2.055509574711322784e-02 7.185465693473815918e-01 2.804145514965057373e-01
2.683037221431732178e-01 3.573735430836677551e-02 2.177236080169677734e-01
2.812917828559875488e-01 -2.842437326908111572e-01 -4.096329957246780396e-02
2.215994447469711304e-01 -3.594564199447631836e-01 2.460523694753646851e-01
-2.843972444534301758e-01 -4.941330552101135254e-01 1.623064577579498291e-01
2.666285932064056396e-01 -7.411146759986877441e-01 7.850246131420135498e-02
-2.584602832794189453e-01 -1.089764907956123352e-01 -2.007344961166381836e-01
-2.684937119483947754e-01 6.321743875741958618e-02 -1.970679759979248047e-01
3.396571148186922073e-03 -7.798457145690917969e-01 2.483801096677780151e-01
2.107547074556350708e-01 7.747519612312316895e-01 -2.818497419357299805e-01
2.339854985475540161e-01 -7.412847280502319336e-01 -1.144678071141242981e-01
3.048417270183563232e-01 2.648212611675262451e-01 -2.750164568424224854e-01
-2.549492381513118744e-02 3.059431612491607666e-01 2.650022208690643311e-01
2.959377765655517578e-01 7.720840573310852051e-01 -9.220157563686370850e-02
1.850002557039260864e-01 9.089920520782470703e-01 -2.664383351802825928e-01
-2.131864577531814575e-01 -1.880754679441452026e-01 2.438000887632369995e-01
-3.071521520614624023e-01 7.691705226898193359e-01 2.099023014307022095e-01
6.372828781604766846e-02 -3.546202778816223145e-01 2.456108927726745605e-01
-2.823637723922729492e-01 2.436793446540832520e-01 8.465841412544250488e-02
3.113367259502410889e-01 3.893029987812042236e-01 3.058717586100101471e-02
-1.203473731875419617e-01 -7.195618748664855957e-01 2.393289953470230103e-01
2.188626974821090698e-01 3.394214212894439697e-01 2.804145514965057373e-01
-1.509436815977096558e-01 -8.285214304924011230e-01 2.482635900378227234e-03
-1.437558978796005249e-01 7.035049796104431152e-01 2.650022208690643311e-01
-1.873373985290527344e-01 -8.285214304924011230e-01 1.172438263893127441e-01
-2.677197158336639404e-01 -3.290837407112121582e-01 1.338563561439514160e-01
2.270375639200210571e-01 6.297723650932312012e-01 -2.664383351802825928e-01
-1.670105755329132080e-01 2.655647099018096924e-01 2.595220208168029785e-01
-1.675294488668441772e-01 -7.412847280502319336e-01 -2.803228050470352173e-02
-3.071521520614624023e-01 8.127185702323913574e-01 -3.280380740761756897e-02
2.170968055725097656e-01 7.707099318504333496e-01 2.804145514965057373e-01
-1.531367152929306030e-01 -5.816162228584289551e-01 2.781890332698822021e-01
-2.821478247642517090e-01 -7.179852128028869629e-01 -2.281994074583053589e-01
3.113367259502410889e-01 5.520235896110534668e-01 -1.062403842806816101e-01
-2.747010886669158936e-01 1.931193470954895020e-01 -1.605309247970581055e-01
3.257354721426963806e-02 8.962275385856628418e-01 -2.664383351802825928e-01
1.631435751914978027e-01 -7.808768153190612793e-01 2.482253313064575195e-01
3.113367259502410889e-01 7.960802912712097168e-01 3.432019427418708801e-02
-2.362930178642272949e-01 7.953903079032897949e-01 -2.818497419357299805e-01
2.959377765655517578e-01 6.193987131118774414e-01 -2.361707389354705811e-01
3.063783049583435059e-01 2.744572460651397705e-01 -4.708120599389076233e-03
-2.804039120674133301e-01 -6.342622637748718262e-01 1.726638525724411011e-01
-2.917407751083374023e-01 5.203809738159179688e-01 7.562075555324554443e-02
2.793510258197784424e-01 -2.659904956817626953e-01 1.757321655750274658e-01
8.729486167430877686e-02 4.341848939657211304e-02 -2.305147498846054077e-01
1.582721024751663208e-01 3.773995041847229004e-01 -2.818497419357299805e-01
1.259758472442626953e-01 -5.575855970382690430e-01 2.795220315456390381e-01
-6.173881515860557556e-02 1.467132866382598877e-01 -2.446705251932144165e-01
-5.207287520170211792e-02 -2.223325371742248535e-01 -2.485463023185729980e-01
-1.371175795793533325e-01 -4.098311439156532288e-02 2.175000160932540894e-01
1.371626555919647217e-01 6.933510303497314453e-01 2.650022208690643311e-01
2.764948308467864990e-01 -3.744292259216308594e-01 -1.412485390901565552e-01
-3.071521520614624023e-01 7.942121028900146484e-01 -1.766828745603561401e-01
-3.000742793083190918e-01 4.205022752285003662e-01 -2.818497419357299805e-01
-9.893598407506942749e-02 -3.926260769367218018e-01 2.490833997726440430e-01
2.959377765655517578e-01 3.111127614974975586e-01 1.646667122840881348e-01
-2.521869838237762451e-01 4.457119107246398926e-02 -8.470648527145385742e-02
-2.583054602146148682e-01 -1.075202003121376038e-01 -1.211758852005004883e-01
-4.979652538895606995e-02 8.299044370651245117e-01 2.650022208690643311e-01
1.855640411376953125e-01 -2.563679218292236328e-01 2.366314232349395752e-01
2.820810973644256592e-01 -6.147457361221313477e-01 -2.583819329738616943e-01
-5.977388098835945129e-02 -8.285214304924011230e-01 -1.401630192995071411e-01
-5.017731711268424988e-02 -1.300505697727203369e-01 -2.265338450670242310e-01
-2.325806319713592529e-01 6.526849865913391113e-01 -2.818497419357299805e-01
6.491653621196746826e-02 -4.829032123088836670e-01 -2.737379074096679688e-01
3.113367259502410889e-01 6.056979298591613770e-01 1.151664182543754578e-01
2.813971787691116333e-02 -6.869952082633972168e-01 -2.462376356124877930e-01
-2.584612071514129639e-01 -5.313792228698730469e-01 -2.632008492946624756e-01
-2.827937901020050049e-01 2.465116530656814575e-01 2.528665065765380859e-01
2.998507916927337646e-01 -4.587876498699188232e-01 -2.659146785736083984e-01
3.113367259502410889e-01 4.543704092502593994e-01 -1.700149178504943848e-01
2.564756870269775391e-01 -1.763439625501632690e-01 -3.529114648699760437e-02
6.929284334182739258e-02 7.101203203201293945e-01 -2.818497419357299805e-01
-2.638553977012634277e-01 -1.597075462341308594e-01 1.333107203245162964e-01
3.023897409439086914e-01 -6.209053397178649902e-01 2.722138762474060059e-01
-1.540339887142181396e-01 -7.912542819976806641e-01 -2.481000572443008423e-01
2.853921353816986084e-01 1.428748667240142822e-01 8.022984117269515991e-02
-2.705615758895874023e-01 1.658063828945159912e-01 1.610078513622283936e-01
3.113367259502410889e-01 7.877209186553955078e-01 2.796195149421691895e-01
8.364402689039707184e-03 -2.659407854080200195e-01 2.375067174434661865e-01
2.932956218719482422e-01 -5.825287699699401855e-01 8.286643773317337036e-02
2.585789263248443604e-01 5.910858884453773499e-02 -1.448825597763061523e-01
3.113367259502410889e-01 7.413969039916992188e-01 2.059911489486694336e-01
-2.240617573261260986e-01 -4.183805286884307861e-01 -2.674999833106994629e-01
-2.800799906253814697e-01 -7.304868698120117188e-01 -5.125762149691581726e-02
-1.826551258563995361e-01 8.195249736309051514e-02 -2.357961684465408325e-01
1.335104852914810181e-01 -1.508714109659194946e-01 2.402033209800720215e-01
-1.874262690544128418e-01 2.672866582870483398e-01 -2.611951529979705811e-01
-2.500723004341125488e-01 3.062058426439762115e-02 5.519828200340270996e-02
2.197695225477218628e-01 2.234031707048416138e-01 2.685024738311767578e-01
2.673079967498779297e-01 4.412992298603057861e-01 -2.818497419357299805e-01
2.447776496410369873e-01 -3.193503990769386292e-02 3.362950682640075684e-02
3.113367259502410889e-01 8.940535187721252441e-01 -2.103331685066223145e-01
-2.876729071140289307e-01 -3.836552202701568604e-01 -1.573823243379592896e-01
2.168992720544338226e-02 -8.587757498025894165e-02 -2.224984914064407349e-01
-1.829551756381988525e-01 -6.019592881202697754e-01 -2.765644788742065430e-01
2.180972844362258911e-01 8.222369551658630371e-01 2.804145514965057373e-01
2.776568233966827393e-01 -6.755321621894836426e-01 -8.627237379550933838e-02
-2.917407751083374023e-01 7.046583294868469238e-01 1.730029843747615814e-02
-2.917407751083374023e-01 3.603426218032836914e-01 -2.436872273683547974e-01
-2.152581214904785156e-01 -7.412847280502319336e-01 1.075610592961311340e-01
-7.230853289365768433e-02 5.727002024650573730e-01 -2.818497419357299805e-01
1.494627147912979126e-01 -7.412847280502319336e-01 7.707837224006652832e-02
-2.378257364034652710e-01 6.570233106613159180e-01 2.650022208690643311e-01
-1.636830158531665802e-02 5.690327882766723633e-01 2.650022208690643311e-01
5.065144225955009460e-02 -7.412847280502319336e-01 -4.419511184096336365e-03
1.588674187660217285e-01 3.431451693177223206e-02 2.278220504522323608e-01
2.664011716842651367e-01 -1.442053914070129395e-01 -2.162930369377136230e-01
-1.978410035371780396e-01 -1.959703713655471802e-01 -2.325567901134490967e-01
-3.071521520614624023e-01 7.259808182716369629e-01 1.925081014633178711e-01
-5.090115964412689209e-02 -5.558722615242004395e-01 2.640026807785034180e-01
2.009763866662979126e-01 -8.285214304924011230e-01 -1.530364155769348145e-01
2.119224071502685547e-01 -4.610103070735931396e-01 2.553327977657318115e-01
2.779071629047393799e-01 9.594486653804779053e-02 1.629973202943801880e-01
-1.978801786899566650e-01 1.234118714928627014e-01 2.540026903152465820e-01
2.982655167579650879e-01 -4.438779056072235107e-01 1.037454828619956970e-01
2.959377765655517578e-01 8.933512568473815918e-01 -2.628646045923233032e-02
-2.687708437442779541e-01 -7.034720778465270996e-01 2.119701504707336426e-01
2.965894639492034912e-01 9.161959886550903320e-01 1.976528912782669067e-01
2.910070419311523438e-01 -5.180260539054870605e-01 2.138573974370956421e-01
4.862726852297782898e-02 -8.285214304924011230e-01 1.034682802855968475e-02
-2.327115535736083984e-01 -7.412847280502319336e-01 -1.304468065500259399e-01
-4.913804307579994202e-02 -7.412847280502319336e-01 1.830403506755828857e-01
2.047547101974487305e-01 -7.412847280502319336e-01 -1.629217416048049927e-01
-2.735668420791625977e-01 -2.510244250297546387e-01 -1.455438137054443359e-01
5.221055075526237488e-02 -5.559007171541452408e-03 2.353003174066543579e-01
2.586018443107604980e-01 -7.085509598255157471e-02 -1.405232697725296021e-01
-2.540312111377716064e-01 -3.228897452354431152e-01 -2.441525906324386597e-01
-2.917407751083374023e-01 5.393403768539428711e-01 -2.138802409172058105e-01
1.422771438956260681e-02 -7.078934311866760254e-01 2.592000067234039307e-01
-2.211080938577651978e-01 -8.285214304924011230e-01 2.295544892549514771e-01
-5.626714229583740234e-02 -8.285214304924011230e-01 1.768473237752914429e-01
-3.071521520614624023e-01 8.704043030738830566e-01 -1.294186115264892578e-01
2.222004830837249756e-01 -7.797750830650329590e-01 -2.498258054256439209e-01
2.731513082981109619e-01 -7.023224234580993652e-01 1.713480353355407715e-01
-3.011779487133026123e-01 -5.106386542320251465e-01 2.496338337659835815e-01
-2.536709606647491455e-01 5.436341464519500732e-02 2.027393728494644165e-01
-2.920446395874023438e-01 -4.247608482837677002e-01 -1.860742829740047455e-02
-2.923207879066467285e-01 -6.564820408821105957e-01 -1.670966297388076782e-01
-2.069656997919082642e-01 4.946351647377014160e-01 2.650022208690643311e-01
2.020361125469207764e-01 -8.285214304924011230e-01 3.555832058191299438e-02
2.959377765655517578e-01 4.738038182258605957e-01 6.798138469457626343e-02
-5.970661342144012451e-02 6.552841067314147949e-01 2.804145514965057373e-01
-1.834167093038558960e-01 -8.285214304924011230e-01 -1.034367457032203674e-01
1.266791373491287231e-01 -6.595379710197448730e-01 -2.679060697555541992e-01
1.459347605705261230e-01 -3.180354535579681396e-01 2.563638985157012939e-01
1.282166391611099243e-01 1.126217991113662720e-01 2.385568916797637939e-01
-2.917407751083374023e-01 3.531720638275146484e-01 1.848081499338150024e-01
-3.071521520614624023e-01 4.528998136520385742e-01 -7.585410773754119873e-02
-9.894840419292449951e-02 -7.412847280502319336e-01 -4.747825860977172852e-02
-1.305958330631256104e-01 3.346130549907684326e-01 -2.818497419357299805e-01
-3.071521520614624023e-01 8.705943822860717773e-01 -2.740694880485534668e-01
-1.348146498203277588e-01 -2.170176953077316284e-01 2.330356240272521973e-01
8.962473273277282715e-02 -7.412847280502319336e-01 2.335086166858673096e-01
-2.585434019565582275e-01 -1.097590923309326172e-01 2.173538058996200562e-01
-8.020275831222534180e-02 -1.185598745942115784e-01 2.240379899740219116e-01
-7.868522405624389648e-02 -5.817710161209106445e-01 -2.639242410659790039e-01
-8.016425371170043945e-02 -2.910062968730926514e-01 2.397972047328948975e-01
2.985607981681823730e-01 2.254394888877868652e-01 -1.246082857251167297e-01
2.959377765655517578e-01 7.036472558975219727e-01 -1.722175031900405884e-01
2.742435336112976074e-01 -4.395558536052703857e-01 2.681116163730621338e-01
-2.917407751083374023e-01 4.898993670940399170e-01 2.192467898130416870e-01
-8.250042051076889038e-02 7.550166249275207520e-01 -2.664383351802825928e-01
-1.427028626203536987e-01 8.195843100547790527e-01 2.804145514965057373e-01
3.083305060863494873e-01 -5.385431051254272461e-01 -2.602357566356658936e-01
-2.730699479579925537e-01 -6.778943538665771484e-01 6.644358485937118530e-02
-2.768998742103576660e-01 -4.199323356151580811e-01 1.223675832152366638e-01
2.959377765655517578e-01 9.104798436164855957e-01 -2.413050085306167603e-01
6.256143562495708466e-03 -4.186107814311981201e-01 2.514589726924896240e-01
2.676596939563751221e-01 1.190063282847404480e-01 -9.020395576953887939e-02
-2.882902324199676514e-01 -5.326672196388244629e-01 -8.792272955179214478e-02
1.369916200637817383e-01 7.304528951644897461e-01 -2.818497419357299805e-01
-2.845548987388610840e-01 -4.957002699375152588e-01 1.055820807814598083e-01
-2.886064946651458740e-01 1.989100873470306396e-01 -2.663857638835906982e-01
-1.793765723705291748e-01 -3.827292323112487793e-01 2.481794506311416626e-01
-1.615753173828125000e-01 -6.569856405258178711e-01 2.498459666967391968e-01
6.795656867325305939e-03 2.080309689044952393e-01 -2.677083015441894531e-01
-2.917407751083374023e-01 4.845826327800750732e-01 -2.186198532581329346e-01
-2.486485093832015991e-01 2.020948566496372223e-02 -2.404717653989791870e-01
-2.917407751083374023e-01 8.393254280090332031e-01 1.395448446273803711e-01
2.959377765655517578e-01 7.043563723564147949e-01 -6.449919939041137695e-02
2.735755741596221924e-01 -3.455481529235839844e-01 -2.212648540735244751e-01
3.899295628070831299e-02 2.701304256916046143e-01 2.601479291915893555e-01
4.332368075847625732e-02 4.096078276634216309e-01 2.804145514965057373e-01
-3.071521520614624023e-01 3.299106955528259277e-01 2.498420514166355133e-02
-3.071521520614624023e-01 4.388491511344909668e-01 4.233711585402488708e-02
5.564408842474222183e-03 5.057483911514282227e-01 2.650022208690643311e-01
-1.155246272683143616e-01 1.956449151039123535e-01 -2.659127712249755859e-01
1.317102015018463135e-01 -3.445447981357574463e-01 -2.461306154727935791e-01
-2.917407751083374023e-01 5.418297052383422852e-01 -9.247839450836181641e-02
1.985160820186138153e-02 5.212400555610656738e-01 -2.818497419357299805e-01
-7.776166498661041260e-02 -7.086282968521118164e-01 -2.426016926765441895e-01
2.846620976924896240e-01 -7.280797958374023438e-01 -7.561252918094396591e-03
-2.655974030494689941e-01 -8.180436491966247559e-01 7.578759640455245972e-02
2.642817497253417969e-01 -2.535881996154785156e-01 3.124154545366764069e-02
2.948305569589138031e-02 -8.285214304924011230e-01 1.348788142204284668e-01
1.697064191102981567e-01 2.848308384418487549e-01 2.774102389812469482e-01
1.373346745967864990e-01 -7.412847280502319336e-01 -8.854175359010696411e-02
-2.917407751083374023e-01 8.300238847732543945e-01 6.128619983792304993e-02
-1.374481916427612305e-01 3.710201382637023926e-01 2.650022208690643311e-01
6.352398078888654709e-03 -7.412847280502319336e-01 4.645340889692306519e-02
9.984108060598373413e-02 1.997127532958984375e-01 -2.665023505687713623e-01
-2.566886544227600098e-01 -9.232001006603240967e-02 -4.161021858453750610e-02
9.231024980545043945e-02 -2.510244250297546387e-01 -2.513203024864196777e-01
1.109610125422477722e-01 5.764679908752441406e-01 2.650022208690643311e-01
3.113367259502410889e-01 3.498657941818237305e-01 -5.802322924137115479e-02
-2.639289796352386475e-01 1.220476180315017700e-01 -4.278527945280075073e-02
-2.917407751083374023e-01 5.028234124183654785e-01 1.308816820383071899e-01
-2.663121819496154785e-01 -1.828121989965438843e-01 -1.746637523174285889e-01
3.112937510013580322e-01 -5.664122104644775391e-01 -1.032504066824913025e-01
3.007165789604187012e-01 -4.669319093227386475e-01 -1.117262914776802063e-01
1.700141131877899170e-01 -4.844579994678497314e-01 -2.589142024517059326e-01
3.113367259502410889e-01 8.063984513282775879e-01 -2.806925177574157715e-01
-2.605520188808441162e-01 -2.581424415111541748e-01 7.209155708551406860e-02
-2.847689390182495117e-01 5.812219977378845215e-01 2.804145514965057373e-01
-3.003609180450439453e-01 6.300552487373352051e-01 -2.818497419357299805e-01
2.429257780313491821e-01 -8.946572989225387573e-02 -2.357015609741210938e-01
-2.489237338304519653e-01 2.303901873528957367e-02 1.250794827938079834e-01
2.759301066398620605e-01 -6.858006715774536133e-01 -1.814951002597808838e-01
3.077390193939208984e-01 -5.329759716987609863e-01 2.688560187816619873e-01
2.959377765655517578e-01 3.755638599395751953e-01 -1.388022899627685547e-01
-1.965576708316802979e-01 5.430670976638793945e-01 -2.818497419357299805e-01
2.617771923542022705e-01 -1.007184907793998718e-01 -5.945371463894844055e-02
8.255133777856826782e-02 -1.010577082633972168e-01 2.353872656822204590e-01
-1.336861401796340942e-01 4.256021380424499512e-01 -2.664383351802825928e-01
-4.068442806601524353e-02 -2.816407978534698486e-01 -2.542806565761566162e-01
2.902941703796386719e-01 -5.109711289405822754e-01 2.281717024743556976e-02
-2.267105877399444580e-01 -6.670124828815460205e-02 -2.335008829832077026e-01
2.555698454380035400e-01 -1.673826575279235840e-01 1.722959578037261963e-01
-2.617894709110260010e-01 -6.340702176094055176e-01 2.536978423595428467e-01
-1.241381093859672546e-01 9.409555792808532715e-02 2.360169887542724609e-01
-1.219250187277793884e-01 6.232980638742446899e-03 -2.254187017679214478e-01
-1.188757941126823425e-01 4.866647720336914062e-01 2.804145514965057373e-01
-1.816065981984138489e-02 8.962064981460571289e-01 2.650022208690643311e-01
2.000256031751632690e-01 -1.563869565725326538e-01 2.274952381849288940e-01
-2.890259921550750732e-01 -5.829635858535766602e-01 -2.029256075620651245e-01
-1.699212342500686646e-01 8.561118245124816895e-01 -2.664383351802825928e-01
1.372563093900680542e-01 -8.285214304924011230e-01 1.882099807262420654e-01
-2.891550064086914062e-01 -4.100011587142944336e-01 2.652544677257537842e-01
-2.638362944126129150e-01 8.106134533882141113e-01 2.804145514965057373e-01
1.591944880783557892e-02 1.906186193227767944e-01 2.637484967708587646e-01
3.025483787059783936e-01 -6.199430227279663086e-01 -7.598263770341873169e-02
-2.847641706466674805e-01 -3.563058972358703613e-01 2.070222198963165283e-01
-2.755955159664154053e-01 -6.628708839416503906e-01 -1.025566644966602325e-02
2.959377765655517578e-01 5.737016201019287109e-01 -2.602118551731109619e-01
3.113367259502410889e-01 6.315726637840270996e-01 4.542799293994903564e-02
-3.071521520614624023e-01 6.326887607574462891e-01 -6.062991917133331299e-02
-3.045252859592437744e-01 2.890812158584594727e-01 -2.096862494945526123e-01
-4.670096188783645630e-02 1.230325177311897278e-01 2.399835586547851562e-01
2.735125124454498291e-01 -3.449251055717468262e-01 -4.343716800212860107e-02
1.493432819843292236e-01 4.748749732971191406e-01 2.650022208690643311e-01
-9.182149916887283325e-02 6.541575193405151367e-01 -2.818497419357299805e-01
1.481803506612777710e-01 8.303344249725341797e-01 -2.664383351802825928e-01
2.315143942832946777e-01 6.459444165229797363e-01 2.804145514965057373e-01
-2.685214281082153320e-01 4.377196729183197021e-01 2.804145514965057373e-01
-2.201334238052368164e-01 3.303359150886535645e-01 2.650022208690643311e-01
2.490461766719818115e-01 3.167792856693267822e-01 -2.664383351802825928e-01
-2.656566500663757324e-01 1.334435045719146729e-01 -2.385682612657546997e-01
-3.062319457530975342e-01 -5.581589341163635254e-01 -2.697799503803253174e-01
-3.585585393011569977e-03 3.537272512912750244e-01 -2.818497419357299805e-01
-2.418850213289260864e-01 -4.339783266186714172e-02 5.999885872006416321e-02
1.201363652944564819e-01 -7.412847280502319336e-01 1.403656750917434692e-01
2.959377765655517578e-01 4.163063764572143555e-01 2.294971495866775513e-01
-2.917407751083374023e-01 7.288112044334411621e-01 -1.530622094869613647e-01
1.517312377691268921e-01 -5.958216786384582520e-01 2.760523855686187744e-01
-9.669107384979724884e-03 -6.103779077529907227e-01 2.576797008514404297e-01
-2.928721606731414795e-01 7.052364349365234375e-01 2.804145514965057373e-01
-1.364926248788833618e-01 6.307413578033447266e-01 2.650022208690643311e-01
7.118467241525650024e-02 6.578144431114196777e-01 2.650022208690643311e-01
-3.562871366739273071e-02 -4.358034953474998474e-02 2.171856313943862915e-01
3.064050376415252686e-01 2.746253907680511475e-01 -1.945089846849441528e-01
1.185807064175605774e-01 4.103818833827972412e-01 2.650022208690643311e-01
3.024521656334400177e-02 8.095423579216003418e-01 2.650022208690643311e-01
-6.641831994056701660e-02 -7.412847280502319336e-01 -1.769762337207794189e-01
1.802644580602645874e-01 1.666748709976673126e-02 -2.268482297658920288e-01
-1.319403201341629028e-01 -4.584522247314453125e-01 -2.713738381862640381e-01
1.764402985572814941e-01 5.519166588783264160e-01 -2.664383351802825928e-01
2.695287466049194336e-01 -8.195676803588867188e-01 -2.059060186147689819e-01
-2.547679841518402100e-01 -7.426360994577407837e-02 1.417999863624572754e-01
-2.803781330585479736e-01 -4.543576240539550781e-01 -1.582069844007492065e-01
-2.364946305751800537e-01 -6.626377105712890625e-01 -2.503322660923004150e-01
2.739664018154144287e-01 -3.494143784046173096e-01 4.897333681583404541e-02
-2.990642488002777100e-01 2.548499405384063721e-01 -1.172695383429527283e-01
-2.723064422607421875e-01 -2.391696274280548096e-01 2.452276945114135742e-01
-1.033478379249572754e-01 -8.285214304924011230e-01 -2.410555928945541382e-01
2.804480195045471191e-01 -7.535533308982849121e-01 2.069734781980514526e-01
2.125693261623382568e-01 4.965204894542694092e-01 2.804145514965057373e-01
-2.904669940471649170e-01 -5.542076230049133301e-01 1.602567583322525024e-01
-3.606540709733963013e-02 7.037562727928161621e-01 -2.818497419357299805e-01
2.941785454750061035e-01 1.979650259017944336e-01 2.512974739074707031e-01
1.096222624182701111e-01 4.314024150371551514e-01 -2.664383351802825928e-01
2.576838433742523193e-02 -2.009784728288650513e-01 2.450470924377441406e-01
3.379610553383827209e-02 5.617714524269104004e-01 -2.664383351802825928e-01
-3.071521520614624023e-01 4.160598218441009521e-01 2.441985458135604858e-01
-1.320661697536706924e-02 8.551399409770965576e-02 -2.362834960222244263e-01
-1.893756240606307983e-01 -2.550865411758422852e-01 2.502778470516204834e-01
-1.768787205219268799e-01 -7.412847280502319336e-01 3.935144469141960144e-02
-2.340646237134933472e-01 4.474157989025115967e-01 -2.664383351802825928e-01
-1.152933835983276367e-01 5.035887956619262695e-01 -2.818497419357299805e-01
2.522702515125274658e-01 3.734644949436187744e-01 -2.818497419357299805e-01
-6.745071709156036377e-02 -4.871843382716178894e-02 -2.317617535591125488e-01
2.738851904869079590e-01 -3.486088216304779053e-01 2.068559527397155762e-01
-3.071521520614624023e-01 7.133692502975463867e-01 -2.706753015518188477e-01
2.757284641265869141e-01 -2.319293022155761719e-01 -1.111720576882362366e-01
3.113367259502410889e-01 6.668150424957275391e-01 1.656576246023178101e-01
6.104429066181182861e-02 -6.139544844627380371e-01 -2.585147619247436523e-01
-2.773126363754272461e-01 9.050559997558593750e-01 2.650022208690643311e-01
-2.917407751083374023e-01 5.954149961471557617e-01 1.188109517097473145e-01
3.113367259502410889e-01 4.806991815567016602e-01 -1.134463101625442505e-01
-4.803646821528673172e-03 -5.030533075332641602e-01 -2.756853401660919189e-01
1.538076847791671753e-01 -1.155651286244392395e-01 -2.382242530584335327e-01
-2.860312461853027344e-01 -6.007810831069946289e-01 -7.829768955707550049e-02
1.388587951660156250e-01 2.481141537427902222e-01 2.720867693424224854e-01
2.616720795631408691e-01 -5.843474995344877243e-03 -2.044382691383361816e-01
2.817600071430206299e-01 2.120242863893508911e-01 4.567128047347068787e-02
-6.257149577140808105e-02 -3.761320412158966064e-01 -2.634149193763732910e-01
2.787518799304962158e-01 -7.638084292411804199e-01 1.265520006418228149e-01
2.308598458766937256e-01 1.430183947086334229e-01 -2.582806646823883057e-01
2.101097106933593750e-01 -3.917232155799865723e-02 2.177484631538391113e-01
4.272807389497756958e-02 6.439577937126159668e-01 -2.818497419357299805e-01
2.088177651166915894e-01 7.043887972831726074e-01 -2.818497419357299805e-01
-2.427067756652832031e-01 -1.777984946966171265e-02 2.335287034511566162e-01
1.127861514687538147e-01 8.654773235321044922e-01 2.804145514965057373e-01
-1.533087044954299927e-01 9.161959886550903320e-01 -2.668291628360748291e-01
3.087958693504333496e-01 -5.429167747497558594e-01 -1.792600452899932861e-01
2.055678814649581909e-01 -7.412847280502319336e-01 2.795525453984737396e-02
-1.437167227268218994e-01 -8.285214304924011230e-01 -7.067704200744628906e-02
2.959377765655517578e-01 5.157713294029235840e-01 -4.469325765967369080e-02
1.821459829807281494e-01 -8.285214304924011230e-01 -3.832679614424705505e-02
-2.725711166858673096e-01 -7.758791446685791016e-01 -1.466169208288192749e-01
3.113367259502410889e-01 8.454104065895080566e-01 -1.084324494004249573e-01
2.829496860504150391e-01 -6.961227655410766602e-01 -2.624048888683319092e-01
2.523686885833740234e-01 9.161959886550903320e-01 2.650289535522460938e-01
-2.057339847087860107e-01 -3.249422907829284668e-01 -2.584660351276397705e-01
-1.726331412792205811e-01 -7.412847280502319336e-01 -1.892046332359313965e-01
2.524317502975463867e-01 -1.363334208726882935e-01 7.222171127796173096e-02
2.959377765655517578e-01 5.473576188087463379e-01 7.074210792779922485e-02
1.685074530541896820e-02 -8.285214304924011230e-01 -1.458295285701751709e-01
2.093462049961090088e-01 6.939482688903808594e-01 2.804145514965057373e-01
-2.917407751083374023e-01 3.218399584293365479e-01 -5.013435333967208862e-02
1.234741732478141785e-01 -7.881314754486083984e-01 -2.485692352056503296e-01
6.750316172838211060e-02 -3.036589622497558594e-01 -2.564086914062500000e-01
-3.071521520614624023e-01 5.474129915237426758e-01 1.736413985490798950e-01
2.730844318866729736e-01 -7.980692982673645020e-01 5.267491936683654785e-02
9.478421509265899658e-02 -4.317517578601837158e-01 -2.540981471538543701e-01
-1.974396556615829468e-01 7.984768748283386230e-01 2.804145514965057373e-01
-2.720197737216949463e-01 -6.841437220573425293e-01 1.578525602817535400e-01
2.687891423702239990e-01 2.133267223834991455e-01 -2.684765458106994629e-01
-2.917407751083374023e-01 6.692297458648681641e-01 -8.775111287832260132e-02
-2.367908656597137451e-01 -2.606536746025085449e-01 -2.384660243988037109e-01
2.726295590400695801e-01 1.517933607101440430e-01 -2.006790786981582642e-01
2.562310993671417236e-01 -3.995683416724205017e-02 1.570900082588195801e-01
-2.760321795940399170e-01 -7.549579739570617676e-01 -2.026562392711639404e-02
-2.607526779174804688e-01 1.010867655277252197e-01 2.289868742227554321e-01
-3.071521520614624023e-01 3.901391029357910156e-01 -1.176058948040008545e-01
2.952306568622589111e-01 -6.641829609870910645e-01 6.814105063676834106e-02
-2.593823969364166260e-01 -1.176530420780181885e-01 2.098554000258445740e-02
2.571904659271240234e-01 1.020795181393623352e-01 2.371111214160919189e-01
-2.419566661119461060e-01 3.177424967288970947e-01 -2.664383351802825928e-01
-2.139585465192794800e-01 -5.929033756256103516e-01 2.764909863471984863e-01
-1.426589041948318481e-01 -1.640238463878631592e-01 2.281928062438964844e-01
-2.112246602773666382e-01 2.605499029159545898e-01 2.738899290561676025e-01
2.683037221431732178e-01 3.726254999637603760e-01 2.804145514965057373e-01
-1.680827289819717407e-01 9.161959886550903320e-01 2.654828727245330811e-01
2.988054156303405762e-01 2.269779592752456665e-01 1.055648848414421082e-01
3.113367259502410889e-01 7.213443517684936523e-01 -2.127306908369064331e-01
2.991599142551422119e-01 -6.404294967651367188e-01 1.290708780288696289e-01
9.908618032932281494e-02 3.484238386154174805e-01 -2.664383351802825928e-01
9.232774376869201660e-02 -7.934998273849487305e-01 2.463266104459762573e-01
-2.740895152091979980e-01 1.890849471092224121e-01 2.194780409336090088e-01
2.529229223728179932e-01 4.958487451076507568e-01 -2.818497419357299805e-01
2.798823118209838867e-01 -7.569742202758789062e-01 -5.185762420296669006e-02
1.887711696326732635e-03 -8.285214304924011230e-01 6.912653148174285889e-02
2.837485373020172119e-01 -4.462037682533264160e-01 -3.040008060634136200e-02
-2.883991599082946777e-01 8.078873157501220703e-01 -2.664383351802825928e-01
-2.917407751083374023e-01 9.027120471000671387e-01 1.776824891567230225e-01
1.430903188884258270e-02 -4.383193850517272949e-01 -2.546982467174530029e-01
-9.988649748265743256e-03 3.788214027881622314e-01 2.804145514965057373e-01
1.476977914571762085e-01 -4.923872351646423340e-01 2.582004666328430176e-01
3.191831707954406738e-02 -2.067473717033863068e-02 -2.217311710119247437e-01
-3.079277649521827698e-02 -6.861026883125305176e-01 2.624766230583190918e-01
1.456739008426666260e-01 1.473954617977142334e-01 -2.447641491889953613e-01
2.215287238359451294e-01 -5.980853438377380371e-01 2.757122218608856201e-01
-1.886300183832645416e-02 8.271926045417785645e-01 -2.818497419357299805e-01
-2.358706593513488770e-01 -7.412847280502319336e-01 1.897770911455154419e-01
-3.002367019653320312e-01 -5.017862319946289062e-01 -2.100493609905242920e-01
-1.227477639913558960e-01 1.147152632474899292e-01 -2.541764974594116211e-01
3.113367259502410889e-01 5.533108115196228027e-01 1.770279258489608765e-01
1.188043057918548584e-01 -3.823833465576171875e-01 2.625846266746520996e-01
2.981683425605297089e-02 3.341744244098663330e-01 2.650022208690643311e-01
1.974799782037734985e-01 -1.595460623502731323e-01 -2.292285412549972534e-01
2.547031342983245850e-01 -8.285214304924011230e-01 1.697895079851150513e-01
2.939712107181549072e-01 -4.034985005855560303e-01 -8.515617251396179199e-02
-2.917407751083374023e-01 4.185815751552581787e-01 1.068634986877441406e-01
-2.901717126369476318e-01 -5.512846708297729492e-01 4.173013567924499512e-02
2.250366061925888062e-01 5.753672122955322266e-01 -2.818497419357299805e-01
-2.615630030632019043e-01 -2.681519687175750732e-01 1.825912445783615112e-01
-1.115647554397583008e-01 -1.926363855600357056e-01 -2.456757724285125732e-01
-2.579958438873291016e-01 5.935229659080505371e-01 -2.818497419357299805e-01
2.044068723917007446e-01 -6.218780279159545898e-01 -2.735697329044342041e-01
-3.071521520614624023e-01 3.725318610668182373e-01 -1.899060159921646118e-01
2.959377765655517578e-01 4.838190674781799316e-01 2.043313384056091309e-01
2.831991016864776611e-01 -3.021863996982574463e-01 2.392668873071670532e-01
-2.742882668972015381e-01 -3.940842747688293457e-01 6.096398457884788513e-02
-1.143464148044586182e-01 -3.269681036472320557e-01 -2.586619257926940918e-01
1.296819420531392097e-03 -1.555279046297073364e-01 2.274168878793716431e-01
-1.655848771333694458e-01 -7.676183581352233887e-01 2.502186298370361328e-01
2.869697511196136475e-01 6.283352971076965332e-01 2.804145514965057373e-01
-3.071521520614624023e-01 7.708293795585632324e-01 2.245653979480266571e-02
-1.484704017639160156e-02 -8.285214304924011230e-01 2.364250272512435913e-01
-3.917080909013748169e-02 -6.489445567131042480e-01 -2.694990336894989014e-01
-2.917407751083374023e-01 3.077644705772399902e-01 2.405578494071960449e-01
2.608856558799743652e-01 -2.199808955192565918e-01 -1.956336796283721924e-01
-2.673050165176391602e-01 -1.921433210372924805e-01 6.922332942485809326e-02
2.959377765655517578e-01 7.363344430923461914e-01 2.693575993180274963e-02
2.959377765655517578e-01 5.969172120094299316e-01 -2.788330800831317902e-02
1.285424977540969849e-01 4.819633960723876953e-01 -2.664383351802825928e-01
2.959377765655517578e-01 4.020588397979736328e-01 -2.132036983966827393e-01
-1.668404936790466309e-01 -6.740950345993041992e-01 -2.484058290719985962e-01
-2.740608751773834229e-01 -3.918339014053344727e-01 1.479681730270385742e-01
2.656663656234741211e-01 5.412248373031616211e-01 2.804145514965057373e-01
-2.662546001374721527e-03 -3.295032083988189697e-01 2.433156222105026245e-01
-3.071521520614624023e-01 5.856969356536865234e-01 -2.028215490281581879e-02
2.878336012363433838e-01 2.520854771137237549e-01 2.084431499242782593e-01
-2.120416760444641113e-01 -8.285214304924011230e-01 3.713519871234893799e-02
-2.716136574745178223e-01 1.727476119995117188e-01 6.705180555582046509e-02
-3.060991168022155762e-01 2.989426553249359131e-01 1.272925734519958496e-01
-2.838028669357299805e-01 -7.079794406890869141e-01 -1.171854510903358459e-01
-5.271759629249572754e-02 2.120166420936584473e-01 -2.682864069938659668e-01
2.848665714263916016e-01 -3.178634345531463623e-01 -1.021792143583297729e-01
1.441717594861984253e-01 8.002761006355285645e-01 2.804145514965057373e-01
-2.732171118259429932e-01 9.282780438661575317e-02 3.401527181267738342e-02
-2.062595486640930176e-01 -8.285214304924011230e-01 -1.773336082696914673e-01
6.339899450540542603e-02 -4.728726744651794434e-01 2.713328301906585693e-01
2.959377765655517578e-01 3.574816584587097168e-01 -9.779669344425201416e-03
1.168215051293373108e-01 2.677797079086303711e-01 -2.763733565807342529e-01
7.212772220373153687e-02 1.474621742963790894e-01 2.574904859066009521e-01
-2.211682945489883423e-01 -1.121996268630027771e-01 -2.378993630409240723e-01
2.526926100254058838e-01 2.028153464198112488e-02 2.045826986432075500e-03
1.310097724199295044e-01 -8.285214304924011230e-01 -1.517731547355651855e-01
-3.071521520614624023e-01 6.151656508445739746e-01 -2.310307472944259644e-01
-1.321581900119781494e-01 -8.285214304924011230e-01 6.885725259780883789e-02
2.872287333011627197e-01 -4.806385338306427002e-01 1.539758294820785522e-01
1.290269643068313599e-01 -7.040634751319885254e-01 2.419338524341583252e-01
1.005711331963539124e-01 -8.632859587669372559e-02 -2.225395739078521729e-01
2.612602114677429199e-01 -8.426568470895290375e-03 -1.394023746252059937e-01
-1.642659120261669159e-02 2.959326505661010742e-01 -2.651205956935882568e-01
-2.241286337375640869e-01 -4.730465710163116455e-01 -2.727842628955841064e-01
-1.727439761161804199e-01 1.984590590000152588e-01 2.648856341838836670e-01
3.113367259502410889e-01 8.543450236320495605e-01 2.281201928853988647e-01
5.421895906329154968e-02 7.699808478355407715e-01 -2.664383351802825928e-01
-2.917407751083374023e-01 7.477572560310363770e-01 -3.862588480114936829e-02
-3.071521520614624023e-01 4.551368057727813721e-01 -5.526354070752859116e-03
2.929143607616424561e-01 -5.847915410995483398e-01 2.398831397294998169e-02
3.113367259502410889e-01 7.754735350608825684e-01 1.410966813564300537e-01
3.093663454055786133e-01 -5.482851266860961914e-01 1.348797678947448730e-01
3.113367259502410889e-01 5.855334401130676270e-01 -1.834454238414764404e-01
2.059453278779983521e-01 6.361760944128036499e-02 2.453318685293197632e-01
3.113367259502410889e-01 4.095342755317687988e-01 7.804961502552032471e-02
-4.024362564086914062e-02 7.540246844291687012e-02 2.334541529417037964e-01
-1.864468157291412354e-01 -5.284599065780639648e-01 2.767069637775421143e-01
1.834522485733032227e-01 -5.491088032722473145e-01 -2.648205459117889404e-01
3.113367259502410889e-01 7.663679122924804688e-01 9.090046584606170654e-02
1.102175861597061157e-01 5.909066200256347656e-01 -2.818497419357299805e-01
2.950605452060699463e-01 2.034958451986312866e-01 -2.268635183572769165e-01
-2.926915585994720459e-01 2.148995995521545410e-01 -8.273858577013015747e-02
1.763122379779815674e-01 -7.037338018417358398e-01 2.419892698526382446e-01
-2.917407751083374023e-01 8.720564842224121094e-01 2.059604972600936890e-02
1.867135912179946899e-01 -7.412847280502319336e-01 -3.727241978049278259e-02
2.713385820388793945e-01 1.432796418666839600e-01 4.911476746201515198e-03
-2.476384788751602173e-01 -7.382097840309143066e-01 -2.560761868953704834e-01
3.113367259502410889e-01 3.135628402233123779e-01 9.949798882007598877e-02
-2.756901085376739502e-01 -2.709833383560180664e-01 1.268643885850906372e-02
2.273433506488800049e-01 -3.051792681217193604e-01 -2.425348311662673950e-01
3.113367259502410889e-01 3.512169420719146729e-01 2.003112584352493286e-01
2.011751532554626465e-01 -8.285214304924011230e-01 2.256978303194046021e-01
2.747471034526824951e-01 7.663869261741638184e-01 -2.664383351802825928e-01
2.703782618045806885e-01 -1.816081851720809937e-01 2.725491859018802643e-02
-2.917407751083374023e-01 6.626133322715759277e-01 1.204459369182586670e-01
2.396634668111801147e-01 -4.805335104465484619e-01 -2.735085785388946533e-01
2.576119005680084229e-01 -3.130322694778442383e-02 9.435388445854187012e-02
2.742282450199127197e-01 7.288024574518203735e-02 -5.650282651185989380e-02
-2.748396396636962891e-01 -2.629842758178710938e-01 1.179490312933921814e-01
-2.743274569511413574e-01 -2.581758797168731689e-01 -5.899542197585105896e-02
9.330796450376510620e-02 7.401241660118103027e-01 2.650022208690643311e-01
2.673070728778839111e-01 -1.527213901281356812e-01 2.348617166280746460e-01
4.250619187951087952e-02 4.734100997447967529e-01 -2.664383351802825928e-01
1.185405701398849487e-01 9.161959886550903320e-01 -2.698888778686523438e-01
3.113367259502410889e-01 3.298753499984741211e-01 5.815786123275756836e-02
-1.497234255075454712e-01 -8.285214304924011230e-01 1.808645278215408325e-01
-1.825039274990558624e-03 -6.575561165809631348e-01 -2.682042121887207031e-01
-3.834194689989089966e-02 -4.563069641590118408e-01 2.549037635326385498e-01
-3.071521520614624023e-01 5.038276910781860352e-01 -1.429437100887298584e-01
2.942686900496482849e-02 -8.246513605117797852e-01 -2.430775910615921021e-01
1.850193738937377930e-01 3.778801560401916504e-01 2.650022208690643311e-01
2.909535169601440430e-01 1.777471452951431274e-01 -1.033039242029190063e-01
-2.860971689224243164e-01 -3.688420057296752930e-01 -3.343314304947853088e-02
-3.283253312110900879e-02 -7.412847280502319336e-01 1.280178427696228027e-01
5.353859439492225647e-02 9.805160760879516602e-02 -2.517598569393157959e-01
-2.676929831504821777e-01 5.819998681545257568e-02 -1.428003758192062378e-01
3.113367259502410889e-01 4.879729449748992920e-01 1.478610560297966003e-02
-2.428854852914810181e-01 -1.680105738341808319e-02 -9.957434237003326416e-02
-1.099250018596649170e-01 1.579791866242885590e-02 2.383973002433776855e-01
7.058715820312500000e-02 -7.412847280502319336e-01 6.125935167074203491e-02
-1.482792757451534271e-02 7.680745720863342285e-01 2.804145514965057373e-01
-1.737349033355712891e-01 -7.412847280502319336e-01 1.734244823455810547e-01
