-2.975775301456451416e-01 -4.064787924289703369e-01 -2.810004353523254395e-01
-2.085473984479904175e-01 -1.700465530157089233e-01 -2.683267593383789062e-01
3.419279754161834717e-01 -1.787301152944564819e-01 4.939144849777221680e-02
2.679207324981689453e-01 -4.586107432842254639e-01 3.300083577632904053e-01
3.057315647602081299e-01 -1.773176193237304688e-01 -1.629680097103118896e-01
-8.054767549037933350e-02 -1.711975634098052979e-01 -3.333475887775421143e-01
-5.364228039979934692e-02 -5.018448829650878906e-01 -4.322685301303863525e-01
3.045019209384918213e-01 -3.027617633342742920e-01 2.284468859434127808e-01
-3.362902998924255371e-01 -1.534854024648666382e-01 8.832073770463466644e-03
-5.083381757140159607e-02 1.860737204551696777e-01 -2.341998815536499023e-01
7.028708606958389282e-02 -3.736775219440460205e-01 3.939724564552307129e-01
-9.159070998430252075e-02 6.433436274528503418e-02 -2.577664852142333984e-01
2.051853388547897339e-02 -4.030604660511016846e-01 -4.086208641529083252e-01
2.586802840232849121e-01 -4.234305620193481445e-01 -3.240367770195007324e-01
-1.128527820110321045e-01 1.807575821876525879e-01 2.132998853921890259e-01
1.386552900075912476e-01 -3.546959757804870605e-01 3.698969483375549316e-01
-5.536583438515663147e-02 4.859745800495147705e-01 -1.422496140003204346e-01
-5.998854339122772217e-02 -8.801276981830596924e-02 -3.120582103729248047e-01
-3.723344504833221436e-01 -3.499346673488616943e-01 -1.222535744309425354e-01
2.295935600996017456e-01 -3.315389752388000488e-01 3.136101663112640381e-01
-3.298119604587554932e-01 -3.444898426532745361e-01 -2.098695188760757446e-01
9.131934493780136108e-03 2.342536151409149170e-01 -2.262792587280273438e-01
-1.473313421010971069e-01 3.331748247146606445e-01 1.296980232000350952e-01
2.985861897468566895e-02 -4.984920024871826172e-01 4.352984130382537842e-01
-3.018961250782012939e-01 -5.125615000724792480e-02 -4.570408165454864502e-02
2.359295636415481567e-01 -9.642989188432693481e-02 2.208771109580993652e-01
3.714979290962219238e-01 -3.736104965209960938e-01 -1.508917808532714844e-01
-8.403417468070983887e-02 -4.556583762168884277e-01 4.153246879577636719e-01
4.128172695636749268e-01 -4.558320641517639160e-01 1.129647567868232727e-01
2.354885339736938477e-01 7.205218076705932617e-03 -1.723863780498504639e-01
1.307040452957153320e-01 2.948840335011482239e-02 2.542634010314941406e-01
3.998407423496246338e-01 -3.673142194747924805e-01 -2.232523821294307709e-02
-2.524749636650085449e-01 1.297416239976882935e-01 2.489344030618667603e-02
-7.780002802610397339e-02 4.350995421409606934e-01 1.490858644247055054e-01
2.127609997987747192e-01 4.364987462759017944e-02 1.852624118328094482e-01
-1.013632342219352722e-01 4.022668004035949707e-01 -1.442603766918182373e-01
-5.942122265696525574e-02 2.749780416488647461e-01 -2.058852016925811768e-01
9.555108845233917236e-02 -7.986708730459213257e-02 3.026758730411529541e-01
-1.504161953926086426e-01 8.474082499742507935e-02 -2.210851758718490601e-01
2.092624157667160034e-01 -3.579637110233306885e-01 -3.383563160896301270e-01
4.281934797763824463e-01 -4.971423447132110596e-01 -9.143329411745071411e-02
4.744004458189010620e-03 7.535887360572814941e-01 -7.704839855432510376e-02
-3.416110947728157043e-02 -1.060286387801170349e-01 3.210351467132568359e-01
-1.413396652787923813e-02 2.992200553417205811e-01 2.067735493183135986e-01
1.920814663171768188e-01 1.068320348858833313e-01 1.825300753116607666e-01
-3.035494387149810791e-01 -4.034172743558883667e-02 9.611559100449085236e-03
2.056852132081985474e-01 2.916378378868103027e-01 5.364692956209182739e-02
1.244846172630786896e-02 8.464591503143310547e-01 -4.924461618065834045e-02
-2.553388774394989014e-01 -3.468920588493347168e-01 2.965533733367919922e-01
9.157340228557586670e-02 9.782988578081130981e-02 2.493159025907516479e-01
2.788012623786926270e-01 -7.527214009314775467e-03 1.014710664749145508e-01
1.031854152679443359e-01 5.011944174766540527e-01 -1.100366786122322083e-01
1.645751483738422394e-02 -2.598073482513427734e-01 3.682113885879516602e-01
-1.951414197683334351e-01 -4.316672682762145996e-01 3.687955737113952637e-01
3.061883449554443359e-01 -4.817794263362884521e-02 3.481193259358406067e-02
-2.172996699810028076e-01 2.173298448324203491e-01 7.298262417316436768e-02
8.767514675855636597e-02 -4.988173022866249084e-02 2.966559827327728271e-01
-1.306088268756866455e-01 5.282852649688720703e-01 4.988247528672218323e-02
-2.251847088336944580e-01 2.048953920602798462e-01 -6.285887956619262695e-02
5.828293040394783020e-02 -1.290954500436782837e-01 3.250004351139068604e-01
2.064812630414962769e-01 -4.474853873252868652e-01 3.705266714096069336e-01
-1.423689574003219604e-01 -1.807624101638793945e-01 -3.126051723957061768e-01
-1.268893182277679443e-01 -1.822154037654399872e-02 2.690810561180114746e-01
3.581854403018951416e-01 -3.067187368869781494e-01 -1.330397576093673706e-01
-3.668748214840888977e-02 3.312782645225524902e-01 1.945566534996032715e-01
2.522954642772674561e-01 1.271134614944458008e-01 6.009315699338912964e-02
5.102668702602386475e-02 -3.310515880584716797e-01 3.842123448848724365e-01
3.007061965763568878e-02 4.108709394931793213e-01 1.729553192853927612e-01
2.072350978851318359e-01 2.552561089396476746e-02 -2.005984485149383545e-01
1.333635598421096802e-01 2.550183534622192383e-01 -1.756234765052795410e-01
4.368084073066711426e-01 -4.880756735801696777e-01 6.503871176391839981e-03
-1.455969512462615967e-01 4.497632384300231934e-01 -7.200094312429428101e-02
-1.638014912605285645e-01 -1.511552035808563232e-01 -2.945619821548461914e-01
1.593695729970932007e-01 2.080820947885513306e-01 1.729677319526672363e-01
-8.149050176143646240e-02 -3.080162405967712402e-01 3.730703294277191162e-01
-1.595383137464523315e-01 -2.369978874921798706e-01 -3.229014873504638672e-01
5.092383176088333130e-02 -8.649765700101852417e-02 -3.133010864257812500e-01
-1.227659806609153748e-01 5.787746906280517578e-01 -2.588745206594467163e-02
3.309646844863891602e-01 -1.336647719144821167e-01 -3.354692831635475159e-02
2.260395437479019165e-01 -2.744189798831939697e-01 -2.953662872314453125e-01
-2.869842201471328735e-02 -2.257996201515197754e-01 3.563039600849151611e-01
1.261148601770401001e-01 5.887573957443237305e-01 -6.651653442531824112e-03
-1.719794720411300659e-01 4.124853610992431641e-01 1.680549606680870056e-02
5.125043541193008423e-02 -1.712778359651565552e-01 -3.377141952514648438e-01
8.326733857393264771e-02 6.410731077194213867e-01 7.335507869720458984e-02
-3.476797342300415039e-01 -2.685363888740539551e-01 1.213214620947837830e-01
-1.918737143278121948e-01 3.283630311489105225e-01 5.001214146614074707e-02
1.125681847333908081e-01 2.136745303869247437e-01 -2.043792009353637695e-01
-4.626588150858879089e-02 6.472989916801452637e-02 2.701849043369293213e-01
-3.670129179954528809e-01 -2.910024523735046387e-01 -7.639908045530319214e-02
4.756931215524673462e-02 -4.001924097537994385e-01 -4.042319059371948242e-01
2.583873569965362549e-01 1.121063753962516785e-01 -4.632402956485748291e-02
-4.227307159453630447e-03 8.064529895782470703e-01 -6.138058379292488098e-02
2.298393398523330688e-01 -3.203631937503814697e-02 1.985624730587005615e-01
-1.029420644044876099e-01 6.004008650779724121e-01 6.200487911701202393e-02
3.792000189423561096e-02 8.962154388427734375e-01 -2.889296971261501312e-03
-3.682235479354858398e-01 -4.888949096202850342e-01 2.280306667089462280e-01
6.668465584516525269e-02 4.746687710285186768e-01 1.429716199636459351e-01
-2.846804559230804443e-01 -2.985382974147796631e-01 2.474780678749084473e-01
1.850172877311706543e-01 1.967027485370635986e-01 1.495153158903121948e-01
-2.972299754619598389e-01 -3.934319019317626953e-01 2.757033705711364746e-01
-8.671851456165313721e-02 -3.941659033298492432e-01 3.972327411174774170e-01
2.709791064262390137e-01 -3.396532237529754639e-01 2.847783267498016357e-01
-5.160229653120040894e-02 6.578965783119201660e-01 9.067247062921524048e-02
-1.107600927352905273e-01 3.626909852027893066e-01 1.516973823308944702e-01
-2.808318436145782471e-01 -1.277954876422882080e-01 1.722792685031890869e-01
3.613157868385314941e-01 -2.530327439308166504e-01 -6.455206125974655151e-02
-4.235093481838703156e-03 3.758636415004730225e-01 -1.855879873037338257e-01
2.414712160825729370e-01 -2.164300531148910522e-01 -2.626204788684844971e-01
2.417335063219070435e-01 1.779333204030990601e-01 -2.858850918710231781e-02
3.977330774068832397e-02 6.344391703605651855e-01 1.046609953045845032e-01
-1.577567607164382935e-01 4.661448597908020020e-01 7.263058330863714218e-03
-1.209157407283782959e-01 6.661570630967617035e-03 -2.634727954864501953e-01
-3.825868964195251465e-01 -3.234843313694000244e-01 2.965251728892326355e-02
3.005689382553100586e-01 -2.144043892621994019e-01 -1.916831880807876587e-01
4.617906734347343445e-02 5.676045268774032593e-02 2.729817926883697510e-01
1.667920500040054321e-01 3.087194636464118958e-02 2.311543971300125122e-01
1.281554102897644043e-01 4.293890893459320068e-01 1.143044382333755493e-01
2.927798628807067871e-01 -3.933880627155303955e-01 2.862975895404815674e-01
1.388836801052093506e-01 -5.588177591562271118e-02 -2.769217789173126221e-01
3.441356718540191650e-01 -1.932507008314132690e-01 -6.406087428331375122e-02
-3.836386501789093018e-01 -3.282605409622192383e-01 -3.174881637096405029e-02
2.810519933700561523e-01 -1.176025867462158203e-01 -1.716408282518386841e-01
9.755938500165939331e-02 3.562167882919311523e-01 1.668509989976882935e-01
-1.754540503025054932e-01 2.914318144321441650e-01 1.126585826277732849e-01
-9.158904850482940674e-02 4.503921866416931152e-01 -1.344117224216461182e-01
1.994170695543289185e-01 1.127696037292480469e-01 -1.698013395071029663e-01
-1.464343667030334473e-01 -2.372088879346847534e-01 3.287745714187622070e-01
1.421356648206710815e-01 -2.751967608928680420e-01 -3.434651792049407959e-01
-1.968791335821151733e-01 3.193153738975524902e-01 -3.143412619829177856e-02
2.544468082487583160e-02 3.613140434026718140e-02 -2.812817692756652832e-01
-3.679189980030059814e-01 -3.863644301891326904e-01 1.605191379785537720e-01
-1.473785042762756348e-01 2.256239205598831177e-01 -1.726296544075012207e-01
-2.175942361354827881e-01 1.577755957841873169e-01 1.167777702212333679e-01
-9.305121004581451416e-02 3.390846848487854004e-01 -1.721108257770538330e-01
1.704528331756591797e-01 3.985663354396820068e-01 -5.917965993285179138e-02
-2.352667003870010376e-01 1.404892355203628540e-01 -8.665129542350769043e-02
1.685835570096969604e-01 -3.504791557788848877e-01 -3.558144569396972656e-01
2.980542182922363281e-01 -8.901485800743103027e-02 1.158898994326591492e-01
7.025522738695144653e-02 7.815715670585632324e-01 -8.472910150885581970e-03
2.316382676362991333e-01 2.178748995065689087e-01 1.813152991235256195e-02
-2.307437211275100708e-01 -3.870793879032135010e-01 -3.295329213142395020e-01
-3.599545359611511230e-01 -4.610700309276580811e-01 -2.253558039665222168e-01
2.033633142709732056e-01 -5.944489315152168274e-02 -2.352706491947174072e-01
1.147221177816390991e-01 -2.278591990470886230e-01 -3.401668369770050049e-01
-3.429440557956695557e-01 -1.845687925815582275e-01 -2.601421996951103210e-02
1.193741057068109512e-02 2.650589942932128906e-01 2.174033373594284058e-01
3.099508881568908691e-01 -6.175686419010162354e-02 -3.560528159141540527e-02
-2.485312074422836304e-01 -1.987542808055877686e-01 2.477105855941772461e-01
-2.291615605354309082e-01 -1.322547793388366699e-01 2.392653226852416992e-01
-3.006475605070590973e-02 -3.298203349113464355e-01 3.861295878887176514e-01
2.828103899955749512e-01 -3.095809929072856903e-02 -1.089237183332443237e-01
-2.402208149433135986e-01 -7.749965041875839233e-02 2.015753239393234253e-01
7.949254661798477173e-02 1.399649530649185181e-01 -2.408966720104217529e-01
1.246204227209091187e-01 -9.722261130809783936e-02 -2.956269681453704834e-01
-1.434935033321380615e-01 4.453727006912231445e-01 8.074016124010086060e-02
-2.085598260164260864e-01 -3.613158166408538818e-01 3.376484513282775879e-01
-2.035022675991058350e-01 2.945216298103332520e-01 3.583494573831558228e-02
2.673232853412628174e-01 -2.565462589263916016e-01 2.551860511302947998e-01
-1.896924674510955811e-01 2.424516081809997559e-01 1.171128973364830017e-01
1.413793563842773438e-01 -1.947252750396728516e-01 -3.188683390617370605e-01
6.666851788759231567e-02 7.393817901611328125e-01 4.880195111036300659e-02
-8.363202214241027832e-02 5.239567160606384277e-01 -1.139986440539360046e-01
-2.914046309888362885e-02 -6.820790469646453857e-02 3.107868432998657227e-01
-2.226369082927703857e-01 -4.554688632488250732e-01 3.607872426509857178e-01
-2.649855911731719971e-01 -3.755310922861099243e-02 1.483411341905593872e-01
-3.379924297332763672e-01 -2.623253762722015381e-01 -1.396893858909606934e-01
3.278914391994476318e-01 -3.374165892601013184e-01 -2.138662338256835938e-01
-1.309720873832702637e-01 5.564749240875244141e-01 1.279346365481615067e-02
1.130456402897834778e-01 -2.853027582168579102e-01 3.590230345726013184e-01
1.376019120216369629e-01 3.138018846511840820e-01 1.515600234270095825e-01
-1.851603686809539795e-01 3.668192923069000244e-01 -1.636225916445255280e-02
1.738652586936950684e-02 -2.050364911556243896e-01 -3.519104123115539551e-01
2.058672606945037842e-01 2.526203393936157227e-01 8.313248306512832642e-02
-2.522771954536437988e-01 8.665478229522705078e-02 8.619746565818786621e-02
6.119549274444580078e-02 7.977860569953918457e-01 2.497693151235580444e-02
-2.778611779212951660e-01 -4.799274504184722900e-01 3.272288143634796143e-01
-6.959085911512374878e-02 5.977454781532287598e-01 9.855254739522933960e-02
3.892878890037536621e-01 -3.269092738628387451e-01 1.432984415441751480e-02
-7.500306516885757446e-02 5.172069668769836426e-01 1.234331876039505005e-01
2.434968799352645874e-01 -1.350334286689758301e-01 2.291518896818161011e-01
1.959672197699546814e-02 2.746582627296447754e-01 -2.132456302642822266e-01
3.853639960289001465e-01 -3.466967344284057617e-01 8.749742805957794189e-02
6.091572344303131104e-02 -2.541051805019378662e-01 3.607144057750701904e-01
1.430012136697769165e-01 -1.146603608503937721e-04 -2.579534947872161865e-01
4.258798658847808838e-01 -4.908741712570190430e-01 9.565141052007675171e-02
-2.665172815322875977e-01 -2.356730699539184570e-01 -2.412343025207519531e-01
1.148834750056266785e-01 5.452452301979064941e-01 7.717132568359375000e-02
-2.475464940071105957e-01 1.578912883996963501e-01 -2.723312063608318567e-04
-2.297002524137496948e-01 8.953192085027694702e-02 -1.364357471466064453e-01
-2.773042917251586914e-01 -4.437526166439056396e-01 3.146155774593353271e-01
-2.312517762184143066e-01 -6.676974147558212280e-02 -2.078430354595184326e-01
1.076744869351387024e-01 5.859001278877258301e-01 6.746756285429000854e-02
-2.128853462636470795e-03 -5.013698935508728027e-01 -4.389131963253021240e-01
1.514853537082672119e-01 4.881806373596191406e-01 3.469244390726089478e-02
-3.773547708988189697e-01 -3.204110562801361084e-01 6.265875697135925293e-02
-4.198176562786102295e-01 -4.594573080539703369e-01 4.478752240538597107e-02
3.899027109146118164e-01 -4.074850082397460938e-01 -1.317720562219619751e-01
-3.320775926113128662e-01 -2.195347398519515991e-01 -1.219887807965278625e-01
8.454504609107971191e-02 -1.696866005659103394e-01 3.332520425319671631e-01
4.031837582588195801e-01 -3.937223553657531738e-01 5.517354235053062439e-02
2.268289625644683838e-01 -6.030133739113807678e-02 2.157649546861648560e-01
8.111985772848129272e-02 4.429862797260284424e-01 1.468003690242767334e-01
-2.939366102218627930e-01 -3.746788203716278076e-02 7.633449882268905640e-02
-2.789460122585296631e-01 -1.959847062826156616e-01 -2.063916325569152832e-01
6.562241911888122559e-02 2.673444151878356934e-01 2.075902670621871948e-01
-4.025366008281707764e-01 -4.468920528888702393e-01 1.221779063344001770e-01
-1.586454659700393677e-01 3.672561645507812500e-01 9.894229471683502197e-02
1.301984637975692749e-01 4.585097432136535645e-01 -9.758146107196807861e-02
1.271798163652420044e-01 2.335499972105026245e-01 1.884879320859909058e-01
-2.886109650135040283e-01 -1.373751908540725708e-01 -1.655265837907791138e-01
4.922633990645408630e-02 8.375852704048156738e-01 -2.374990656971931458e-02
3.779728710651397705e-02 -3.338989913463592529e-01 -3.863947689533233643e-01
-1.750179678201675415e-01 1.360277086496353149e-01 1.840989738702774048e-01
1.693845391273498535e-01 2.995096743106842041e-01 -1.212101280689239502e-01
3.442895039916038513e-02 -5.023092776536941528e-02 3.053908348083496094e-01
3.603451550006866455e-01 -2.543120384216308594e-01 7.510941475629806519e-02
2.563078999519348145e-01 8.723566681146621704e-02 -8.457598090171813965e-02
3.422589600086212158e-01 -4.598180353641510010e-01 -2.526460587978363037e-01
1.912258565425872803e-01 -2.001469954848289490e-02 -2.303702980279922485e-01
6.613678485155105591e-02 5.307196974754333496e-01 1.258477717638015747e-01
3.284615576267242432e-01 -4.675641059875488281e-01 2.746450304985046387e-01
6.457897275686264038e-02 2.047355175018310547e-01 -2.270239889621734619e-01
-5.295000970363616943e-02 -1.907111853361129761e-01 3.429898321628570557e-01
-3.123845346271991730e-02 8.962891101837158203e-01 1.476104464381933212e-02
-3.435671329498291016e-01 -1.830710768699645996e-01 1.838109828531742096e-02
1.280486732721328735e-01 -9.685521572828292847e-02 2.944739162921905518e-01
1.634333133697509766e-01 3.757725954055786133e-01 -9.313790500164031982e-02
5.104514211416244507e-02 1.478700935840606689e-01 2.460589408874511719e-01
6.804767996072769165e-02 -2.250829786062240601e-01 -3.510233461856842041e-01
-2.262571007013320923e-01 -2.917190492153167725e-01 -2.985992729663848877e-01
-3.238400518894195557e-01 -1.111813634634017944e-01 1.070333458483219147e-02
1.273750960826873779e-01 7.448422908782958984e-02 -2.413327693939208984e-01
2.637328505516052246e-01 -3.573737442493438721e-01 -2.963468432426452637e-01
-2.708747684955596924e-01 4.786753654479980469e-02 -6.414908170700073242e-02
7.793646305799484253e-02 4.118945300579071045e-01 -1.573635041713714600e-01
2.855278551578521729e-01 -4.955147504806518555e-01 3.298006355762481689e-01
1.868857294321060181e-01 3.597882091999053955e-01 4.711919277906417847e-02
1.250548511743545532e-01 1.474589109420776367e-01 2.200843840837478638e-01
-3.954376578330993652e-01 -4.025019407272338867e-01 -1.047945991158485413e-01
2.340999245643615723e-02 -4.448572918772697449e-02 -3.048045337200164795e-01
3.208967745304107666e-01 -1.152244210243225098e-01 -6.961771845817565918e-02
-1.974219530820846558e-01 -4.728924110531806946e-02 2.329913973808288574e-01
1.599686592817306519e-01 -2.369986772537231445e-01 3.246346712112426758e-01
-2.241347171366214752e-02 -2.703684270381927490e-01 -3.696077167987823486e-01
2.692438662052154541e-01 9.168668091297149658e-02 -8.599514141678810120e-03
-2.968079745769500732e-01 -8.626846224069595337e-02 1.079212650656700134e-01
7.178010791540145874e-02 -2.681838870048522949e-01 -3.629647195339202881e-01
2.079839557409286499e-01 2.966126799583435059e-01 -2.490515075623989105e-02
-2.214329093694686890e-01 2.360797673463821411e-01 2.768452465534210205e-02
1.205293685197830200e-01 5.566098093986511230e-01 -6.159316748380661011e-02
7.994087040424346924e-02 -4.964861869812011719e-01 -4.277471899986267090e-01
-4.704073444008827209e-02 3.579238951206207275e-01 -1.851270794868469238e-01
6.669111549854278564e-02 7.537939548492431641e-01 -4.162221401929855347e-02
-2.689344249665737152e-02 -5.030273795127868652e-01 4.365106523036956787e-01
4.264731407165527344e-01 -4.616898000240325928e-01 2.719647809863090515e-02
1.329672038555145264e-01 4.721010923385620117e-01 8.796744048595428467e-02
-1.775864660739898682e-01 -4.766183495521545410e-01 -3.896020948886871338e-01
3.504923582077026367e-01 -3.420305848121643066e-01 1.783811002969741821e-01
9.427842497825622559e-02 5.989163368940353394e-02 -2.595596313476562500e-01
-9.442078880965709686e-03 4.218615293502807617e-01 1.720136404037475586e-01
5.423540249466896057e-02 -1.332866586744785309e-02 2.921387553215026855e-01
-1.764660477638244629e-01 1.302157491445541382e-01 -1.847034096717834473e-01
-3.772810995578765869e-01 -4.531121850013732910e-01 1.877986341714859009e-01
1.652909256517887115e-02 6.098034977912902832e-01 -1.169734299182891846e-01
-4.452114552259445190e-02 7.347643971443176270e-01 6.839599460363388062e-02
7.912638038396835327e-02 3.181684613227844238e-01 1.862644851207733154e-01
-1.321917921304702759e-01 2.437873333692550659e-01 1.781146526336669922e-01
-1.384483724832534790e-01 -4.589765369892120361e-01 4.007321298122406006e-01
-2.965646684169769287e-01 -1.935420036315917969e-01 1.826624721288681030e-01
1.192161589860916138e-01 2.923544347286224365e-01 -1.730194091796875000e-01
5.617517977952957153e-02 1.901390254497528076e-01 2.331908047199249268e-01
3.143869936466217041e-01 -4.650750458240509033e-01 -2.914390861988067627e-01
-2.091034799814224243e-01 -2.358203828334808350e-01 -2.916111946105957031e-01
2.330648452043533325e-01 -6.687400490045547485e-02 -2.103461623191833496e-01
-1.754656434059143066e-01 -1.213427931070327759e-01 2.765341699123382568e-01
-2.107344418764114380e-01 -2.574299871921539307e-01 2.985293865203857422e-01
1.508754119277000427e-02 3.322414159774780273e-01 1.976092308759689331e-01
-3.173965588212013245e-02 -1.736899316310882568e-01 -3.404920399188995361e-01
1.067617759108543396e-01 6.582987904548645020e-01 1.661679707467556000e-03
2.112889140844345093e-01 -1.594068259000778198e-01 2.656039893627166748e-01
-2.643517553806304932e-01 -1.335547417402267456e-01 -1.960820704698562622e-01
1.173642575740814209e-01 6.106045246124267578e-01 2.562625519931316376e-02
-2.293245941400527954e-01 9.485013037919998169e-02 1.348060518503189087e-01
2.237764000892639160e-01 -4.883147776126861572e-01 3.745895922183990479e-01
-3.896156325936317444e-02 -2.289936840534210205e-01 -3.554942309856414795e-01
1.949883997440338135e-01 -5.043480396270751953e-01 -3.925081789493560791e-01
-2.536643296480178833e-03 3.060376346111297607e-01 -2.059538960456848145e-01
1.074758768081665039e-01 -2.136042267084121704e-01 3.391362726688385010e-01
-1.239335536956787109e-01 -8.105534315109252930e-02 2.897564470767974854e-01
-1.540762279182672501e-02 2.155760675668716431e-01 -2.303537577390670776e-01
-4.024910926818847656e-01 -3.862800300121307373e-01 1.605464145541191101e-02
-2.379693463444709778e-02 -1.047220546752214432e-02 2.948355078697204590e-01
-2.257458306849002838e-02 -6.425586342811584473e-02 -3.101310133934020996e-01
-1.128172129392623901e-01 -2.917761802673339844e-01 -3.592104315757751465e-01
-3.066177368164062500e-01 -6.357318162918090820e-02 3.721104189753532410e-02
1.791132092475891113e-01 4.039805233478546143e-01 -8.947220630943775177e-03
-9.377525746822357178e-02 1.191683262586593628e-01 2.402674257755279541e-01
1.000724360346794128e-01 6.526950597763061523e-01 -3.917212784290313721e-02
-2.838206887245178223e-01 2.029510587453842163e-02 2.660631947219371796e-02
-4.369325190782546997e-02 5.363357663154602051e-01 1.318743079900741577e-01
-5.893408507108688354e-02 2.340492308139801025e-01 2.191369235515594482e-01
-4.458884708583354950e-03 -1.697569340467453003e-01 3.433282673358917236e-01
3.363771364092826843e-02 -2.846606373786926270e-01 -3.727397322654724121e-01
2.811000049114227295e-01 -2.782477140426635742e-01 2.474267631769180298e-01
-2.874575555324554443e-02 5.036851167678833008e-01 -1.454900056123733521e-01
-3.060394339263439178e-02 4.329968690872192383e-01 -1.656358093023300171e-01
8.121526986360549927e-02 5.364590883255004883e-01 -1.141823455691337585e-01
7.700579613447189331e-02 -3.078680485486984253e-02 -2.937974035739898682e-01
2.883511781692504883e-01 2.162900753319263458e-02 -1.696226373314857483e-02
8.606984466314315796e-02 7.117067575454711914e-01 2.925491333007812500e-02
1.298178136348724365e-01 3.559081554412841797e-01 -1.419740468263626099e-01
9.523995965719223022e-02 -3.161801397800445557e-01 -3.737219274044036865e-01
-9.517369419336318970e-02 6.440420746803283691e-01 4.892143979668617249e-02
1.659430563449859619e-01 -8.226428925991058350e-02 2.725903987884521484e-01
-2.890197336673736572e-01 -4.319344758987426758e-01 -3.009857237339019775e-01
3.483202457427978516e-01 -2.897984683513641357e-01 1.445910036563873291e-01
2.296307981014251709e-01 -4.320305585861206055e-01 -3.494271636009216309e-01
-5.970621109008789062e-02 7.699165940284729004e-01 3.871357813477516174e-02
-2.150563746690750122e-01 1.011298410594463348e-02 1.932103484869003296e-01
-3.703948259353637695e-01 -4.164424836635589600e-01 -1.766412854194641113e-01
-1.654887199401855469e-01 4.058241546154022217e-01 -5.681654438376426697e-02
2.072367519140243530e-01 -1.690279394388198853e-01 -2.718013525009155273e-01
4.203448593616485596e-01 -4.553199112415313721e-01 -5.941193178296089172e-02
7.594365626573562622e-02 -4.115115106105804443e-01 4.041413366794586182e-01
-1.469333320856094360e-01 4.077753424644470215e-01 -9.478954970836639404e-02
2.040236443281173706e-01 -2.887243926525115967e-01 3.177963793277740479e-01
3.105772733688354492e-01 -1.815923601388931274e-01 1.548442840576171875e-01
-1.108833849430084229e-01 6.259128451347351074e-01 1.323649752885103226e-02
6.308239698410034180e-02 4.045870602130889893e-01 1.661584079265594482e-01
2.909238338470458984e-01 -4.288497269153594971e-01 -3.012480139732360840e-01
-2.973094284534454346e-01 -2.757569551467895508e-01 -2.199366390705108643e-01
-2.771545052528381348e-01 -4.830455034971237183e-02 -1.266185194253921509e-01
-2.060832642018795013e-02 8.812968730926513672e-01 -3.354196622967720032e-02
-1.230349168181419373e-01 5.429192185401916504e-01 -5.685245618224143982e-02
2.147734165191650391e-01 -3.750751614570617676e-01 3.406761884689331055e-01
-1.331102997064590454e-01 -4.662410020828247070e-01 -4.048119783401489258e-01
-3.258590996265411377e-01 -1.481705009937286377e-01 -7.603731006383895874e-02
2.076513320207595825e-01 1.855481863021850586e-01 -1.248791590332984924e-01
9.971248358488082886e-02 3.573429882526397705e-01 -1.645584255456924438e-01
-4.249919950962066650e-02 6.136761307716369629e-01 1.084276884794235229e-01
1.038334958138875663e-04 -4.487877786159515381e-01 -4.240392744541168213e-01
2.684470117092132568e-01 -1.890214830636978149e-01 2.219991683959960938e-01
-2.046982757747173309e-03 -4.391725361347198486e-01 4.213620126247406006e-01
-3.172193765640258789e-01 -2.474514096975326538e-01 -1.787240505218505859e-01
-3.655631840229034424e-01 -3.483906090259552002e-01 1.378263682126998901e-01
-9.050092101097106934e-02 -1.524841487407684326e-01 3.257161974906921387e-01
2.599247992038726807e-01 -4.593877792358398438e-01 -3.360443413257598877e-01
-1.668739169836044312e-01 -3.478196561336517334e-01 3.545488715171813965e-01
2.183754444122314453e-01 2.623634636402130127e-01 -2.101806923747062683e-02
-2.746257483959197998e-01 -8.674927055835723877e-03 -1.031065434217453003e-01
1.560546904802322388e-01 4.674357771873474121e-01 -4.246946796774864197e-02
7.619429379701614380e-02 -1.026541739702224731e-01 -3.146349787712097168e-01
-7.685323059558868408e-02 4.497880861163139343e-02 2.702428400516510010e-01
1.078739017248153687e-01 -4.054585397243499756e-01 -3.978115022182464600e-01
1.617742180824279785e-01 1.118879169225692749e-01 2.057996094226837158e-01
1.843536496162414551e-01 3.456358015537261963e-01 -6.517573446035385132e-02
2.624751031398773193e-01 7.259673625230789185e-02 8.100759983062744141e-02
-2.541439831256866455e-01 1.234144568443298340e-01 -2.570341899991035461e-02
3.970662057399749756e-01 -4.350781440734863281e-01 -1.351001858711242676e-01
2.737230062484741211e-01 6.701704859733581543e-02 -2.862971648573875427e-02
-3.076636791229248047e-01 -3.149174153804779053e-01 2.252197265625000000e-01
2.380884736776351929e-01 1.587224900722503662e-01 7.551686465740203857e-02
-2.590443193912506104e-01 9.302802383899688721e-02 5.544090270996093750e-02
2.916735112667083740e-01 -5.357310548424720764e-02 1.048074737191200256e-01
-1.476590335369110107e-01 -1.235927194356918335e-01 2.930969893932342529e-01
2.848277986049652100e-01 -2.868195474147796631e-01 -2.462173551321029663e-01
2.871422469615936279e-01 -1.476955115795135498e-01 -1.778419464826583862e-01
1.720573008060455322e-01 4.039615094661712646e-01 5.165344476699829102e-02
1.219691783189773560e-01 -3.791992664337158203e-01 -3.840132951736450195e-01
-1.902725398540496826e-01 2.767080664634704590e-01 -9.347634017467498779e-02
-2.110381126403808594e-01 -2.009917795658111572e-01 2.779508233070373535e-01
2.702012658119201660e-01 -5.021626949310302734e-01 -3.435785472393035889e-01
2.801252305507659912e-01 -7.673920691013336182e-02 1.500010490417480469e-01
3.656277954578399658e-01 -4.178996384143829346e-01 -1.981606930494308472e-01
-3.891066312789916992e-01 -3.617758750915527344e-01 -6.365250796079635620e-02
2.668665349483489990e-01 -2.335224449634552002e-01 -2.445855736732482910e-01
-1.536301225423812866e-01 -2.109298110008239746e-01 3.176590204238891602e-01
-3.372749984264373779e-01 -3.244888484477996826e-01 1.882570534944534302e-01
1.285319179296493530e-01 1.135485023260116577e-01 -2.287617027759552002e-01
6.794109940528869629e-02 6.075063943862915039e-01 -9.875648468732833862e-02
5.112590268254280090e-02 4.584079384803771973e-01 -1.540701389312744141e-01
2.467894107103347778e-01 -3.961080014705657959e-01 3.236913681030273438e-01
8.784230053424835205e-02 -3.312443792819976807e-01 3.794212341308593750e-01
2.828872576355934143e-02 9.291548728942871094e-01 -3.872143337503075600e-03
5.083132162690162659e-02 5.268735289573669434e-01 -1.329983770847320557e-01
1.705670207738876343e-01 -4.794790595769882202e-02 2.566722035408020020e-01
-3.090902566909790039e-01 -1.852332800626754761e-01 -1.518516689538955688e-01
-3.353660106658935547e-01 -4.759092032909393311e-01 -2.643714249134063721e-01
-2.772935330867767334e-01 -1.477095205336809158e-02 1.016026437282562256e-01
-3.871497139334678650e-02 -4.670775830745697021e-01 4.245841801166534424e-01
2.793970406055450439e-01 3.568373620510101318e-02 5.456476658582687378e-02
-2.509358525276184082e-01 -1.587886959314346313e-01 2.258006036281585693e-01
8.985721319913864136e-02 1.341447085142135620e-01 2.387854009866714478e-01
1.054394692182540894e-01 1.428614556789398193e-01 -2.292523831129074097e-01
3.222993314266204834e-01 -4.257656335830688477e-01 2.630396485328674316e-01
-2.077662646770477295e-01 -2.914782762527465820e-01 3.130806088447570801e-01
-9.413024038076400757e-02 2.985166907310485840e-01 1.846012473106384277e-01
-8.930190652608871460e-02 6.980003714561462402e-01 1.921354234218597412e-02
-3.665412664413452148e-01 -2.747201621532440186e-01 4.468359053134918213e-02
-7.927219569683074951e-02 -2.195314466953277588e-01 -3.474577665328979492e-01
-3.544873893260955811e-01 -2.152715921401977539e-01 -5.606364924460649490e-03
2.938440144062042236e-01 -1.870148815214633942e-02 6.399306654930114746e-02
2.094145677983760834e-02 3.496606647968292236e-01 -1.914341151714324951e-01
2.277399227023124695e-02 4.706464111804962158e-01 1.566721946001052856e-01
1.296936869621276855e-01 -4.308736622333526611e-01 -3.968102335929870605e-01
1.824239641427993774e-01 -4.615036547183990479e-01 3.848304748535156250e-01
1.987062692642211914e-01 -1.886035948991775513e-01 2.857837378978729248e-01
3.568705916404724121e-01 -2.140543609857559204e-01 1.328854542225599289e-02
-2.873225808143615723e-01 -2.433198392391204834e-01 2.180934697389602661e-01
2.178135663270950317e-01 -1.413429677486419678e-01 -2.537060379981994629e-01
-3.247552514076232910e-01 -3.934914767742156982e-01 -2.394800335168838501e-01
1.832952946424484253e-01 2.706816196441650391e-01 1.170053258538246155e-01
-3.885422945022583008e-01 -3.672827780246734619e-01 8.038633316755294800e-02
-1.794011145830154419e-01 3.083388321101665497e-02 2.186569720506668091e-01
-6.866706162691116333e-02 1.158635467290878296e-01 -2.513104975223541260e-01
3.290944918990135193e-02 5.365410447120666504e-01 1.363302767276763916e-01
1.393934041261672974e-01 -3.133228421211242676e-01 3.567838966846466064e-01
-1.382773625664412975e-03 7.129065394401550293e-01 -8.873984962701797485e-02
-1.776835764758288860e-03 9.379096627235412598e-01 2.416277676820755005e-02
-6.600020453333854675e-03 1.153358668088912964e-01 -2.604284882545471191e-01
9.560157358646392822e-02 5.073400735855102539e-01 1.140206232666969299e-01
2.223580926656723022e-01 -5.244203843176364899e-03 1.957250535488128662e-01
7.669483125209808350e-02 -1.597576737403869629e-01 -3.310413956642150879e-01
2.335538864135742188e-01 1.939462572336196899e-01 -5.563068017363548279e-02
1.124283447861671448e-01 5.213575959205627441e-01 -9.121318161487579346e-02
-4.359387233853340149e-02 -4.317449927330017090e-01 -4.133705794811248779e-01
3.159153461456298828e-01 -8.616004884243011475e-02 4.414895549416542053e-02
2.881178557872772217e-01 -2.502656579017639160e-01 2.251369655132293701e-01
1.301271934062242508e-02 -4.539188928902149200e-03 2.950299680233001709e-01
-4.705256968736648560e-02 8.342422842979431152e-01 2.295267023146152496e-02
3.499086713418364525e-03 8.465071916580200195e-01 5.078864842653274536e-02
-1.173691600561141968e-01 5.727208852767944336e-01 4.863860830664634705e-02
3.313643634319305420e-01 -1.593406349420547485e-01 8.714824169874191284e-02
-4.856255277991294861e-02 4.629673361778259277e-01 1.525695472955703735e-01
-3.286162614822387695e-01 -1.491982191801071167e-01 5.772433429956436157e-02
4.572428762912750244e-02 2.832298576831817627e-01 -2.073341459035873413e-01
-2.677940726280212402e-01 8.354429155588150024e-02 -9.374116547405719757e-03
8.633711934089660645e-02 7.131465673446655273e-01 -2.715490199625492096e-02
-2.866869326680898666e-04 -1.349258571863174438e-01 3.338304758071899414e-01
1.239261701703071594e-01 -4.675839245319366455e-01 -4.105629622936248779e-01
-2.048320323228836060e-01 1.675409227609634399e-01 -1.321965605020523071e-01
-4.876619577407836914e-02 4.044157862663269043e-01 1.706102490425109863e-01
-2.954732477664947510e-01 -3.165061771869659424e-01 -2.414742410182952881e-01
1.982941776514053345e-01 3.272227644920349121e-01 3.181579709053039551e-02
3.998059034347534180e-02 8.523839712142944336e-01 3.049431368708610535e-02
3.136794865131378174e-01 -2.550998032093048096e-01 -1.937154829502105713e-01
2.828153669834136963e-01 -7.635193318128585815e-02 -1.428371220827102661e-01
-3.203687965869903564e-01 -2.179054617881774902e-01 1.494185179471969604e-01
5.265506450086832047e-03 -3.817380070686340332e-01 4.048570990562438965e-01
-2.153236418962478638e-01 -4.147668182849884033e-01 3.517263531684875488e-01
1.851935386657714844e-01 -2.716253995895385742e-01 -3.245249986648559570e-01
-4.192673563957214355e-01 -4.815600812435150146e-01 -9.701629728078842163e-02
2.416954487562179565e-01 -1.948925293982028961e-02 -1.768373996019363403e-01
-1.156638283282518387e-02 1.204355359077453613e-01 2.586837708950042725e-01
3.650907576084136963e-01 -3.404749333858489990e-01 -1.415950655937194824e-01
-2.829253673553466797e-01 -4.640928506851196289e-01 -3.172556161880493164e-01
3.464120924472808838e-01 -3.171574175357818604e-01 -1.692643165588378906e-01
-1.279228329658508301e-01 4.905819892883300781e-01 -8.066200464963912964e-02
-1.962602697312831879e-02 -2.583236694335937500e-01 3.668799698352813721e-01
-2.416308373212814331e-01 1.615566015243530273e-01 3.755849972367286682e-02
-2.589408755302429199e-01 -2.663079798221588135e-01 -2.643598318099975586e-01
-3.116363883018493652e-01 -1.020666807889938354e-01 8.343037217855453491e-02
-2.775467336177825928e-01 -3.446189761161804199e-01 -2.780430316925048828e-01
2.115320973098278046e-02 -3.854038193821907043e-03 -2.933811843395233154e-01
-2.537285983562469482e-01 5.910056456923484802e-02 1.032857373356819153e-01
3.764106631278991699e-01 -3.029156625270843506e-01 5.957233905792236328e-02
-4.032763838768005371e-01 -4.145806729793548584e-01 -7.172357290983200073e-02
2.287991940975189209e-01 7.625254243612289429e-02 -1.486650556325912476e-01
1.885828822851181030e-01 9.134244173765182495e-02 -1.922549754381179810e-01
-1.559520214796066284e-01 2.838785201311111450e-02 -2.371515035629272461e-01
1.827797889709472656e-01 -4.257932596374303102e-04 2.301696836948394775e-01
3.536880910396575928e-01 -2.147767394781112671e-01 -3.866794705390930176e-02
6.670095771551132202e-02 9.440743178129196167e-02 -2.590399682521820068e-01
-2.185690104961395264e-01 2.419144958257675171e-01 -3.627578914165496826e-02
-2.936116885393857956e-03 7.722359895706176758e-01 7.180057466030120850e-02
1.082537174224853516e-01 -1.900789886713027954e-01 -3.311506211757659912e-01
2.994816005229949951e-01 -4.261992573738098145e-01 2.929786443710327148e-01
-2.286030203104019165e-01 1.484162360429763794e-01 9.719548374414443970e-02
-3.617154061794281006e-01 -2.488514930009841919e-01 -2.428329922258853912e-02
-3.888641595840454102e-01 -3.949123024940490723e-01 1.163408681750297546e-01
4.284467101097106934e-01 -4.692414402961730957e-01 -2.836873196065425873e-02
4.030554890632629395e-01 -5.043050050735473633e-01 -1.723772734403610229e-01
-3.082652390003204346e-01 -9.556683897972106934e-02 -8.683085441589355469e-02
6.867548823356628418e-02 -4.465403854846954346e-01 -4.148228168487548828e-01
-3.507024943828582764e-01 -3.780747354030609131e-01 1.958872377872467041e-01
3.788798749446868896e-01 -4.592438340187072754e-01 1.974462121725082397e-01
-1.184970214962959290e-01 -3.077250123023986816e-01 3.621757626533508301e-01
3.696915209293365479e-01 -4.038333296775817871e-01 1.782180964946746826e-01
1.142587289214134216e-01 -1.625239551067352295e-01 3.205138444900512695e-01
-6.487969309091567993e-02 1.359274387359619141e-01 2.470486015081405640e-01
1.787217333912849426e-02 1.404808759689331055e-01 2.525579631328582764e-01
-1.738114953041076660e-01 -1.934401988983154297e-01 3.037937879562377930e-01
-1.796386092901229858e-01 3.313800096511840820e-01 -7.828978449106216431e-02
1.254338324069976807e-01 3.966697454452514648e-01 1.310236603021621704e-01
-1.543094813823699951e-01 -4.982859194278717041e-01 4.063308537006378174e-01
1.849758252501487732e-02 3.775500357151031494e-01 1.840898692607879639e-01
1.575705409049987793e-02 4.517566859722137451e-01 -1.626651585102081299e-01
5.332418158650398254e-02 7.841053009033203125e-01 -4.480204731225967407e-02
-2.379965633153915405e-01 4.883317742496728897e-03 -1.653916984796524048e-01
-2.631767392158508301e-01 -2.815443575382232666e-01 2.669817507266998291e-01
1.299684196710586548e-01 5.256563425064086914e-01 -6.193838641047477722e-02
2.915502190589904785e-01 -1.940252333879470825e-01 1.942422240972518921e-01
-2.690601050853729248e-01 7.375934720039367676e-02 2.157988399267196655e-02
1.821020692586898804e-01 1.692911237478256226e-01 -1.658128947019577026e-01
-1.522374749183654785e-01 4.719372391700744629e-01 3.649584949016571045e-02
-1.495870500802993774e-01 3.581522405147552490e-01 -1.146440804004669189e-01
-8.661177009344100952e-02 -6.865224242210388184e-02 3.013758957386016846e-01
-1.350904554128646851e-01 3.277664184570312500e-01 -1.452376395463943481e-01
2.172583341598510742e-01 1.935333907604217529e-01 9.978963434696197510e-02
2.486843466758728027e-01 -1.345444023609161377e-01 -2.217819094657897949e-01
-1.795467585325241089e-01 1.039739251136779785e-01 1.921784728765487671e-01
-3.328471481800079346e-01 -1.623079627752304077e-01 -5.393401905894279480e-02
-2.783543765544891357e-01 -3.671669363975524902e-01 2.862015962600708008e-01
6.879265606403350830e-02 7.277084589004516602e-01 -5.113813653588294983e-02
7.291994057595729828e-03 -3.387157320976257324e-01 3.921801149845123291e-01
-3.940325975418090820e-01 -3.593091666698455811e-01 2.120875939726829529e-02
4.555909894406795502e-03 -6.786531955003738403e-02 3.144103586673736572e-01
-8.618561923503875732e-02 2.595743834972381592e-01 1.999476701021194458e-01
-3.328107595443725586e-01 -2.616765797138214111e-01 1.520929187536239624e-01
-4.011349752545356750e-02 -3.747383356094360352e-01 -3.973845243453979492e-01
-2.223018556833267212e-02 -4.171797335147857666e-01 4.123606979846954346e-01
-3.774193227291107178e-01 -3.361587822437286377e-01 9.667417407035827637e-02
-6.039045378565788269e-02 -1.252907067537307739e-01 3.231386244297027588e-01
-1.221528276801109314e-01 -4.330689907073974609e-01 -3.990816771984100342e-01
-1.190522611141204834e-01 -3.681400418281555176e-01 3.806475698947906494e-01
-1.715740114450454712e-01 -2.305485680699348450e-02 2.440895438194274902e-01
-7.284492254257202148e-02 2.446198463439941406e-01 -2.097222357988357544e-01
-2.005796283483505249e-01 -3.019450604915618896e-01 -3.219887912273406982e-01
-2.939473688602447510e-01 -4.149116277694702148e-01 2.900717258453369141e-01
2.097274512052536011e-01 1.747123599052429199e-01 1.276434063911437988e-01
-3.220121562480926514e-01 -1.386908888816833496e-01 8.486440032720565796e-02
-1.907219551503658295e-02 8.395381569862365723e-01 -4.783434420824050903e-02
3.306775689125061035e-01 -4.273585379123687744e-01 -2.524896562099456787e-01
-8.597957342863082886e-02 3.810063898563385010e-01 1.624421924352645874e-01
-3.286088109016418457e-01 -4.718471765518188477e-01 2.716487348079681396e-01
-8.212931454181671143e-02 -1.857223063707351685e-01 3.377088606357574463e-01
1.456996202468872070e-01 5.220526456832885742e-01 -4.040526691824197769e-03
-1.857900917530059814e-01 -3.189224302768707275e-01 3.377676010131835938e-01
4.496366530656814575e-02 7.196744680404663086e-01 7.612555474042892456e-02
-7.496185600757598877e-02 7.140344381332397461e-01 -4.470523446798324585e-02
-3.852902948856353760e-01 -3.631379604339599609e-01 -9.562282264232635498e-02
3.358260542154312134e-02 9.324896335601806641e-02 -2.637342512607574463e-01
-1.611254215240478516e-01 -3.499512374401092529e-01 -3.572095930576324463e-01
-2.123687118291854858e-01 2.046862095594406128e-01 -9.395544975996017456e-02
-2.711322344839572906e-02 -2.154391491785645485e-03 -2.916194796562194824e-01
7.196041941642761230e-02 -4.684917330741882324e-01 4.211021959781646729e-01
2.367445640265941620e-02 7.780060172080993652e-01 -6.650698184967041016e-02
-7.562377955764532089e-03 6.295049190521240234e-01 1.123640090227127075e-01
-1.722897738218307495e-01 -4.544882476329803467e-01 3.853252828121185303e-01
1.548035442829132080e-01 4.130422472953796387e-01 -8.614074438810348511e-02
3.466404676437377930e-01 -2.057903259992599487e-01 7.288887351751327515e-02
3.200038969516754150e-01 -8.989695459604263306e-02 -2.089949138462543488e-02
2.266071885824203491e-01 -2.976736128330230713e-01 -3.033134043216705322e-01
-3.125764131546020508e-01 -8.558330684900283813e-02 -3.979505598545074463e-02
-8.784719556570053101e-02 5.662160515785217285e-01 -9.553097188472747803e-02
1.641714274883270264e-01 3.348148763179779053e-01 1.117971763014793396e-01
-5.367049202322959900e-02 -4.007079899311065674e-01 4.034702479839324951e-01
7.660944014787673950e-02 5.687026381492614746e-01 1.064731851220130920e-01
3.170001804828643799e-01 -3.938349187374114990e-01 -2.545649707317352295e-01
3.645123541355133057e-01 -3.681557774543762207e-01 1.640582680702209473e-01
2.927120029926300049e-01 -4.694350659847259521e-01 3.148861527442932129e-01
2.442093193531036377e-01 -5.251890793442726135e-02 -1.890782862901687622e-01
3.627440035343170166e-01 -4.658909142017364502e-01 2.291825115680694580e-01
-1.235331501811742783e-02 -2.040559351444244385e-01 -3.518036901950836182e-01
3.952556848526000977e-01 -4.136348068714141846e-01 1.238262429833412170e-01
2.170415371656417847e-01 1.205548569560050964e-01 -1.431755423545837402e-01
-7.938274741172790527e-02 1.441596001386642456e-01 -2.381130307912826538e-01
2.644958198070526123e-01 -4.539188928902149200e-03 1.337750256061553955e-01
2.987699806690216064e-01 -3.302315771579742432e-01 2.488218992948532104e-01
-6.702459603548049927e-02 -3.343027830123901367e-01 3.825573921203613281e-01
-4.010116681456565857e-02 7.480487823486328125e-01 -6.661861389875411987e-02
-3.978787064552307129e-01 -3.898208141326904297e-01 5.884929001331329346e-02
-3.209099471569061279e-01 -1.014949008822441101e-01 -1.135692186653614044e-02
-4.106235504150390625e-01 -4.201586544513702393e-01 -2.813380956649780273e-02
2.134593874216079712e-01 2.862567603588104248e-01 6.383324041962623596e-03
1.799092590808868408e-01 -1.839788109064102173e-01 -2.981607019901275635e-01
2.594307959079742432e-01 -1.536583453416824341e-01 2.171360701322555542e-01
1.352088451385498047e-01 -4.632562696933746338e-01 4.049299359321594238e-01
3.841409683227539062e-01 -3.724578022956848145e-01 -1.195071786642074585e-01
-9.818489104509353638e-02 3.302421793341636658e-02 -2.647272348403930664e-01
9.013441950082778931e-02 -2.688599228858947754e-01 3.611240386962890625e-01
-2.123182266950607300e-01 8.078630268573760986e-02 -1.631972193717956543e-01
-1.510086655616760254e-01 4.822236597537994385e-01 -2.291349135339260101e-02
-3.081204295158386230e-01 -2.161089926958084106e-01 -1.772676855325698853e-01
3.381554782390594482e-01 -3.956744074821472168e-01 2.282383590936660767e-01
2.461696416139602661e-01 1.229126006364822388e-01 -8.238887041807174683e-02
-1.600008755922317505e-01 2.611203789710998535e-01 1.470378488302230835e-01
5.106814578175544739e-02 1.567181646823883057e-01 -2.431242465972900391e-01
-1.100981086492538452e-01 1.697784215211868286e-01 -2.174591720104217529e-01
-3.218466639518737793e-01 -1.867707371711730957e-01 -1.222030967473983765e-01
1.828641891479492188e-01 3.199847936630249023e-01 8.832243084907531738e-02
-1.321876645088195801e-01 -1.134345903992652893e-01 -2.959803044795989990e-01
7.106375694274902344e-02 7.628506422042846680e-01 2.726151794195175171e-02
1.861898154020309448e-01 2.351128458976745605e-01 -1.295635253190994263e-01
3.164590001106262207e-01 -1.691073626279830933e-01 -1.309346556663513184e-01
2.327131479978561401e-01 1.259928047657012939e-01 1.129548177123069763e-01
1.237979084253311157e-01 1.744675040245056152e-01 -2.118645757436752319e-01
-1.039722859859466553e-01 4.057604372501373291e-01 1.413795500993728638e-01
-6.283614784479141235e-02 6.301876306533813477e-01 -9.166084975004196167e-02
-1.597443521022796631e-01 1.653123646974563599e-01 -1.848829686641693115e-01
3.049587011337280273e-01 -3.133461996912956238e-02 7.245350163429975510e-03
2.404161691665649414e-01 1.948889940977096558e-01 -1.439934596419334412e-03
2.288836091756820679e-01 -2.457401901483535767e-01 -2.828457057476043701e-01
1.532627791166305542e-01 3.832149803638458252e-01 1.032766252756118774e-01
6.750576198101043701e-02 1.364383008331060410e-02 2.826111614704132080e-01
-2.480728738009929657e-02 5.189305543899536133e-01 1.419902294874191284e-01
3.237200975418090820e-01 -1.004398614168167114e-01 1.615046337246894836e-02
-2.349018007516860962e-01 1.725503951311111450e-01 -6.357216835021972656e-02
-2.048025606200098991e-03 5.216215252876281738e-01 -1.438300758600234985e-01
-1.101618260145187378e-01 -1.815807819366455078e-01 -3.261989951133728027e-01
-3.347693681716918945e-01 -2.017249166965484619e-01 -1.021814197301864624e-01
3.746175169944763184e-01 -2.765290439128875732e-01 -1.499460078775882721e-02
-2.818115651607513428e-01 1.606503874063491821e-02 -5.075699836015701294e-02
1.724866777658462524e-02 5.003057122230529785e-01 -1.484647989273071289e-01
-4.073028862476348877e-01 -4.310970902442932129e-01 7.770232111215591431e-02
-1.120353303849697113e-02 7.175603508949279785e-01 8.648377656936645508e-02
2.497087568044662476e-01 -2.721119523048400879e-01 2.767526209354400635e-01
-2.490442246198654175e-01 7.113210856914520264e-02 -1.052224040031433105e-01
-4.784843698143959045e-02 8.025812506675720215e-01 3.882114961743354797e-02
-1.900863498449325562e-01 3.074865639209747314e-01 7.130350917577743530e-02
-1.508406847715377808e-01 2.510960996150970459e-01 -1.607901006937026978e-01
-7.161611318588256836e-02 1.832080781459808350e-01 2.296219021081924438e-01
-1.783858090639114380e-01 6.438649445772171021e-02 2.073412239551544189e-01
2.556095123291015625e-01 -5.044274032115936279e-02 1.736255735158920288e-01
-2.237242013216018677e-01 1.332231462001800537e-01 -1.199490502476692200e-01
-6.636360287666320801e-02 -1.213767230510711670e-01 -3.208435475826263428e-01
