2.903559207916259766e-01 -3.330511972308158875e-02 1.328563392162322998e-01
2.347647398710250854e-01 -5.008024722337722778e-02 -3.696710765361785889e-01
-2.279986590147018433e-01 1.435525417327880859e-01 8.298506736755371094e-01
-1.611367166042327881e-01 7.220654189586639404e-02 -1.253544092178344727e-01
2.078828811645507812e-01 -5.761985108256340027e-02 -1.867773383855819702e-02
-1.284390836954116821e-01 -3.535618633031845093e-02 1.573231220245361328e-01
3.011964559555053711e-01 -6.955938786268234253e-02 -4.017028510570526123e-01
-3.898261114954948425e-02 -3.866203501820564270e-02 -3.128019273281097412e-01
-2.131463289260864258e-01 2.663117051124572754e-01 2.018419951200485229e-01
4.033388569951057434e-02 -3.956862390041351318e-01 8.080414533615112305e-01
2.375807315111160278e-01 -3.462921455502510071e-02 5.223622322082519531e-01
2.347911447286605835e-01 -3.922386094927787781e-02 1.126663461327552795e-01
2.115123718976974487e-01 -5.761985108256340027e-02 -2.127994298934936523e-01
-1.357244551181793213e-01 -5.527582019567489624e-02 -6.119890809059143066e-01
-3.536691144108772278e-02 -5.761985108256340027e-02 -9.368519484996795654e-02
5.576819553971290588e-02 -3.414922952651977539e-02 -1.441628336906433105e-01
2.742197513580322266e-01 -3.330511972308158875e-02 3.777391016483306885e-01
-2.443313449621200562e-01 2.978604733943939209e-01 -6.278368830680847168e-01
-3.346299752593040466e-02 -3.340759128332138062e-02 6.833981871604919434e-01
-1.303946226835250854e-01 -9.619770199060440063e-02 -1.974347233772277832e-01
2.586448192596435547e-01 -2.162173241376876831e-01 8.251290321350097656e-01
-1.964479535818099976e-01 1.922484934329986572e-01 4.320256039500236511e-02
-2.028537727892398834e-02 -3.330511972308158875e-02 7.941590547561645508e-01
1.169746071100234985e-01 -5.761985108256340027e-02 5.395612120628356934e-01
-1.905197203159332275e-01 1.818645596504211426e-01 -3.007176816463470459e-01
2.809076905250549316e-01 -3.330511972308158875e-02 -7.807341963052749634e-02
1.141889393329620361e-01 -3.330511972308158875e-02 5.975039005279541016e-01
-5.617123469710350037e-02 -5.761985108256340027e-02 -5.793755650520324707e-01
2.122926265001296997e-01 -3.330511972308158875e-02 4.003265798091888428e-01
-1.303946226835250854e-01 -2.398647218942642212e-01 -8.381593227386474609e-01
5.824469774961471558e-02 -5.761985108256340027e-02 3.849012553691864014e-01
8.891102671623229980e-02 -5.761985108256340027e-02 5.162599086761474609e-01
3.103141784667968750e-01 -3.987691551446914673e-02 2.768800556659698486e-01
-1.976926475763320923e-01 2.086369097232818604e-01 1.342799812555313110e-01
2.627035677433013916e-01 -3.330511972308158875e-02 -1.477668881416320801e-01
1.118297800421714783e-01 -3.330511972308158875e-02 4.387334287166595459e-01
9.697245061397552490e-02 -7.600418478250503540e-02 -8.023523092269897461e-01
-1.397186368703842163e-01 -4.335103332996368408e-01 -8.023523092269897461e-01
-1.303946226835250854e-01 -7.810296863317489624e-02 1.723309159278869629e-01
-1.581603884696960449e-01 4.935603961348533630e-02 -7.351756095886230469e-01
1.820306181907653809e-01 -3.330511972308158875e-02 7.636311054229736328e-01
2.340258844196796417e-02 -3.330511972308158875e-02 4.239169508218765259e-02
-1.488607972860336304e-01 1.464750897139310837e-02 9.327949583530426025e-02
2.809434384107589722e-02 -3.330511972308158875e-02 -3.865141272544860840e-01
-6.820486485958099365e-02 1.392435133457183838e-01 8.330695033073425293e-01
1.723491400480270386e-02 -3.330511972308158875e-02 -5.560410618782043457e-01
2.958969473838806152e-01 -5.761985108256340027e-02 4.298836290836334229e-01
-1.975068598985671997e-01 2.079426944255828857e-01 5.107893347740173340e-01
1.447276771068572998e-01 -5.761985108256340027e-02 6.489307284355163574e-01
-7.054476439952850342e-02 -5.761985108256340027e-02 -5.131101012229919434e-01
1.277359575033187866e-01 -4.503104090690612793e-02 -7.447509169578552246e-01
1.439170986413955688e-01 -3.764994069933891296e-02 -2.528156638145446777e-01
-1.697225272655487061e-01 9.250409156084060669e-02 -5.018265843391418457e-01
1.930451989173889160e-01 1.635577529668807983e-01 8.090349435806274414e-01
-2.414664775133132935e-01 3.240441977977752686e-01 -3.008819222450256348e-01
-1.043228246271610260e-02 -3.322220221161842346e-02 -8.266665339469909668e-01
5.728364735841751099e-02 -3.354046866297721863e-02 5.148848518729209900e-02
-1.908277124166488647e-01 1.830163747072219849e-01 3.783091306686401367e-01
5.902075394988059998e-02 -5.761985108256340027e-02 -4.141674637794494629e-01
-1.421454846858978271e-01 1.329294289462268353e-03 -3.394631296396255493e-02
2.483655214309692383e-01 -5.761985108256340027e-02 1.949183940887451172e-01
-1.820737272500991821e-01 1.503441333770751953e-01 -5.001585483551025391e-01
2.812235355377197266e-01 1.021146029233932495e-01 -8.023523092269897461e-01
-2.516201138496398926e-02 -3.692238330841064453e-01 -8.023523092269897461e-01
-1.522810459136962891e-01 2.741192094981670380e-02 -5.783234834671020508e-01
2.951166629791259766e-01 -8.837083727121353149e-02 -7.195654511451721191e-01
2.664875686168670654e-01 1.099064722657203674e-01 8.510653376579284668e-01
2.951166629791259766e-01 -6.162261962890625000e-02 -1.173702720552682877e-02
-3.263362450525164604e-03 -3.330511972308158875e-02 1.420845538377761841e-01
2.712346017360687256e-01 -2.548842728137969971e-01 8.510653376579284668e-01
1.077664569020271301e-01 -5.355938524007797241e-02 8.024359345436096191e-01
1.813667118549346924e-01 -3.330511972308158875e-02 3.993615508079528809e-01
-1.297668814659118652e-01 -3.721502795815467834e-02 2.184357643127441406e-01
3.011964559555053711e-01 -8.822124451398849487e-02 7.414982914924621582e-01
6.906177848577499390e-02 -5.761985108256340027e-02 6.793511509895324707e-01
-1.303222626447677612e-01 -3.895966336131095886e-02 -5.040787160396575928e-02
1.398974806070327759e-01 -7.635422796010971069e-02 8.267501592636108398e-01
-2.576994597911834717e-01 3.199864625930786133e-01 2.258374840021133423e-01
9.010536968708038330e-02 -3.330511972308158875e-02 -3.306208550930023193e-01
3.058467507362365723e-01 -3.374492004513740540e-02 5.871825814247131348e-01
3.072742819786071777e-01 1.360237002372741699e-01 -8.436846733093261719e-01
4.899755585938692093e-03 -3.330511972308158875e-02 7.150101661682128906e-02
2.437895685434341431e-01 -5.449524894356727600e-02 -8.266665339469909668e-01
-2.182502895593643188e-01 2.736147046089172363e-01 4.928560256958007812e-01
-1.733617931604385376e-01 -3.559671938419342041e-01 8.024359345436096191e-01
5.608206242322921753e-02 -3.398193046450614929e-02 -2.399697303771972656e-01
2.973283827304840088e-01 -1.694358736276626587e-01 8.510653376579284668e-01
-2.450441569089889526e-01 2.976698279380798340e-01 -4.721287488937377930e-01
1.899366267025470734e-03 -3.330511972308158875e-02 -1.303498595952987671e-01
-2.214417308568954468e-01 2.972718477249145508e-01 7.735052704811096191e-02
-1.557834297418594360e-01 -2.207303419709205627e-03 -8.509827852249145508e-01
5.950018297880887985e-03 -3.330511972308158875e-02 4.815490543842315674e-01
-2.064671665430068970e-01 2.413853853940963745e-01 -1.417643576860427856e-01
2.100525647401809692e-01 -5.761985108256340027e-02 -7.492388486862182617e-01
2.678525149822235107e-01 -4.443156719207763672e-01 -8.297436237335205078e-01
-3.386290371417999268e-02 -3.350116312503814697e-02 3.713063597679138184e-01
-2.249529063701629639e-01 1.794142574071884155e-01 8.510653376579284668e-01
1.498746573925018311e-01 -3.330511972308158875e-02 2.319583296775817871e-01
-1.101958230137825012e-01 -3.330511972308158875e-02 -2.302457839250564575e-01
-2.217917740345001221e-01 2.868312299251556396e-01 6.106627583503723145e-01
1.469824165105819702e-01 1.635577529668807983e-01 8.449934124946594238e-01
-1.214890852570533752e-01 -4.412151575088500977e-01 8.510653376579284668e-01
1.277359575033187866e-01 -4.328297451138496399e-02 -4.191325902938842773e-01
-8.209026418626308441e-03 -3.330511972308158875e-02 -7.207319736480712891e-01
7.892142236232757568e-02 -3.330511972308158875e-02 6.627036333084106445e-01
1.092317402362823486e-01 -3.330511972308158875e-02 4.057287573814392090e-01
8.816868811845779419e-02 -3.330511972308158875e-02 -5.811277031898498535e-01
2.190236151218414307e-01 -5.201999843120574951e-02 1.859561651945114136e-01
2.586448192596435547e-01 -3.284556567668914795e-01 8.238950967788696289e-01
-6.555705517530441284e-02 -3.330511972308158875e-02 1.670167297124862671e-01
1.412644088268280029e-01 -4.585931077599525452e-02 -8.023523092269897461e-01
-1.821617335081100464e-01 1.389306038618087769e-01 -4.360177218914031982e-01
1.207126230001449585e-01 -3.330511972308158875e-02 -1.546386629343032837e-01
2.951166629791259766e-01 -6.281120330095291138e-02 -6.652786731719970703e-01
-2.450940161943435669e-01 2.164903730154037476e-01 -8.023523092269897461e-01
3.103141784667968750e-01 -5.076204612851142883e-02 2.443828731775283813e-01
-1.656061112880706787e-01 1.535326540470123291e-01 -8.509827852249145508e-01
-1.905519813299179077e-01 1.819838285446166992e-01 -3.830977976322174072e-01
-1.023325920104980469e-01 1.635577529668807983e-01 -8.225716352462768555e-01
-1.688298285007476807e-01 8.917772024869918823e-02 6.923574805259704590e-01
3.072742819786071777e-01 8.056063205003738403e-02 -8.038307428359985352e-01
-3.315656259655952454e-02 -3.335958346724510193e-02 -3.764108121395111084e-01
-1.470939815044403076e-01 1.979684829711914062e-02 6.156229972839355469e-01
6.928695738315582275e-02 -3.330511972308158875e-02 1.670206338167190552e-01
1.277359575033187866e-01 -4.038418084383010864e-02 8.799268305301666260e-02
2.179832607507705688e-01 -3.647534549236297607e-02 5.783376693725585938e-01
7.456985861063003540e-02 -5.761985108256340027e-02 -2.956550940871238708e-02
-1.424114257097244263e-01 1.392435133457183838e-01 -8.303351998329162598e-01
1.558859944343566895e-01 1.392435133457183838e-01 -8.359153270721435547e-01
1.693968325853347778e-01 -5.761985108256340027e-02 -2.642233371734619141e-01
2.490196526050567627e-01 -3.330511972308158875e-02 3.545835316181182861e-01
6.881068646907806396e-02 -3.330511972308158875e-02 -5.796721577644348145e-02
-1.716389507055282593e-01 -2.298181504011154175e-01 -8.509827852249145508e-01
1.440725773572921753e-01 -5.761985108256340027e-02 -3.486714661121368408e-01
-2.198039591312408447e-01 2.911578416824340820e-01 -6.574725359678268433e-02
2.573307156562805176e-01 -7.959163188934326172e-02 -8.182206153869628906e-01
9.580791741609573364e-02 -3.330511972308158875e-02 -2.922745943069458008e-01
-5.484499409794807434e-02 -4.610726982355117798e-02 -4.467194080352783203e-01
2.837999463081359863e-01 -5.761985108256340027e-02 -2.767544686794281006e-01
-1.688620895147323608e-01 8.929994702339172363e-02 -5.591542720794677734e-01
-3.910571336746215820e-02 -4.409501701593399048e-02 2.840872108936309814e-01
9.174997359514236450e-02 -3.330511972308158875e-02 5.340808033943176270e-01
-2.069785445928573608e-01 2.315480411052703857e-01 -2.324245870113372803e-02
-1.723937988281250000e-01 1.142203882336616516e-01 -7.014454007148742676e-01
-6.133063882589340210e-02 -5.761985108256340027e-02 -2.293540686368942261e-01
-1.733637452125549316e-01 1.178381443023681641e-01 -2.033854424953460693e-01
9.432650357484817505e-02 -5.761985108256340027e-02 4.739899039268493652e-01
-1.879540532827377319e-01 1.234251186251640320e-01 8.510653376579284668e-01
5.457258224487304688e-02 -5.761985108256340027e-02 -6.830857992172241211e-01
2.980172820389270782e-02 -5.811188369989395142e-02 -8.266665339469909668e-01
-1.303946226835250854e-01 -6.744822859764099121e-02 8.415702581405639648e-01
2.563060224056243896e-01 -4.791145399212837219e-02 8.024359345436096191e-01
2.639903426170349121e-01 -5.761985108256340027e-02 -2.422058880329132080e-01
-2.458537518978118896e-01 2.974547147750854492e-01 -5.684206485748291016e-01
-1.393509954214096069e-01 -9.097854606807231903e-03 7.630093097686767578e-01
-1.979889124631881714e-01 1.980007290840148926e-01 -3.449921309947967529e-01
1.755069196224212646e-01 -5.761985108256340027e-02 -4.320186376571655273e-01
-1.162628978490829468e-01 -5.761985108256340027e-02 -7.268723249435424805e-01
2.936187386512756348e-01 -1.588329225778579712e-01 -8.509827852249145508e-01
-2.739617228507995605e-01 3.221864402294158936e-01 8.120121955871582031e-01
-1.969818025827407837e-01 1.341825574636459351e-01 -8.509827852249145508e-01
-1.303946226835250854e-01 -6.247499212622642517e-02 3.166802525520324707e-01
-2.186956256628036499e-02 -3.707110285758972168e-01 8.206704258918762207e-01
1.835236698389053345e-01 -3.330511972308158875e-02 -7.768961191177368164e-01
-1.831541657447814941e-01 1.668841242790222168e-01 -8.157116770744323730e-01
1.277359575033187866e-01 -5.512568354606628418e-02 -5.830569267272949219e-01
2.680578529834747314e-01 -3.330511972308158875e-02 3.103335201740264893e-01
1.541123092174530029e-01 -3.330511972308158875e-02 -7.134808301925659180e-01
-1.752498596906661987e-01 1.248800456523895264e-01 6.742364764213562012e-01
-2.473702728748321533e-01 3.288333415985107422e-01 -8.048134446144104004e-01
-8.711261302232742310e-02 -5.761985108256340027e-02 1.994982808828353882e-01
-1.710777282714843750e-01 1.093061119318008423e-01 5.361419320106506348e-01
-1.790250390768051147e-01 -2.509546279907226562e-01 8.344843387603759766e-01
2.491839379072189331e-01 -5.761985108256340027e-02 -5.197367444634437561e-02
-9.536206722259521484e-02 -5.761985108256340027e-02 -3.615702092647552490e-01
2.111613452434539795e-01 -5.761985108256340027e-02 -3.142285048961639404e-01
-3.910571336746215820e-02 -4.706235602498054504e-02 4.015419483184814453e-01
-1.484442800283432007e-01 1.309393253177404404e-02 2.644027173519134521e-01
2.017072886228561401e-01 -5.761985108256340027e-02 -6.485519409179687500e-01
-3.218289837241172791e-02 -3.330511972308158875e-02 -6.280734539031982422e-01
1.673630774021148682e-01 -5.761985108256340027e-02 2.260085940361022949e-01
-6.742459535598754883e-02 -3.330511972308158875e-02 -1.263094949536025524e-03
-2.112142443656921387e-01 2.473537176847457886e-01 -2.347738444805145264e-01
-1.862761974334716797e-01 1.596437394618988037e-01 -2.537044584751129150e-01
1.969592273235321045e-01 -3.330511972308158875e-02 -2.025093585252761841e-01
1.434741616249084473e-01 -4.351881891489028931e-02 -5.309906005859375000e-01
2.351196706295013428e-01 -3.785820677876472473e-02 4.600879549980163574e-01
1.683868020772933960e-01 -5.761985108256340027e-02 -1.880794167518615723e-01
2.244150340557098389e-01 -3.680925667285919189e-01 -8.205887675285339355e-01
3.042471110820770264e-01 -5.758333206176757812e-02 -2.977550327777862549e-01
-8.151388913393020630e-02 -6.638664007186889648e-02 -8.266665339469909668e-01
-1.529576629400253296e-01 -4.443156719207763672e-01 8.347200155258178711e-01
-2.255933582782745361e-01 3.028568923473358154e-01 -1.381544321775436401e-01
-8.837686479091644287e-02 -3.665007352828979492e-01 8.024359345436096191e-01
2.048591524362564087e-02 -3.330511972308158875e-02 -3.389507904648780823e-02
-1.580303460359573364e-01 -1.606085598468780518e-01 -8.509827852249145508e-01
-1.915170550346374512e-01 1.982461363077163696e-01 8.373052477836608887e-01
-1.303946226835250854e-01 -4.036599397659301758e-02 -4.958142936229705811e-01
1.988707631826400757e-01 -5.761985108256340027e-02 1.577083468437194824e-01
-2.504991292953491211e-01 3.076958954334259033e-01 -8.509827852249145508e-01
-2.067468017339706421e-01 2.306797802448272705e-01 6.025267243385314941e-01
-1.493330746889114380e-01 2.815444022417068481e-02 3.074491024017333984e-01
-7.402239739894866943e-02 1.392435133457183838e-01 -8.248205780982971191e-01
-2.201901823282241821e-01 3.042981028556823730e-01 -7.673559784889221191e-01
-2.035807818174362183e-01 2.188673317432403564e-01 -7.146061658859252930e-01
1.601531915366649628e-02 -3.330511972308158875e-02 -6.446545124053955078e-01
2.507767081260681152e-01 -5.761985108256340027e-02 4.409461319446563721e-01
-1.877105832099914551e-01 1.596417576074600220e-01 -6.402907371520996094e-01
2.982431277632713318e-02 -3.330511972308158875e-02 -7.367976903915405273e-01
-8.677235245704650879e-02 -5.761985108256340027e-02 6.115251183509826660e-01
-1.547274291515350342e-01 -3.170890808105468750e-01 -8.509827852249145508e-01
2.471335381269454956e-01 -3.855477273464202881e-01 8.024359345436096191e-01
-5.856971442699432373e-02 -5.761985108256340027e-02 -1.807793676853179932e-01
1.915638744831085205e-01 -5.761985108256340027e-02 -4.555966258049011230e-01
-2.180547267198562622e-01 2.846283018589019775e-01 -1.313660852611064911e-02
-1.790250390768051147e-01 -4.164394140243530273e-01 -8.100963234901428223e-01
-2.279179915785789490e-02 1.392435133457183838e-01 8.279137015342712402e-01
3.014428913593292236e-01 -5.761985108256340027e-02 -2.139883935451507568e-01
2.809614837169647217e-01 -3.330511972308158875e-02 -2.536086440086364746e-01
-2.574408054351806641e-02 -5.761985108256340027e-02 -6.088058277964591980e-02
3.240582346916198730e-02 -5.761985108256340027e-02 5.049706101417541504e-01
2.586448192596435547e-01 5.259148404002189636e-02 8.053379654884338379e-01
-1.613850742578506470e-01 8.525197207927703857e-02 8.236603736877441406e-01
2.105013579130172729e-01 1.635577529668807983e-01 -8.464136719703674316e-01
7.917536050081253052e-02 -3.690654635429382324e-01 8.206704258918762207e-01
1.795539259910583496e-01 -3.330511972308158875e-02 9.714863449335098267e-02
-2.309965044260025024e-01 3.266617059707641602e-01 -3.356299400329589844e-01
-7.279001921415328979e-02 1.392435133457183838e-01 8.029072284698486328e-01
-1.947290152311325073e-01 8.628254383802413940e-02 8.510653376579284668e-01
-1.415314227342605591e-01 -1.270152814686298370e-02 -7.033588886260986328e-01
-2.496093511581420898e-01 2.964524626731872559e-01 1.849334090948104858e-01
1.246334910392761230e-01 -5.761985108256340027e-02 -6.901130080223083496e-01
2.839837968349456787e-01 -3.330511972308158875e-02 -3.781502842903137207e-01
-1.303946226835250854e-01 -1.863073110580444336e-01 -8.260799050331115723e-01
1.277359575033187866e-01 -5.353338271379470825e-02 -6.618418097496032715e-01
2.758790552616119385e-01 -3.153965473175048828e-01 8.510653376579284668e-01
-1.450778096914291382e-01 1.227631978690624237e-02 7.806687951087951660e-01
-2.431472688913345337e-01 3.298893272876739502e-01 8.403919935226440430e-01
-9.589691460132598877e-02 -3.330511972308158875e-02 8.825531601905822754e-02
1.488929688930511475e-01 -5.761985108256340027e-02 -2.905002795159816742e-02
-1.303946226835250854e-01 -4.564674198627471924e-02 6.779422163963317871e-01
2.826334834098815918e-01 -5.761985108256340027e-02 4.606423377990722656e-01
2.113754749298095703e-01 -3.330511972308158875e-02 6.991725564002990723e-01
5.312039330601692200e-02 -3.665769845247268677e-02 -9.541125595569610596e-02
1.843498945236206055e-01 -3.330511972308158875e-02 2.837401032447814941e-01
1.847986876964569092e-01 -5.761985108256340027e-02 -5.725771188735961914e-01
-2.317161411046981812e-01 3.264817893505096436e-01 4.880287349224090576e-01
-1.766226589679718018e-01 1.300055384635925293e-01 -3.224349319934844971e-01
-2.047238051891326904e-01 2.348753958940505981e-01 3.875715732574462891e-01
2.441924065351486206e-01 -5.761985108256340027e-02 -6.822410225868225098e-01
1.194229498505592346e-01 -3.330511972308158875e-02 1.005895622074604034e-02
1.633502990007400513e-01 -3.330511972308158875e-02 -2.172385007143020630e-01
2.029030919075012207e-01 -3.330511972308158875e-02 6.429986357688903809e-01
3.206008300185203552e-02 -3.377767279744148254e-02 -5.799866914749145508e-01
-2.517125606536865234e-01 3.214834332466125488e-01 -9.771019220352172852e-02
3.011964559555053711e-01 -8.724209666252136230e-02 6.704652309417724609e-01
-1.572657227516174316e-01 5.775998160243034363e-02 1.138044670224189758e-01
4.408522974699735641e-03 -5.761985108256340027e-02 2.337525337934494019e-01
-1.084935292601585388e-01 -5.761985108256340027e-02 7.157986164093017578e-01
2.347647398710250854e-01 -5.541263893246650696e-02 1.612967699766159058e-01
3.072742819786071777e-01 9.039705619215965271e-03 -8.236452937126159668e-01
-1.824682392179965973e-02 -3.330511972308158875e-02 5.825127363204956055e-01
-1.564297378063201904e-01 4.289786517620086670e-02 8.346188813447952271e-02
3.011964559555053711e-01 -6.427527219057083130e-02 5.302968025207519531e-01
-2.229054421186447144e-01 3.159521520137786865e-01 6.276759505271911621e-01
2.553780972957611084e-01 -3.330511972308158875e-02 8.133768290281295776e-02
1.481840908527374268e-01 -3.121669590473175049e-02 8.024359345436096191e-01
2.711358666419982910e-01 -2.491985410451889038e-01 -8.509827852249145508e-01
2.823557853698730469e-01 -3.330511972308158875e-02 -5.186520814895629883e-01
1.498345732688903809e-01 -3.330511972308158875e-02 6.078937053680419922e-01
2.652927041053771973e-01 1.495599895715713501e-01 -8.509827852249145508e-01
-1.671988964080810547e-01 8.308718353509902954e-02 4.450596272945404053e-01
-5.484499409794807434e-02 -5.667824670672416687e-02 -2.910836935043334961e-01
-1.364744007587432861e-01 -8.617398887872695923e-02 9.311141818761825562e-02
-2.726925611495971680e-01 3.083607554435729980e-01 -1.807158142328262329e-01
-4.455766454339027405e-02 1.392435133457183838e-01 -8.390637636184692383e-01
1.963780634105205536e-02 -5.761985108256340027e-02 2.945777475833892822e-01
-1.790250390768051147e-01 -1.331159025430679321e-01 -8.208957910537719727e-01
3.644489869475364685e-02 -5.631861463189125061e-02 1.789279431104660034e-01
2.136155515909194946e-01 -3.345520421862602234e-02 -3.401299566030502319e-02
2.790939509868621826e-01 -3.265871703624725342e-01 8.024359345436096191e-01
1.277359575033187866e-01 -5.259305983781814575e-02 3.422420918941497803e-01
1.434741616249084473e-01 -5.560664832592010498e-02 -2.765481472015380859e-01
-1.355191171169281006e-01 -1.039064526557922363e-01 -5.812235474586486816e-01
-1.303946226835250854e-01 -7.946285605430603027e-02 -4.584751725196838379e-01
-1.662739366292953491e-01 7.963565737009048462e-02 5.064626932144165039e-01
-1.157456487417221069e-01 -5.761985108256340027e-02 -1.282505840063095093e-01
-8.608204126358032227e-02 -3.330511972308158875e-02 5.690732598304748535e-01
2.913072705268859863e-01 3.150859102606773376e-02 8.024359345436096191e-01
2.347647398710250854e-01 -5.754586309194564819e-02 5.038657188415527344e-01
3.095524907112121582e-01 -5.395909398794174194e-02 3.406297564506530762e-01
-1.303946226835250854e-01 -9.335532039403915405e-02 -2.533221840858459473e-01
-1.980045586824417114e-01 2.098014354705810547e-01 -4.217119514942169189e-01
-1.693128347396850586e-01 9.097778797149658203e-02 -4.184168577194213867e-01
-1.314369142055511475e-01 -5.527582019567489624e-02 9.213422983884811401e-02
-1.959942579269409180e-01 1.905540078878402710e-01 -6.907182931900024414e-01
-2.137808799743652344e-01 2.686759531497955322e-01 1.571360416710376740e-02
-5.981930345296859741e-02 -3.825019896030426025e-01 -8.023523092269897461e-01
-2.058482319116592407e-01 2.273309230804443359e-01 2.451494336128234863e-01
1.412849426269531250e-01 -3.724856972694396973e-01 8.024359345436096191e-01
-2.460473179817199707e-01 2.974028587341308594e-01 4.772165715694427490e-01
-5.626324564218521118e-02 1.635577529668807983e-01 8.404223322868347168e-01
-1.704431474208831787e-01 9.519590437412261963e-02 7.888156175613403320e-01
2.616319358348846436e-01 -1.853764615952968597e-02 8.024359345436096191e-01
-2.073794305324554443e-01 2.447900027036666870e-01 7.293074727058410645e-01
-2.199056446552276611e-01 1.137080416083335876e-01 8.197561502456665039e-01
-2.108906060457229614e-01 2.461471259593963623e-01 -5.769888162612915039e-01
2.757832407951354980e-01 -3.330511972308158875e-02 -4.488675892353057861e-01
-1.614857912063598633e-01 6.176298111677169800e-02 -5.088000297546386719e-01
2.950658500194549561e-01 -5.761985108256340027e-02 -1.084458231925964355e-01
-1.303946226835250854e-01 -7.013996690511703491e-02 7.036458849906921387e-01
-6.218267604708671570e-02 -5.761985108256340027e-02 3.499420583248138428e-01
-1.896103918552398682e-01 1.784746050834655762e-01 -7.755985856056213379e-01
2.046963274478912354e-01 -5.761985108256340027e-02 -1.102116778492927551e-01
3.644489869475364685e-02 -4.590311273932456970e-02 7.613499760627746582e-01
1.439337134361267090e-01 -3.761180862784385681e-02 -1.029947549104690552e-01
6.746360659599304199e-02 -3.330511972308158875e-02 -2.765716016292572021e-01
-5.811895802617073059e-02 -3.431652486324310303e-02 6.027486920356750488e-01
-2.091276794672012329e-01 2.513127028942108154e-01 -6.695035696029663086e-01
-9.438721835613250732e-02 -3.330511972308158875e-02 -4.561920464038848877e-01
-1.777842640876770020e-01 1.225950121879577637e-01 3.999687135219573975e-01
-2.441973835229873657e-01 3.233617246150970459e-01 7.062222957611083984e-01
1.099530383944511414e-01 -3.528138995170593262e-01 -8.205887675285339355e-01
2.684030234813690186e-01 -3.330511972308158875e-02 -6.110455393791198730e-01
1.049291566014289856e-01 -3.330511972308158875e-02 3.143237829208374023e-01
3.194328844547271729e-01 1.595283448696136475e-01 8.121422529220581055e-01
-3.910571336746215820e-02 -5.396357178688049316e-02 -5.069833397865295410e-01
-1.127272695302963257e-01 -3.330511972308158875e-02 4.608320593833923340e-01
1.797338277101516724e-01 1.635577529668807983e-01 8.442150950431823730e-01
2.872446477413177490e-01 -3.733363449573516846e-01 8.024359345436096191e-01
-9.442047029733657837e-02 -5.761985108256340027e-02 6.669510602951049805e-01
2.190236151218414307e-01 -5.160249024629592896e-02 -1.545320898294448853e-01
2.104778885841369629e-01 -3.330511972308158875e-02 3.401956558227539062e-01
-1.614730805158615112e-01 6.171995401382446289e-02 5.819202065467834473e-01
3.072742819786071777e-01 -2.287474572658538818e-01 8.259894847869873047e-01
-1.506393700838088989e-01 2.128746174275875092e-02 6.860029697418212891e-01
1.465287208557128906e-01 -3.446690365672111511e-02 1.647903472185134888e-01
-2.413618713617324829e-01 2.986524701118469238e-01 6.564537286758422852e-01
2.191663533449172974e-01 1.635577529668807983e-01 8.358463644981384277e-01
3.011964559555053711e-01 -7.903596013784408569e-02 -1.903791278600692749e-01
2.634388506412506104e-01 -3.330511972308158875e-02 -4.384605213999748230e-02
-1.070488430559635162e-02 -3.330511972308158875e-02 -6.504888534545898438e-01
-9.262234717607498169e-02 -3.330511972308158875e-02 -7.629296183586120605e-01
-2.008454687893390656e-02 -3.330511972308158875e-02 3.076691031455993652e-01
-1.303946226835250854e-01 -3.483709096908569336e-01 8.238725662231445312e-01
1.434741616249084473e-01 -4.433809220790863037e-02 5.914756283164024353e-02
-1.719459891319274902e-01 1.071980372071266174e-01 -3.068962097167968750e-01
-1.579491794109344482e-01 4.857088997960090637e-02 -7.624220848083496094e-01
3.194328844547271729e-01 1.556152999401092529e-01 -8.291706442832946777e-01
-1.364744007587432861e-01 -6.786996126174926758e-02 4.720157980918884277e-01
2.174218371510505676e-02 -3.330511972308158875e-02 3.358249962329864502e-01
5.905995890498161316e-02 -3.330511972308158875e-02 -6.353910565376281738e-01
-5.316723138093948364e-02 -3.518116772174835205e-01 -8.023523092269897461e-01
2.925212122499942780e-02 -5.761985108256340027e-02 -1.318849623203277588e-01
-3.910571336746215820e-02 -5.450546368956565857e-02 -1.497605592012405396e-01
2.121469378471374512e-01 -5.761985108256340027e-02 5.965134501457214355e-01
1.821323037147521973e-01 -5.761985108256340027e-02 -6.755824089050292969e-01
2.906570732593536377e-01 -2.741072475910186768e-01 -8.509827852249145508e-01
1.277359575033187866e-01 -5.169192701578140259e-02 7.192403078079223633e-01
1.434741616249084473e-01 -5.727677047252655029e-02 1.067811399698257446e-01
-3.910571336746215820e-02 -5.456468835473060608e-02 4.916308522224426270e-01
3.644489869475364685e-02 -5.295418202877044678e-02 9.662630409002304077e-02
-2.602562904357910156e-01 3.193469941616058350e-01 -4.779660403728485107e-01
-7.769118994474411011e-02 -3.330511972308158875e-02 1.118313297629356384e-01
-2.250741571187973022e-01 3.240852653980255127e-01 1.585717350244522095e-01
-6.511539965867996216e-02 -3.330511972308158875e-02 -6.270409226417541504e-01
-1.826154142618179321e-01 1.406241357326507568e-01 -6.749956607818603516e-01
1.977101564407348633e-01 -3.584380745887756348e-01 8.024359345436096191e-01
-5.768629908561706543e-02 -5.761985108256340027e-02 6.982671022415161133e-01
-1.124896779656410217e-01 -5.761985108256340027e-02 -4.109789431095123291e-01
1.017754711210727692e-02 -5.761985108256340027e-02 6.094806194305419922e-01
-7.992645725607872009e-03 -3.330511972308158875e-02 2.371405065059661865e-01
2.586448192596435547e-01 -1.891907602548599243e-01 -8.033965826034545898e-01
3.010566532611846924e-01 -1.062504574656486511e-01 2.421584427356719971e-01
6.678240001201629639e-02 -5.761985108256340027e-02 3.234835565090179443e-01
-2.445293404161930084e-02 -5.761985108256340027e-02 5.413113832473754883e-01
2.206270769238471985e-02 -5.761985108256340027e-02 4.757342636585235596e-01
-2.547534108161926270e-01 3.207227289676666260e-01 1.209578439593315125e-01
1.277359575033187866e-01 -4.003902524709701538e-02 7.685600519180297852e-01
-2.064476162195205688e-01 2.295660823583602905e-01 -7.823863029479980469e-01
-1.535560637712478638e-01 3.216946125030517578e-02 4.771549701690673828e-01
6.761705037206411362e-03 1.419294476509094238e-01 -8.023523092269897461e-01
-9.857013076543807983e-02 -5.761985108256340027e-02 -4.391152858734130859e-01
-1.679820865392684937e-01 8.600974082946777344e-02 -3.575516045093536377e-01
6.000986695289611816e-02 -4.229973256587982178e-02 8.024359345436096191e-01
9.198092669248580933e-02 -5.761985108256340027e-02 -2.477596104145050049e-01
2.629744410514831543e-01 -5.761985108256340027e-02 7.241409420967102051e-01
2.481230497360229492e-01 -5.761985108256340027e-02 5.575805306434631348e-01
-1.988243870437145233e-02 -3.330511972308158875e-02 -1.902666836977005005e-01
-1.895918101072311401e-01 1.666631549596786499e-01 -9.519712626934051514e-02
-1.245358139276504517e-01 -3.337366133928298950e-02 -1.486273258924484253e-01
1.531433463096618652e-01 1.635577529668807983e-01 -8.091889619827270508e-01
-2.312262803316116333e-01 2.358238399028778076e-01 -8.509827852249145508e-01
-1.364744007587432861e-01 -9.925782680511474609e-02 -5.267343521118164062e-01
2.485786676406860352e-01 1.392435133457183838e-01 -8.300594091415405273e-01
-1.059640273451805115e-01 -4.382368624210357666e-01 -8.236296176910400391e-01
5.869105085730552673e-02 -3.330511972308158875e-02 -3.094638288021087646e-01
-1.364744007587432861e-01 -7.556565105915069580e-02 -2.215371094644069672e-02
1.602038294076919556e-01 -5.761985108256340027e-02 -9.288068860769271851e-02
1.517441570758819580e-01 -3.330511972308158875e-02 -1.706124991178512573e-01
2.205627411603927612e-02 -5.761985108256340027e-02 4.052662849426269531e-01
1.107661798596382141e-02 -5.761985108256340027e-02 -1.530002523213624954e-02
2.649637311697006226e-02 -3.330511972308158875e-02 -2.235744595527648926e-01
1.133617460727691650e-01 -5.761985108256340027e-02 -4.542101025581359863e-01
3.103141784667968750e-01 -4.740066826343536377e-02 4.771725833415985107e-01
-2.486188858747482300e-01 3.222568333148956299e-01 -1.568406075239181519e-01
2.659331560134887695e-01 9.945604205131530762e-02 8.024359345436096191e-01
-2.154167145490646362e-01 2.747831344604492188e-01 3.022698462009429932e-01
2.934622764587402344e-01 -3.330511972308158875e-02 -3.902964666485786438e-02
-3.910571336746215820e-02 -4.027085751295089722e-02 -5.455417633056640625e-01
-2.123797386884689331e-01 2.634488046169281006e-01 5.509845018386840820e-01
2.862619757652282715e-01 -3.330511972308158875e-02 -7.979885935783386230e-01
8.863539248704910278e-02 -3.330511972308158875e-02 1.940149515867233276e-01
1.825615465641021729e-01 -3.330511972308158875e-02 3.286315202713012695e-01
2.363731712102890015e-01 -5.761985108256340027e-02 2.670544385910034180e-01
-1.790250390768051147e-01 -4.129350930452346802e-02 -8.165828585624694824e-01
-9.719929844141006470e-02 -5.761985108256340027e-02 3.914621472358703613e-01
6.960297375917434692e-02 -5.761985108256340027e-02 -4.775964319705963135e-01
-1.364744007587432861e-01 -7.281273603439331055e-02 -7.163329720497131348e-01
2.847611010074615479e-01 -4.116962552070617676e-01 8.024359345436096191e-01
-1.494973301887512207e-01 1.702516153454780579e-02 -2.360596060752868652e-01
2.062529474496841431e-01 -5.761985108256340027e-02 6.880142092704772949e-01
7.051875442266464233e-02 -3.330511972308158875e-02 7.513836026191711426e-01
5.466888844966888428e-02 -5.761985108256340027e-02 5.873888731002807617e-01
-1.283491253852844238e-01 -4.100839421153068542e-02 -8.023523092269897461e-01
3.019645251333713531e-02 -5.761985108256340027e-02 -5.953103303909301758e-01
2.799601061269640923e-03 -3.330511972308158875e-02 7.503921389579772949e-01
1.850431263446807861e-01 -5.761985108256340027e-02 5.950389504432678223e-01
-2.214524894952774048e-01 2.973099946975708008e-01 -5.850388407707214355e-01
5.901273712515830994e-02 1.635577529668807983e-01 8.437370061874389648e-01
-2.129233926534652710e-01 2.398238927125930786e-01 8.024359345436096191e-01
-2.175599783658981323e-01 2.128022313117980957e-01 -8.509827852249145508e-01
2.951166629791259766e-01 -6.662765145301818848e-02 6.271137595176696777e-01
-2.671456933021545410e-01 3.176251351833343506e-01 3.776638209819793701e-01
-2.474719434976577759e-01 2.970225512981414795e-01 3.481762111186981201e-01
1.843029558658599854e-01 -5.761985108256340027e-02 1.919831484556198120e-01
-2.589842379093170166e-01 2.939532995223999023e-01 3.126606047153472900e-01
-1.206638440489768982e-01 -3.330511972308158875e-02 5.452254414558410645e-01
2.778599858283996582e-01 -2.274147868156433105e-01 8.510653376579284668e-01
-1.579296290874481201e-01 -2.867361307144165039e-01 -8.509827852249145508e-01
-1.567132920026779175e-01 4.395385459065437317e-02 -1.519928127527236938e-01
2.586448192596435547e-01 -9.814307093620300293e-02 -8.370534777641296387e-01
-8.542888611555099487e-02 -3.330511972308158875e-02 6.616750359535217285e-01
-2.733633518218994141e-01 3.160704970359802246e-01 6.284177303314208984e-02
-2.070626169443130493e-01 2.436068952083587646e-01 2.669507861137390137e-01
-2.128774374723434448e-01 2.653085291385650635e-01 4.299736022949218750e-01
1.173275932669639587e-01 -3.330511972308158875e-02 6.947325468063354492e-01
-1.505464762449264526e-01 2.093810401856899261e-02 -3.512791991233825684e-01
5.218407884240150452e-02 -4.609299823641777039e-02 -5.080491304397583008e-01
-6.994040310382843018e-02 -3.330511972308158875e-02 -7.249304652214050293e-01
-1.303946226835250854e-01 -1.001087874174118042e-01 -1.423598229885101318e-01
2.347647398710250854e-01 -4.356975853443145752e-02 3.911081850528717041e-01
-1.760447919368743896e-01 1.161026060581207275e-01 -1.065293923020362854e-01
-1.790250390768051147e-01 -1.562494784593582153e-01 8.399314880371093750e-01
-2.599766552448272705e-01 3.194173872470855713e-01 5.261490941047668457e-01
5.236252397298812866e-02 -3.327040746808052063e-02 -8.023523092269897461e-01
3.644489869475364685e-02 -5.622195079922676086e-02 -2.068467587232589722e-01
2.866907604038715363e-02 -3.699513077735900879e-01 -8.205887675285339355e-01
2.804379165172576904e-02 -5.761985108256340027e-02 3.656949400901794434e-01
1.440305449068546295e-02 -5.761985108256340027e-02 -5.267910361289978027e-01
-1.152450442314147949e-01 1.450622230768203735e-01 8.024359345436096191e-01
2.590564787387847900e-01 9.238383173942565918e-02 -8.509827852249145508e-01
1.978519260883331299e-01 -3.330511972308158875e-02 7.223877310752868652e-01
1.151236891746520996e-01 -5.761985108256340027e-02 5.133960843086242676e-01
-1.012022867798805237e-01 -5.761985108256340027e-02 5.561794042587280273e-01
-2.488995045423507690e-01 3.221864402294158936e-01 3.277867138385772705e-01
3.097656667232513428e-01 -5.352262780070304871e-02 8.732976019382476807e-02
-2.576153576374053955e-01 3.200079500675201416e-01 -7.807074189186096191e-01
-7.494177203625440598e-03 -5.550054460763931274e-02 -8.023523092269897461e-01
-9.245319664478302002e-02 -5.761985108256340027e-02 6.331305950880050659e-02
7.859582453966140747e-02 -5.761985108256340027e-02 -5.437299609184265137e-01
2.590320408344268799e-01 -3.330511972308158875e-02 -5.726836919784545898e-01
-1.480306833982467651e-01 1.155188865959644318e-02 5.787177011370658875e-02
-3.499017655849456787e-02 -5.761985108256340027e-02 1.260451823472976685e-01
2.834039628505706787e-01 -3.330511972308158875e-02 5.304454565048217773e-01
3.017684519290924072e-01 -1.789974980056285858e-02 -8.509827852249145508e-01
3.587270528078079224e-02 -5.761985108256340027e-02 -4.351494312286376953e-01
-2.691422998905181885e-01 3.171254992485046387e-01 7.208477854728698730e-01
-6.939774751663208008e-02 -5.761985108256340027e-02 5.744979381561279297e-01
1.170660648494958878e-02 -5.761985108256340027e-02 -2.574200034141540527e-01
-1.727487295866012573e-01 1.038002893328666687e-01 -2.370217442512512207e-01
1.116519272327423096e-01 -5.761985108256340027e-02 -2.020615339279174805e-01
-2.445171326398849487e-01 2.978106141090393066e-01 -2.001138180494308472e-01
3.005491793155670166e-01 -1.062504574656486511e-01 3.881953954696655273e-01
6.453081499785184860e-03 -5.761985108256340027e-02 -7.026646733283996582e-01
-9.787298738956451416e-02 -3.330511972308158875e-02 3.491569161415100098e-01
-2.075593471527099609e-01 2.451195120811462402e-01 8.510653376579284668e-01
5.478817969560623169e-02 -3.740794658660888672e-01 8.024359345436096191e-01
2.097836732864379883e-01 -5.761985108256340027e-02 -5.462750792503356934e-01
8.606747537851333618e-02 -3.330511972308158875e-02 2.685240209102630615e-01
-2.223334610462188721e-01 1.226595342159271240e-01 -8.164576888084411621e-01
3.011964559555053711e-01 -8.467740565538406372e-02 -1.321812272071838379e-01
1.386997103691101074e-01 -3.705311417579650879e-01 -8.205887675285339355e-01
2.864800393581390381e-01 5.414809659123420715e-02 -8.023523092269897461e-01
-2.099910527467727661e-01 2.427963018417358398e-01 9.165404736995697021e-02
1.275990754365921021e-01 -5.761985108256340027e-02 3.729783594608306885e-01
2.808099389076232910e-01 -3.811819851398468018e-02 8.024359345436096191e-01
-1.132703945040702820e-02 -5.761985108256340027e-02 7.944162487983703613e-01
-1.564492881298065186e-01 5.471813678741455078e-02 -3.384860455989837646e-01
7.752539124339818954e-03 -3.578142225742340088e-01 8.024359345436096191e-01
8.778491616249084473e-02 -5.761985108256340027e-02 -4.379116594791412354e-01
-1.839608252048492432e-01 1.456449925899505615e-01 5.756263136863708496e-01
-5.484499409794807434e-02 -5.382869020104408264e-02 7.568841427564620972e-02
-1.364744007587432861e-01 -7.523585855960845947e-02 -7.844024300575256348e-01
-6.859724223613739014e-02 -5.761985108256340027e-02 -2.570944130420684814e-01
-1.364744007587432861e-01 -5.560116097331047058e-02 -7.488046884536743164e-01
-2.081988006830215454e-01 2.360986024141311646e-01 1.448526084423065186e-01
-7.153075188398361206e-02 -5.761985108256340027e-02 3.987807631492614746e-01
-2.381303161382675171e-01 3.248782455921173096e-01 1.094315387308597565e-02
-1.576875895261764526e-02 -5.761985108256340027e-02 -7.495849728584289551e-01
2.788377702236175537e-01 -5.761985108256340027e-02 5.998887419700622559e-01
2.079552412033081055e-01 1.635577529668807983e-01 -8.191172480583190918e-01
3.062789142131805420e-01 -2.389544248580932617e-01 -8.023523092269897461e-01
1.091412901878356934e-01 -5.761985108256340027e-02 -5.493257045745849609e-01
-9.889279305934906006e-02 -3.330511972308158875e-02 -6.054752469062805176e-01
-1.503059417009353638e-01 4.370549693703651428e-02 -8.153312802314758301e-01
2.190236151218414307e-01 -4.243427515029907227e-02 4.795749485492706299e-01
-1.739640980958938599e-01 1.200811564922332764e-01 7.430245876312255859e-01
-2.566258609294891357e-01 2.945820093154907227e-01 5.977190136909484863e-01
-2.571460306644439697e-01 3.201253116130828857e-01 -2.166420519351959229e-01
-1.790250390768051147e-01 -4.354717135429382324e-01 -8.273334503173828125e-01
-8.688283711671829224e-02 -3.330511972308158875e-02 -4.134536981582641602e-01
-2.129888981580734253e-01 2.539781033992767334e-01 7.060081362724304199e-01
-1.858831197023391724e-01 1.645648479461669922e-01 3.112418651580810547e-01
-1.605696082115173340e-01 5.834859982132911682e-02 1.505745351314544678e-01
2.898963689804077148e-01 -3.330511972308158875e-02 -6.566527485847473145e-01
5.538628250360488892e-02 -3.436551243066787720e-02 3.323304355144500732e-01
-1.279433369636535645e-01 1.635577529668807983e-01 -8.229833245277404785e-01
4.180562496185302734e-02 -3.096100874245166779e-02 8.196583986282348633e-01
-1.982206404209136963e-01 2.152153551578521729e-01 -8.023523092269897461e-01
2.586448192596435547e-01 -1.493533840402960777e-03 -8.222050070762634277e-01
3.065458536148071289e-01 -4.171776473522186279e-01 -8.509827852249145508e-01
-1.567993313074111938e-01 5.601955205202102661e-02 2.570664882659912109e-01
-1.981629580259323120e-01 2.103920131921768188e-01 6.538547873497009277e-01
-8.894298970699310303e-02 -5.761985108256340027e-02 3.640190064907073975e-01
2.019957304000854492e-01 -5.761985108256340027e-02 5.536811947822570801e-01
-2.483128309249877930e-01 2.967986166477203369e-01 5.720290541648864746e-01
-2.491126656532287598e-01 3.221336603164672852e-01 -3.706869781017303467e-01
-1.286629736423492432e-01 -5.761985108256340027e-02 -2.972778677940368652e-01
-9.242874383926391602e-02 1.564669460058212280e-01 8.024359345436096191e-01
1.709475815296173096e-01 -3.330511972308158875e-02 2.620883584022521973e-01
-1.303946226835250854e-01 -7.579992711544036865e-02 -3.581675887107849121e-01
-1.550344526767730713e-01 3.769220411777496338e-02 -2.498305588960647583e-01
3.072742819786071777e-01 -3.640954196453094482e-01 8.191890716552734375e-01
1.730908453464508057e-01 -3.330511972308158875e-02 -6.632634401321411133e-01
1.783968508243560791e-02 -6.808913499116897583e-02 8.267501592636108398e-01
3.011964559555053711e-01 -9.732380509376525879e-02 -3.744562566280364990e-01
2.484056204557418823e-01 1.555331796407699585e-01 -8.023523092269897461e-01
-1.566526591777801514e-01 -3.558782339096069336e-01 -8.023523092269897461e-01
2.951166629791259766e-01 -7.875133305788040161e-02 -6.455364823341369629e-01
3.011964559555053711e-01 -7.939099520444869995e-02 -5.521270632743835449e-01
2.052780985832214355e-01 -5.761985108256340027e-02 -1.873392462730407715e-01
-2.251191288232803345e-01 3.242544233798980713e-01 -1.032254993915557861e-01
1.441957652568817139e-01 -3.936817869544029236e-02 -8.266665339469909668e-01
-1.659209579229354858e-01 9.006161987781524658e-02 5.576450824737548828e-01
-7.861968874931335449e-02 -5.761985108256340027e-02 -2.997477352619171143e-01
2.071563899517059326e-01 -3.330511972308158875e-02 -5.194137692451477051e-01
2.480272352695465088e-01 -5.761985108256340027e-02 -5.877492427825927734e-01
-2.531738206744194031e-02 -3.330511972308158875e-02 5.582102537155151367e-01
-1.008336693048477173e-01 -5.761985108256340027e-02 -6.669525504112243652e-01
-1.405028253793716431e-01 -1.307591330260038376e-02 5.318084955215454102e-01
1.178741529583930969e-01 -5.761985108256340027e-02 -3.178794980049133301e-01
-1.303946226835250854e-01 -9.346414357423782349e-02 5.541290044784545898e-01
-1.828921288251876831e-01 1.424701660871505737e-01 -7.565506100654602051e-01
2.698520421981811523e-01 -5.761985108256340027e-02 -1.095184460282325745e-01
1.006892472505569458e-01 -3.330511972308158875e-02 -7.368449866771697998e-02
2.445023655891418457e-01 1.392435133457183838e-01 8.139882683753967285e-01
6.463736295700073242e-02 -5.761985108256340027e-02 5.094116330146789551e-01
-1.491864025592803955e-01 1.392435133457183838e-01 8.300638198852539062e-01
-1.823612004518508911e-01 1.514167785644531250e-01 -2.135413466021418571e-03
-2.018072875216603279e-03 -3.330511972308158875e-02 -3.618948459625244141e-01
1.480579525232315063e-01 -3.369896486401557922e-02 6.357533335685729980e-01
-5.484499409794807434e-02 -5.359304696321487427e-02 1.773859858512878418e-01
-5.760974064469337463e-02 1.505025327205657959e-01 -8.023523092269897461e-01
1.876625716686248779e-01 -3.330511972308158875e-02 -3.368486091494560242e-02
3.014492429792881012e-02 1.392435133457183838e-01 8.211612105369567871e-01
-1.559750586748123169e-01 5.294249951839447021e-02 5.244154930114746094e-01
1.857295334339141846e-01 -3.330511972308158875e-02 -3.642170429229736328e-01
-1.560826152563095093e-01 4.160036146640777588e-02 -8.339390158653259277e-03
1.434741616249084473e-01 -3.975537791848182678e-02 1.891691088676452637e-01
-3.180821239948272705e-02 -3.330511972308158875e-02 -2.893354296684265137e-01
-1.632076501846313477e-01 6.819280236959457397e-02 6.837166100740432739e-02
1.735230386257171631e-01 -3.330511972308158875e-02 -7.030164822936058044e-03
1.899828314781188965e-01 -4.530442133545875549e-02 -8.266665339469909668e-01
-7.702240347862243652e-02 -3.330511972308158875e-02 2.329312115907669067e-01
-2.745073139667510986e-01 3.150487244129180908e-01 -3.238360881805419922e-01
-1.896563470363616943e-01 1.732650399208068848e-01 2.470453381538391113e-01
2.401444315910339355e-01 -5.761985108256340027e-02 -3.357648849487304688e-01
1.136619150638580322e-01 -5.761985108256340027e-02 4.511765539646148682e-01
2.190236151218414307e-01 -4.112112894654273987e-02 -6.094019412994384766e-01
-1.790250390768051147e-01 -9.682884812355041504e-02 8.171934485435485840e-01
3.011964559555053711e-01 -8.327841013669967651e-02 -4.348209202289581299e-01
-1.215379685163497925e-01 -3.330511972308158875e-02 -1.742390543222427368e-01
-1.546081453561782837e-01 4.826586227864027023e-03 -8.023523092269897461e-01
2.749755978584289551e-01 -4.185700118541717529e-01 8.510653376579284668e-01
-2.147009819746017456e-01 2.665610611438751221e-01 -8.023523092269897461e-01
5.218407884240150452e-02 -4.762731119990348816e-02 -5.853419303894042969e-01
1.807996034622192383e-01 -3.330511972308158875e-02 -4.345012009143829346e-01
-1.342480182647705078e-01 -3.174479305744171143e-01 8.024359345436096191e-01
-1.709105223417282104e-01 1.635577529668807983e-01 8.468717336654663086e-01
2.039397507905960083e-02 -5.761985108256340027e-02 7.334737181663513184e-01
-1.656090468168258667e-01 8.890002965927124023e-02 -5.262239575386047363e-01
2.904458642005920410e-01 -9.217397123575210571e-02 -8.509827852249145508e-01
-1.487904042005538940e-01 -1.052016988396644592e-01 -8.509827852249145508e-01
2.809517085552215576e-01 -3.330511972308158875e-02 4.921695888042449951e-01
-1.790250390768051147e-01 -1.686526834964752197e-01 8.157952427864074707e-01
-1.772347390651702881e-01 1.205407083034515381e-01 3.451949656009674072e-01
-2.695211581885814667e-02 -5.761985108256340027e-02 7.650517821311950684e-01
-8.260606229305267334e-02 -3.330511972308158875e-02 -3.376412391662597656e-01
1.764201670885086060e-01 -5.761985108256340027e-02 -7.304705381393432617e-01
-8.725830167531967163e-02 -5.761985108256340027e-02 -2.135053724050521851e-01
2.354990541934967041e-01 -3.701184689998626709e-02 -7.921708226203918457e-01
2.106059640645980835e-01 -5.761985108256340027e-02 2.382502853870391846e-01
-7.276538014411926270e-02 -5.761985108256340027e-02 -1.337348967790603638e-01
-2.002006322145462036e-01 2.179941833019256592e-01 3.904175385832786560e-02
-1.199618056416511536e-01 -3.330511972308158875e-02 -6.866174936294555664e-01
1.478037387132644653e-01 -3.379908949136734009e-02 1.798682287335395813e-02
-1.980290114879608154e-01 6.000494584441184998e-02 -8.023523092269897461e-01
-1.571542620658874512e-01 4.560140147805213928e-02 -6.449785083532333374e-02
2.816302776336669922e-01 -3.330511972308158875e-02 -1.766189485788345337e-01
-5.511827394366264343e-02 -6.797833740711212158e-02 8.267501592636108398e-01
3.103141784667968750e-01 -4.686328396201133728e-02 1.269193142652511597e-01
1.265333145856857300e-01 -3.625534847378730774e-02 -2.114103361964225769e-02
-7.149976491928100586e-02 -3.330511972308158875e-02 -2.399795055389404297e-01
-2.341077625751495361e-01 1.928615719079971313e-01 -8.023523092269897461e-01
