2.044511772692203522e-02 1.952031403779983521e-01 -4.548264741897583008e-01
2.044511772692203522e-02 -7.882096171379089355e-01 -3.516020476818084717e-01
-1.405941788107156754e-03 8.648595809936523438e-01 -1.826672703027725220e-01
2.044511772692203522e-02 -1.639890223741531372e-01 4.781736731529235840e-01
8.834482170641422272e-03 -5.304335355758666992e-01 3.975959420204162598e-01
2.044511772692203522e-02 -8.303984999656677246e-01 2.990156225860118866e-02
1.373558863997459412e-02 -8.435690999031066895e-01 -3.149856925010681152e-01
2.044511772692203522e-02 8.172865509986877441e-01 -2.903333306312561035e-01
8.834482170641422272e-03 4.212927520275115967e-01 -2.476473450660705566e-01
-1.272759959101676941e-02 3.752639889717102051e-01 2.444980852305889130e-02
8.834482170641422272e-03 1.683353818953037262e-02 2.586260139942169189e-01
2.044511772692203522e-02 -8.005492687225341797e-01 1.333596110343933105e-01
-1.521574985235929489e-02 -8.099755644798278809e-01 -3.861482487991452217e-03
-5.249796900898218155e-03 3.303491771221160889e-01 -4.113882184028625488e-01
-1.521574985235929489e-02 5.397933349013328552e-02 -4.612747430801391602e-01
8.834482170641422272e-03 4.926772415637969971e-01 -3.353687524795532227e-01
2.044511772692203522e-02 -7.028605341911315918e-01 -5.035473108291625977e-01
1.815334521234035492e-02 -4.859670400619506836e-01 5.162725448608398438e-01
-1.521574985235929489e-02 6.405504345893859863e-01 4.967832267284393311e-01
8.834482170641422272e-03 3.616909086704254150e-01 9.624111652374267578e-02
8.834482170641422272e-03 -2.351832389831542969e-01 -1.282822638750076294e-01
2.044511772692203522e-02 1.493341568857431412e-02 4.908311069011688232e-01
-1.272759959101676941e-02 -2.907080650329589844e-01 3.032499253749847412e-01
-1.272759959101676941e-02 -4.198627546429634094e-02 -1.194117125123739243e-02
2.044511772692203522e-02 2.298925518989562988e-01 -4.269240796566009521e-01
-1.521574985235929489e-02 3.620635569095611572e-01 4.554571807384490967e-01
8.834482170641422272e-03 7.116818428039550781e-01 -2.171375304460525513e-01
7.115502841770648956e-03 7.657042145729064941e-01 2.468602508306503296e-01
-1.521574985235929489e-02 -3.984245657920837402e-02 -3.594890236854553223e-01
-1.272759959101676941e-02 -3.408975005149841309e-01 1.888754665851593018e-01
2.044511772692203522e-02 -2.830452322959899902e-01 5.125123858451843262e-01
-1.272759959101676941e-02 4.287672340869903564e-01 -3.604027032852172852e-01
8.834482170641422272e-03 7.182039022445678711e-01 3.393242359161376953e-01
-1.521574985235929489e-02 -7.058256268501281738e-01 -5.312941223382949829e-02
2.044511772692203522e-02 -5.157073214650154114e-02 5.130025744438171387e-01
2.044511772692203522e-02 7.068964838981628418e-01 -4.006446897983551025e-01
-1.272759959101676941e-02 3.691285550594329834e-01 -1.114890053868293762e-01
8.834482170641422272e-03 2.496648579835891724e-01 3.904632031917572021e-01
2.044511772692203522e-02 -7.321726679801940918e-01 -3.547056317329406738e-01
-1.521574985235929489e-02 -4.119243025779724121e-01 -4.840629398822784424e-01
2.044511772692203522e-02 -7.326977849006652832e-01 -8.021042495965957642e-02
-1.272759959101676941e-02 -6.205232739448547363e-01 2.174752950668334961e-01
8.834482170641422272e-03 -4.290353953838348389e-01 -2.268627583980560303e-01
-1.272759959101676941e-02 -1.405950635671615601e-01 1.683788448572158813e-01
-1.272759959101676941e-02 -4.223699271678924561e-01 -3.930665552616119385e-01
1.670965366065502167e-02 -8.435690999031066895e-01 -2.449851185083389282e-01
8.834482170641422272e-03 2.675036154687404633e-02 -2.038483917713165283e-01
-1.521574985235929489e-02 1.511192172765731812e-01 5.083367824554443359e-01
-1.272759959101676941e-02 -5.999489426612854004e-01 2.796815633773803711e-01
8.834482170641422272e-03 7.066782712936401367e-01 2.282576411962509155e-01
8.834482170641422272e-03 -6.489248275756835938e-01 -9.208286553621292114e-02
-1.521574985235929489e-02 -6.741879582405090332e-01 -3.520942330360412598e-01
-1.359062641859054565e-02 -2.628574967384338379e-01 -5.087840557098388672e-01
8.834482170641422272e-03 -4.589553475379943848e-01 -3.462437689304351807e-01
-1.272759959101676941e-02 3.794874846935272217e-01 -2.362024188041687012e-01
-1.272759959101676941e-02 1.566578596830368042e-01 -2.162677198648452759e-01
-1.272759959101676941e-02 -6.078748106956481934e-01 -9.300587326288223267e-02
8.834482170641422272e-03 -4.280390441417694092e-01 -1.044638454914093018e-01
-1.272759959101676941e-02 -4.183427393436431885e-01 2.304635345935821533e-01
2.044511772692203522e-02 1.246266514062881470e-01 -4.814515709877014160e-01
-1.521574985235929489e-02 -8.147207647562026978e-02 4.802390635013580322e-01
-1.272759959101676941e-02 -2.066392004489898682e-01 -3.858401477336883545e-01
2.044511772692203522e-02 8.198142051696777344e-01 -3.700980246067047119e-01
-1.805479405447840691e-04 6.792252063751220703e-01 -4.113882184028625488e-01
-1.272759959101676941e-02 -3.465028246864676476e-03 -1.651188135147094727e-01
-1.138344220817089081e-02 8.233931064605712891e-01 -5.087840557098388672e-01
-1.272759959101676941e-02 -2.108278125524520874e-01 1.422668546438217163e-01
-1.335369702428579330e-02 -4.348071813583374023e-01 5.162725448608398438e-01
2.044511772692203522e-02 -8.053097724914550781e-01 4.927759468555450439e-01
-1.272759959101676941e-02 6.933782100677490234e-01 3.475840389728546143e-02
8.834482170641422272e-03 -1.224228963255882263e-01 2.322848439216613770e-01
8.834482170641422272e-03 6.259272098541259766e-01 1.151654869318008423e-02
-1.521574985235929489e-02 7.437081336975097656e-01 4.229756295680999756e-01
-1.272759959101676941e-02 6.523410677909851074e-01 3.831729888916015625e-01
-1.272759959101676941e-02 2.161351591348648071e-01 -1.463089734315872192e-01
2.044511772692203522e-02 -3.191295266151428223e-01 4.505622088909149170e-01
-1.272759959101676941e-02 3.627052009105682373e-01 3.130977153778076172e-01
-1.272759959101676941e-02 -3.898146450519561768e-01 -1.431446075439453125e-01
-1.272759959101676941e-02 -4.948334097862243652e-01 -3.588444292545318604e-01
8.834482170641422272e-03 3.666656315326690674e-01 -3.216669708490371704e-02
-1.272759959101676941e-02 2.940157651901245117e-01 -5.806107819080352783e-02
2.044511772692203522e-02 -8.112031221389770508e-01 -4.923026561737060547e-01
8.834482170641422272e-03 1.312004774808883667e-01 -3.809989392757415771e-01
-1.272759959101676941e-02 5.574789047241210938e-01 3.238929808139801025e-01
9.137995541095733643e-03 -6.732434034347534180e-01 5.162725448608398438e-01
-9.653504006564617157e-03 7.519318461418151855e-01 -5.087840557098388672e-01
8.834482170641422272e-03 2.042147517204284668e-02 -2.395590692758560181e-01
8.834482170641422272e-03 -6.526929736137390137e-01 5.369786173105239868e-02
-1.272759959101676941e-02 -4.527980089187622070e-01 -1.624675542116165161e-01
8.834482170641422272e-03 -4.648736119270324707e-01 1.412366479635238647e-01
8.834482170641422272e-03 -4.744673073291778564e-01 -3.773603141307830811e-01
1.681765541434288025e-02 -3.397217988967895508e-01 -5.087840557098388672e-01
-1.521574985235929489e-02 1.209481731057167053e-01 -4.120467603206634521e-01
-1.521574985235929489e-02 4.866992235183715820e-01 -4.455475807189941406e-01
8.834482170641422272e-03 1.467492878437042236e-01 1.636821031570434570e-01
-1.521574985235929489e-02 1.211119443178176880e-02 -4.309940934181213379e-01
2.044511772692203522e-02 -3.708921968936920166e-01 -3.853489756584167480e-01
-1.272759959101676941e-02 -5.951595306396484375e-01 -1.762827634811401367e-01
8.834482170641422272e-03 -2.734983563423156738e-01 -1.344844549894332886e-01
-1.272759959101676941e-02 -3.665391802787780762e-01 -2.379211038351058960e-01
8.834482170641422272e-03 4.207337796688079834e-01 -1.240267511457204819e-02
-1.272759959101676941e-02 7.350987792015075684e-01 3.453560471534729004e-01
2.044511772692203522e-02 8.005759716033935547e-01 -1.802880167961120605e-01
-1.272759959101676941e-02 6.007318496704101562e-01 2.956050038337707520e-01
-1.521574985235929489e-02 -7.480941414833068848e-01 -3.763221204280853271e-01
8.834482170641422272e-03 -3.259803652763366699e-01 3.514209389686584473e-02
-1.521574985235929489e-02 2.697473578155040741e-02 -3.374421298503875732e-01
2.044511772692203522e-02 -7.744731903076171875e-01 -1.688520759344100952e-01
8.834482170641422272e-03 -3.910869657993316650e-01 -2.925043404102325439e-01
-1.272759959101676941e-02 -6.279047578573226929e-02 -1.721230447292327881e-01
3.768968861550092697e-03 -6.291325688362121582e-01 -5.087840557098388672e-01
8.834482170641422272e-03 2.474490106105804443e-01 -2.891247868537902832e-01
2.044511772692203522e-02 -2.090961635112762451e-01 -4.537155628204345703e-01
2.044511772692203522e-02 2.494536191225051880e-01 4.258690178394317627e-01
1.734940148890018463e-02 -5.722956061363220215e-01 -5.087840557098388672e-01
8.834482170641422272e-03 -4.910104870796203613e-01 9.325051307678222656e-02
-1.272759959101676941e-02 5.202906727790832520e-01 9.839648753404617310e-02
-1.521574985235929489e-02 8.494930863380432129e-01 -2.453836500644683838e-01
2.044511772692203522e-02 -2.565705776214599609e-01 -4.119272232055664062e-01
8.834482170641422272e-03 -4.360326826572418213e-01 6.205193698406219482e-02
-1.272759959101676941e-02 2.842098176479339600e-01 -1.877964138984680176e-01
2.044511772692203522e-02 -7.190569639205932617e-01 -1.230126321315765381e-01
2.044511772692203522e-02 3.802606165409088135e-01 -4.876856207847595215e-01
8.834482170641422272e-03 6.626326590776443481e-02 3.544617444276809692e-02
8.834482170641422272e-03 -6.515109539031982422e-02 2.952293753623962402e-01
-1.521574985235929489e-02 -1.792050898075103760e-01 -4.235753715038299561e-01
-1.272759959101676941e-02 8.566133677959442139e-02 -1.813521236181259155e-01
2.044511772692203522e-02 -7.182807922363281250e-01 3.991034030914306641e-01
8.834482170641422272e-03 7.521793246269226074e-02 1.351510286331176758e-01
-1.272759959101676941e-02 -4.306096136569976807e-01 -3.516957163810729980e-01
-1.521574985235929489e-02 8.161506652832031250e-01 -9.164378046989440918e-02
-1.272759959101676941e-02 -6.646001935005187988e-01 1.560053527355194092e-01
-1.521574985235929489e-02 4.748487770557403564e-01 -5.040255784988403320e-01
8.834482170641422272e-03 5.966897606849670410e-01 -6.058071181178092957e-02
-1.000074204057455063e-03 -3.639965653419494629e-01 -3.558165729045867920e-01
-1.521574985235929489e-02 -7.170144915580749512e-01 4.239709675312042236e-01
-1.272759959101676941e-02 -5.693175792694091797e-01 2.446563541889190674e-01
-1.272759959101676941e-02 -2.712456285953521729e-01 2.203278094530105591e-01
2.044511772692203522e-02 3.486807644367218018e-01 4.650369584560394287e-01
-1.272759959101676941e-02 -3.009350784122943878e-02 -2.791544497013092041e-01
8.834482170641422272e-03 -4.120817482471466064e-01 -1.816659569740295410e-01
-1.272759959101676941e-02 9.706161171197891235e-02 -2.108386754989624023e-01
-1.272759959101676941e-02 7.063345313072204590e-01 2.695518434047698975e-01
-1.272759959101676941e-02 -3.861500918865203857e-01 1.704203337430953979e-01
-1.272759959101676941e-02 3.788498044013977051e-01 1.212322190403938293e-01
-1.035960763692855835e-02 7.657042145729064941e-01 1.011957004666328430e-01
2.044511772692203522e-02 5.814995765686035156e-01 4.722833335399627686e-01
-1.263215020298957825e-02 2.604641616344451904e-01 -5.087840557098388672e-01
2.044511772692203522e-02 6.004757881164550781e-01 -4.812921285629272461e-01
8.834482170641422272e-03 6.055291891098022461e-01 2.619497776031494141e-01
-1.521574985235929489e-02 8.551672101020812988e-01 3.451199233531951904e-01
-1.521574985235929489e-02 2.040235698223114014e-02 4.649931192398071289e-01
-1.272759959101676941e-02 2.766815125942230225e-01 6.450053304433822632e-02
1.112368330359458923e-02 -2.131492793560028076e-01 4.171171784400939941e-01
8.834482170641422272e-03 6.797825545072555542e-02 2.718762755393981934e-01
-1.272759959101676941e-02 -5.038334131240844727e-01 3.825761973857879639e-01
-1.272759959101676941e-02 -6.144127249717712402e-01 -2.231334745883941650e-01
-1.272759959101676941e-02 -2.213002741336822510e-01 -2.946405112743377686e-01
2.044511772692203522e-02 7.719761729240417480e-01 1.902932524681091309e-01
8.834482170641422272e-03 1.189266070723533630e-01 -2.979780733585357666e-02
-1.521574985235929489e-02 -7.264157757163047791e-03 -5.063180923461914062e-01
8.834482170641422272e-03 3.977532982826232910e-01 2.327800095081329346e-01
-1.272759959101676941e-02 -1.029375419020652771e-01 5.311002209782600403e-02
8.834482170641422272e-03 -2.549027204513549805e-01 3.868485093116760254e-01
2.044511772692203522e-02 -9.462511539459228516e-02 4.564485549926757812e-01
8.834482170641422272e-03 3.520952165126800537e-01 1.797091811895370483e-01
-1.272759959101676941e-02 -5.338250994682312012e-01 3.025913238525390625e-01
-4.653459414839744568e-03 6.817678809165954590e-01 5.162725448608398438e-01
8.834482170641422272e-03 -4.067523479461669922e-01 2.039211392402648926e-01
-1.272759959101676941e-02 6.394245624542236328e-01 1.259747743606567383e-01
-1.272759959101676941e-02 -6.031959652900695801e-01 -1.331991851329803467e-01
-1.272759959101676941e-02 -2.481595277786254883e-01 -2.705202102661132812e-01
1.542756706476211548e-02 8.648595809936523438e-01 4.289685785770416260e-01
2.044511772692203522e-02 -1.828287541866302490e-01 5.097026824951171875e-01
1.686707511544227600e-02 4.279964417219161987e-02 -3.994012773036956787e-01
2.044511772692203522e-02 4.602584540843963623e-01 4.182619452476501465e-01
8.834482170641422272e-03 3.740922808647155762e-01 -3.429707884788513184e-01
-1.272759959101676941e-02 -2.112199924886226654e-02 -2.396417707204818726e-01
8.834482170641422272e-03 4.403456747531890869e-01 3.571407198905944824e-01
-1.272759959101676941e-02 -3.641758859157562256e-01 8.910445868968963623e-02
-1.272759959101676941e-02 -1.664928495883941650e-01 -2.966511249542236328e-01
-1.272759959101676941e-02 -1.767680644989013672e-01 2.965854108333587646e-01
-1.272759959101676941e-02 -4.143340885639190674e-02 9.374370425939559937e-02
-1.521574985235929489e-02 7.269995212554931641e-01 -4.363115429878234863e-01
8.834482170641422272e-03 1.715251803398132324e-01 2.356914803385734558e-02
-1.272759959101676941e-02 6.858787536621093750e-01 -3.027187883853912354e-01
-1.521574985235929489e-02 -6.730610728263854980e-01 3.658437132835388184e-01
-1.272759959101676941e-02 7.803009450435638428e-02 -6.470643728971481323e-02
-1.521574985235929489e-02 -1.945825517177581787e-01 -5.082151293754577637e-01
-1.272759959101676941e-02 6.475307345390319824e-01 -9.160741418600082397e-02
8.834482170641422272e-03 -6.070026382803916931e-02 2.260358184576034546e-01
8.834482170641422272e-03 5.992872118949890137e-01 1.934496462345123291e-01
-1.272759959101676941e-02 -3.546399772167205811e-01 -5.843689665198326111e-02
2.044511772692203522e-02 3.937091827392578125e-01 5.030212998390197754e-01
-1.521574985235929489e-02 7.807568907737731934e-01 1.855875551700592041e-01
-1.272759959101676941e-02 5.584632754325866699e-01 -2.024814039468765259e-01
8.834482170641422272e-03 -3.703162968158721924e-01 1.657974906265735626e-02
2.044511772692203522e-02 -2.911006212234497070e-01 -4.099684357643127441e-01
1.650321111083030701e-02 -8.434754610061645508e-01 5.162725448608398438e-01
2.044511772692203522e-02 -6.701099276542663574e-01 2.075179219245910645e-01
-1.389859430491924286e-02 7.657042145729064941e-01 3.996284902095794678e-01
-1.521574985235929489e-02 -7.785043120384216309e-01 -1.907017230987548828e-01
-1.272759959101676941e-02 1.355973184108734131e-01 3.471404910087585449e-01
2.044511772692203522e-02 -4.587142467498779297e-01 4.410163164138793945e-01
-1.272759959101676941e-02 1.915037184953689575e-01 -3.022724390029907227e-01
8.834482170641422272e-03 -2.711748778820037842e-01 -2.528591454029083252e-01
8.834482170641422272e-03 -6.410946249961853027e-01 -4.047097563743591309e-01
8.834482170641422272e-03 1.930928677320480347e-01 1.127215102314949036e-01
2.044511772692203522e-02 -3.355531692504882812e-01 5.148847103118896484e-01
2.044511772692203522e-02 -9.252844378352165222e-03 -3.985354602336883545e-01
-1.272759959101676941e-02 5.565851926803588867e-01 -3.215085342526435852e-02
8.834482170641422272e-03 -3.575781583786010742e-01 1.484680622816085815e-01
8.834482170641422272e-03 5.916761755943298340e-01 -1.126666739583015442e-01
8.834482170641422272e-03 -6.214429140090942383e-01 5.593045055866241455e-02
2.044511772692203522e-02 -4.277636855840682983e-02 4.824868142604827881e-01
-1.272759959101676941e-02 -6.762579083442687988e-02 6.778043229132890701e-03
8.834482170641422272e-03 -6.258287429809570312e-01 3.048679530620574951e-01
2.044511772692203522e-02 8.538126200437545776e-02 4.217690825462341309e-01
-1.521574985235929489e-02 8.542237281799316406e-01 -4.743008613586425781e-01
8.834482170641422272e-03 7.115377485752105713e-02 2.339287996292114258e-01
8.834482170641422272e-03 2.418087273836135864e-01 -2.160325795412063599e-01
-1.272759959101676941e-02 2.342644780874252319e-01 2.360769063234329224e-01
-1.272759959101676941e-02 -2.476543635129928589e-01 1.387348622083663940e-01
1.613237522542476654e-02 -8.435690999031066895e-01 -7.414417807012796402e-03
2.044511772692203522e-02 -8.048325181007385254e-01 -3.610710799694061279e-02
8.834482170641422272e-03 -6.600399613380432129e-01 -3.293337672948837280e-02
-1.272759959101676941e-02 6.288763880729675293e-01 -3.447332978248596191e-01
-1.272759959101676941e-02 -1.271471474319696426e-02 1.566320359706878662e-01
2.044511772692203522e-02 5.023885369300842285e-01 -4.573103189468383789e-01
8.834482170641422272e-03 6.565954685211181641e-01 3.093345463275909424e-01
-1.521574985235929489e-02 -8.076720237731933594e-01 -2.492832988500595093e-01
8.834482170641422272e-03 -5.592256784439086914e-01 4.299242421984672546e-02
-1.272759959101676941e-02 -4.686782881617546082e-02 3.172942698001861572e-01
-1.976035535335540771e-03 -4.518644213676452637e-01 -4.113882184028625488e-01
-1.521574985235929489e-02 -8.080078363418579102e-01 -3.309629261493682861e-01
1.616505533456802368e-02 6.118340492248535156e-01 5.162725448608398438e-01
-1.521574985235929489e-02 7.920642495155334473e-01 -4.072962701320648193e-01
-1.272759959101676941e-02 -5.003133416175842285e-01 3.531933948397636414e-02
-1.521574985235929489e-02 2.541095018386840820e-01 -4.315012395381927490e-01
-1.272759959101676941e-02 6.933273673057556152e-01 7.154911756515502930e-02
-1.521574985235929489e-02 8.122171759605407715e-01 -1.412944197654724121e-01
-1.521574985235929489e-02 -7.593527436256408691e-01 -2.618949115276336670e-01
8.834482170641422272e-03 2.926926314830780029e-01 3.088006377220153809e-02
8.834482170641422272e-03 4.564733803272247314e-01 1.903450638055801392e-01
8.834482170641422272e-03 -5.464064329862594604e-02 -3.732293471693992615e-02
-1.521574985235929489e-02 1.331562697887420654e-01 4.398416280746459961e-01
8.834482170641422272e-03 1.689974814653396606e-01 -3.339818418025970459e-01
-1.521574985235929489e-02 -6.030226349830627441e-01 -4.972026050090789795e-01
8.834482170641422272e-03 -1.569449603557586670e-01 3.789236247539520264e-01
2.044511772692203522e-02 -2.882291674613952637e-01 4.552539288997650146e-01
-1.521574985235929489e-02 3.940499126911163330e-01 -4.930260181427001953e-01
8.834482170641422272e-03 -3.308813273906707764e-01 -2.776001691818237305e-01
-1.272759959101676941e-02 -3.523065447807312012e-01 3.038377463817596436e-01
-1.272759959101676941e-02 7.248594760894775391e-01 -1.517200767993927002e-01
-1.272759959101676941e-02 7.084168791770935059e-01 -3.524509370326995850e-01
2.044511772692203522e-02 -8.383224010467529297e-01 -3.975769877433776855e-01
-8.252156898379325867e-03 4.079936146736145020e-01 5.162725448608398438e-01
-1.272759959101676941e-02 4.883102774620056152e-01 3.298690021038055420e-01
8.834482170641422272e-03 -3.613323569297790527e-01 -3.187767565250396729e-01
8.834482170641422272e-03 -4.846787750720977783e-01 -4.099136292934417725e-01
1.298056449741125107e-02 3.313189372420310974e-02 -4.319167137145996094e-01
-1.272759959101676941e-02 6.192587018013000488e-01 -2.262340784072875977e-01
8.834482170641422272e-03 5.271454453468322754e-01 -9.893019497394561768e-02
8.834482170641422272e-03 -1.881531774997711182e-01 3.412800431251525879e-01
-1.292796246707439423e-02 -5.183210968971252441e-01 5.162725448608398438e-01
-1.521574985235929489e-02 -4.466605782508850098e-01 4.237856566905975342e-01
8.834482170641422272e-03 -3.844174444675445557e-01 2.724232375621795654e-01
-1.272759959101676941e-02 4.269409775733947754e-01 -2.957295179367065430e-01
2.044511772692203522e-02 -3.765962421894073486e-01 4.664617180824279785e-01
-1.272759959101676941e-02 7.155675888061523438e-01 -1.827039755880832672e-02
8.834482170641422272e-03 -1.277074664831161499e-01 3.677556812763214111e-01
-1.272759959101676941e-02 1.943612098693847656e-01 3.508169651031494141e-01
-1.521574985235929489e-02 3.155037760734558105e-01 -3.424795866012573242e-01
-1.272759959101676941e-02 -5.598514080047607422e-01 -3.171168565750122070e-01
8.834482170641422272e-03 -6.435605287551879883e-01 3.506824672222137451e-01
2.044511772692203522e-02 3.822373449802398682e-01 4.472553431987762451e-01
-1.521574985235929489e-02 -2.240760773420333862e-01 4.619632661342620850e-01
-1.521574985235929489e-02 -8.142837882041931152e-01 1.807573139667510986e-01
-1.521574985235929489e-02 -8.197606205940246582e-01 2.456526905298233032e-01
1.852288655936717987e-02 6.965066790580749512e-01 4.171171784400939941e-01
-1.521574985235929489e-02 -2.720516622066497803e-01 -3.617786169052124023e-01
-1.272759959101676941e-02 -4.562154412269592285e-01 2.057633697986602783e-01
-8.801835589110851288e-03 -8.435690999031066895e-01 -1.849349290132522583e-01
-1.272759959101676941e-02 -5.499846339225769043e-01 4.073371291160583496e-01
-1.272759959101676941e-02 -4.631091058254241943e-01 -1.643215864896774292e-02
8.834482170641422272e-03 2.394543886184692383e-01 9.621112793684005737e-02
8.834482170641422272e-03 -3.968517184257507324e-01 3.219959735870361328e-01
8.834482170641422272e-03 -3.043219745159149170e-01 -2.940038442611694336e-01
8.834482170641422272e-03 3.021618127822875977e-01 2.579275667667388916e-01
-8.982172235846519470e-03 -8.435690999031066895e-01 -3.450391590595245361e-01
8.834482170641422272e-03 -2.623453736305236816e-01 -2.148997485637664795e-01
8.834482170641422272e-03 5.927930474281311035e-01 3.248773813247680664e-01
-1.521574985235929489e-02 6.071941256523132324e-01 4.669350087642669678e-01
-1.521574985235929489e-02 -2.893510460853576660e-01 -4.214591681957244873e-01
-1.521574985235929489e-02 7.720070481300354004e-01 -2.146197855472564697e-01
-1.112080737948417664e-02 8.648595809936523438e-01 2.717588469386100769e-02
2.044511772692203522e-02 8.425605893135070801e-01 4.086632728576660156e-01
8.834482170641422272e-03 5.873351097106933594e-01 1.131150647997856140e-01
8.834482170641422272e-03 -6.102021932601928711e-01 -3.289672732353210449e-01
2.044511772692203522e-02 -8.017129898071289062e-01 1.606213748455047607e-01
-1.153448689728975296e-02 7.657042145729064941e-01 3.102770745754241943e-01
8.834482170641422272e-03 -3.493464291095733643e-01 3.469701409339904785e-01
-1.521574985235929489e-02 -8.024542331695556641e-01 3.508269488811492920e-01
8.834482170641422272e-03 -5.309366583824157715e-01 -1.853960752487182617e-02
2.044511772692203522e-02 8.149255812168121338e-02 4.662006795406341553e-01
-1.272759959101676941e-02 2.016792893409729004e-01 -3.475053701549768448e-03
8.834482170641422272e-03 4.072384238243103027e-01 3.136805593967437744e-01
-1.521574985235929489e-02 -7.622790336608886719e-01 2.814759612083435059e-01
-1.521574985235929489e-02 -7.488633394241333008e-01 -5.764121934771537781e-02
-1.272759959101676941e-02 -5.416911840438842773e-01 3.729446232318878174e-01
8.834482170641422272e-03 2.106821984052658081e-01 2.323535978794097900e-01
-1.272759959101676941e-02 7.143610119819641113e-01 -2.816353440284729004e-01
-1.272759959101676941e-02 2.304385453462600708e-01 -2.665916681289672852e-01
-1.521574985235929489e-02 7.907242178916931152e-01 -3.535329401493072510e-01
8.834482170641422272e-03 -1.239612400531768799e-01 -2.651947736740112305e-01
8.834482170641422272e-03 -3.048231303691864014e-01 -1.240896731615066528e-01
9.121994487941265106e-03 5.293772816658020020e-01 5.162725448608398438e-01
8.834482170641422272e-03 1.751199811697006226e-01 1.892032623291015625e-01
-1.521574985235929489e-02 5.589504837989807129e-01 4.197963178157806396e-01
8.834482170641422272e-03 -2.203208804130554199e-01 1.625751703977584839e-01
-1.521574985235929489e-02 -7.527211904525756836e-01 -4.599297046661376953e-01
8.834482170641422272e-03 -5.489883422851562500e-01 -1.337641030550003052e-01
-1.272759959101676941e-02 -3.276727721095085144e-02 3.527618348598480225e-01
-1.272759959101676941e-02 -1.958777904510498047e-01 -1.326631605625152588e-01
-1.272759959101676941e-02 -4.637646973133087158e-01 3.098546266555786133e-01
8.834482170641422272e-03 -6.399717926979064941e-01 9.089586883783340454e-02
-1.272759959101676941e-02 4.922029972076416016e-01 1.738487184047698975e-01
8.834482170641422272e-03 -3.507452905178070068e-01 -2.369415387511253357e-02
-1.521574985235929489e-02 1.708058267831802368e-01 -5.018206834793090820e-01
8.834482170641422272e-03 5.620600581169128418e-01 -4.054869115352630615e-01
-1.272759959101676941e-02 2.049911171197891235e-01 -2.216220349073410034e-01
2.044511772692203522e-02 -3.940191566944122314e-01 -4.766731262207031250e-01
2.044511772692203522e-02 2.378164380788803101e-01 4.922628700733184814e-01
-1.521574985235929489e-02 4.441556930541992188e-01 5.144861340522766113e-01
-1.521574985235929489e-02 1.032535433769226074e-01 4.803366959095001221e-01
8.834482170641422272e-03 -4.117379784584045410e-01 -7.928602397441864014e-02
-1.521574985235929489e-02 2.936590909957885742e-01 4.639430046081542969e-01
8.834482170641422272e-03 6.531401276588439941e-01 -1.299957931041717529e-02
8.834482170641422272e-03 4.323739707469940186e-01 -2.755228281021118164e-01
-1.272759959101676941e-02 -1.087780669331550598e-01 2.522026002407073975e-01
-1.272759959101676941e-02 4.489081799983978271e-01 -1.001616641879081726e-01
-1.272759959101676941e-02 1.903270483016967773e-01 2.529149949550628662e-01
2.044511772692203522e-02 -6.750916242599487305e-01 -2.349280864000320435e-01
2.044511772692203522e-02 -7.755950093269348145e-01 4.956982135772705078e-01
8.834482170641422272e-03 6.426726579666137695e-01 5.108516663312911987e-02
8.834482170641422272e-03 -4.029513299465179443e-01 1.131170615553855896e-01
-1.521574985235929489e-02 -7.031833529472351074e-01 -2.589557170867919922e-01
-1.272759959101676941e-02 5.980939790606498718e-02 -2.920380830764770508e-01
-5.827113986015319824e-03 4.372350871562957764e-01 -4.113882184028625488e-01
2.044511772692203522e-02 4.667080938816070557e-02 -5.000541806221008301e-01
2.044511772692203522e-02 -8.249027132987976074e-01 9.598077088594436646e-02
8.834482170641422272e-03 -4.673475027084350586e-01 -1.769911497831344604e-01
8.834482170641422272e-03 1.561566889286041260e-01 2.167001515626907349e-01
-1.272759959101676941e-02 -3.904967382550239563e-02 -1.206313893198966980e-01
-1.272759959101676941e-02 6.125195026397705078e-01 -2.679396867752075195e-01
8.834482170641422272e-03 4.618416130542755127e-01 2.459346503019332886e-01
2.044511772692203522e-02 -6.926351189613342285e-01 -3.016048967838287354e-01
2.044511772692203522e-02 -6.441922187805175781e-01 5.025918483734130859e-01
8.834482170641422272e-03 -1.755455434322357178e-01 -2.557305991649627686e-01
8.834482170641422272e-03 6.922613382339477539e-01 -6.688363105058670044e-02
8.834482170641422272e-03 -4.241513609886169434e-01 3.429220318794250488e-01
8.834482170641422272e-03 1.935262680053710938e-01 7.068628817796707153e-02
-1.272759959101676941e-02 2.734384238719940186e-01 -7.864462211728096008e-03
8.834482170641422272e-03 8.392681181430816650e-02 8.550619333982467651e-02
-1.272759959101676941e-02 -2.889425456523895264e-01 3.637683391571044922e-01
-1.521574985235929489e-02 -3.823321461677551270e-01 -3.743324577808380127e-01
-1.272759959101676941e-02 4.782901406288146973e-01 4.189715161919593811e-02
-1.521574985235929489e-02 -1.750683039426803589e-01 4.699200391769409180e-01
8.834482170641422272e-03 -8.636638522148132324e-02 -1.220950111746788025e-01
8.834482170641422272e-03 6.377019286155700684e-01 1.775222271680831909e-01
7.550014648586511612e-03 -8.435690999031066895e-01 -1.247412860393524170e-01
2.044511772692203522e-02 7.842121720314025879e-01 7.328074425458908081e-02
-1.272759959101676941e-02 3.329077363014221191e-01 -6.605976074934005737e-02
2.044511772692203522e-02 -5.865541696548461914e-01 4.642149806022644043e-01
-1.521574985235929489e-02 7.022804617881774902e-01 4.978483021259307861e-01
2.592150121927261353e-04 2.149624526500701904e-01 -4.113882184028625488e-01
-1.521574985235929489e-02 -8.342413902282714844e-01 -5.047837495803833008e-01
-1.272759959101676941e-02 5.869883894920349121e-01 -3.782181441783905029e-01
2.044511772692203522e-02 -5.274485349655151367e-01 4.314484596252441406e-01
-1.521574985235929489e-02 -8.233584165573120117e-01 2.798519432544708252e-01
8.834482170641422272e-03 7.024761289358139038e-02 -2.051585763692855835e-01
8.834482170641422272e-03 -4.911729097366333008e-01 -1.066577732563018799e-01
8.834482170641422272e-03 -3.901713192462921143e-01 1.506579965353012085e-01
8.834482170641422272e-03 -5.865342617034912109e-01 -5.294010788202285767e-02
-1.521574985235929489e-02 7.249141931533813477e-01 -4.985396862030029297e-01
8.834482170641422272e-03 7.621433138847351074e-01 -6.322707980871200562e-02
-1.272759959101676941e-02 -5.393477678298950195e-01 -3.772136941552162170e-02
8.834482170641422272e-03 6.032296419143676758e-01 5.271098762750625610e-02
8.834482170641422272e-03 -3.977730125188827515e-02 2.524197995662689209e-01
-1.521574985235929489e-02 -7.976190447807312012e-01 -4.132672846317291260e-01
-1.272759959101676941e-02 3.750358223915100098e-01 6.943827867507934570e-02
8.834482170641422272e-03 7.266568541526794434e-01 2.602739334106445312e-01
8.834482170641422272e-03 -5.127326250076293945e-01 -2.880786359310150146e-01
-1.521574985235929489e-02 3.362813591957092285e-01 4.931027591228485107e-01
8.834482170641422272e-03 6.899298429489135742e-01 -2.037416212260723114e-02
8.834482170641422272e-03 5.130065083503723145e-01 7.995311170816421509e-02
-1.272759959101676941e-02 -9.844406694173812866e-02 1.741675585508346558e-01
-1.521574985235929489e-02 8.149073123931884766e-01 4.704958796501159668e-01
2.044511772692203522e-02 4.425964057445526123e-01 4.898825883865356445e-01
-1.272759959101676941e-02 -4.875362813472747803e-01 -2.576096653938293457e-01
8.834482170641422272e-03 3.228367865085601807e-01 -4.687704611569643021e-03
8.834482170641422272e-03 5.354858040809631348e-01 -2.237151749432086945e-02
-1.272759959101676941e-02 2.775821983814239502e-01 -9.177779406309127808e-02
-1.521574985235929489e-02 -7.072394490242004395e-01 -1.303785592317581177e-01
-1.076840423047542572e-02 -6.689432263374328613e-01 2.538117170333862305e-01
-1.272759959101676941e-02 -1.223687268793582916e-02 1.952709555625915527e-01
8.834482170641422272e-03 2.088638693094253540e-01 1.373887956142425537e-01
-1.272759959101676941e-02 -5.383474752306938171e-03 -1.326302736997604370e-01
8.834482170641422272e-03 -6.132978200912475586e-01 2.800503559410572052e-02
8.834482170641422272e-03 -2.587645351886749268e-01 8.195823431015014648e-02
-1.272759959101676941e-02 1.495669186115264893e-01 3.100150227546691895e-01
-1.272759959101676941e-02 5.460628867149353027e-01 -8.091583102941513062e-02
8.834482170641422272e-03 1.521892994642257690e-01 5.037437751889228821e-02
8.834482170641422272e-03 1.787117719650268555e-01 -1.086833253502845764e-01
-1.272759959101676941e-02 4.266809225082397461e-01 -1.522461324930191040e-01
-1.521574985235929489e-02 1.298932731151580811e-01 -4.441387653350830078e-01
-1.272759959101676941e-02 7.385669946670532227e-01 3.741601407527923584e-01
-1.521574985235929489e-02 2.598832845687866211e-01 -3.714500665664672852e-01
2.044511772692203522e-02 -6.733460426330566406e-01 4.286866188049316406e-01
8.834482170641422272e-03 3.235714137554168701e-02 -3.133796155452728271e-01
-1.272759959101676941e-02 4.732247889041900635e-01 2.840893566608428955e-01
7.081327959895133972e-03 -6.689432263374328613e-01 1.047956198453903198e-02
-1.272759959101676941e-02 3.389176726341247559e-01 3.580772876739501953e-01
-1.272759959101676941e-02 7.653814554214477539e-01 -1.558279693126678467e-01
2.044511772692203522e-02 -6.978519558906555176e-01 7.200971990823745728e-02
-1.272759959101676941e-02 3.467349112033843994e-01 -1.535174697637557983e-01
-1.272759959101676941e-02 4.653277993202209473e-01 -2.186947911977767944e-01
8.834482170641422272e-03 -5.306039452552795410e-01 2.022901475429534912e-01
8.834482170641422272e-03 1.334711313247680664e-01 -1.817855238914489746e-01
8.834482170641422272e-03 5.579193234443664551e-01 7.700973749160766602e-02
-1.272759959101676941e-02 4.955357313156127930e-01 7.173652201890945435e-02
2.044511772692203522e-02 -7.831253409385681152e-01 4.286696910858154297e-01
8.834482170641422272e-03 -2.257668673992156982e-01 -1.696889996528625488e-01
-1.272759959101676941e-02 7.207106351852416992e-01 -3.181819319725036621e-01
-1.521574985235929489e-02 3.632162809371948242e-01 -4.540562927722930908e-01
-1.521574985235929489e-02 -6.996473073959350586e-01 4.520975649356842041e-01
2.044511772692203522e-02 -6.769617795944213867e-01 4.703733623027801514e-01
1.556225586682558060e-03 2.929676175117492676e-01 -3.378556072711944580e-01
8.834482170641422272e-03 4.253059625625610352e-01 1.310032904148101807e-01
-1.272759959101676941e-02 4.940511882305145264e-01 1.329969614744186401e-01
-8.286330848932266235e-03 -2.582045793533325195e-01 -4.113882184028625488e-01
8.834482170641422272e-03 -6.309489011764526367e-01 -4.334180057048797607e-02
-1.272759959101676941e-02 3.390621244907379150e-01 2.967418432235717773e-01
-1.272759959101676941e-02 3.930177092552185059e-01 -4.856031388044357300e-02
2.044511772692203522e-02 8.584312200546264648e-01 -4.916072189807891846e-01
-1.272759959101676941e-02 -9.271313995122909546e-02 -1.020258069038391113e-01
2.044511772692203522e-02 -1.414857953786849976e-01 -4.980186223983764648e-01
8.834482170641422272e-03 1.470302641391754150e-01 -4.438905045390129089e-02
-1.272759959101676941e-02 9.308613091707229614e-02 -3.440219163894653320e-01
2.044511772692203522e-02 -7.907104492187500000e-01 -4.616493880748748779e-01
-1.521574985235929489e-02 8.645407557487487793e-01 -2.181836813688278198e-01
-1.491804420948028564e-02 -6.689432263374328613e-01 -1.131738126277923584e-01
8.834482170641422272e-03 4.474654793739318848e-01 3.363712877035140991e-02
-1.272759959101676941e-02 -4.141530990600585938e-01 -3.049187064170837402e-01
8.834482170641422272e-03 1.012945473194122314e-01 1.213567554950714111e-01
-1.272759959101676941e-02 1.477575749158859253e-01 3.930546641349792480e-01
-1.272759959101676941e-02 -3.199027180671691895e-01 -2.492753416299819946e-01
-1.521574985235929489e-02 -7.618611305952072144e-02 -4.186425209045410156e-01
2.044511772692203522e-02 -6.448468565940856934e-01 -4.439365267753601074e-01
-1.272759959101676941e-02 -5.307862758636474609e-01 2.601513862609863281e-01
8.834482170641422272e-03 2.501151859760284424e-01 3.458960950374603271e-01
-1.521574985235929489e-02 8.643913269042968750e-01 -2.776728868484497070e-01
-1.521574985235929489e-02 7.956998944282531738e-01 6.909848190844058990e-03
1.692904718220233917e-02 1.442953199148178101e-01 -3.301748335361480713e-01
8.834482170641422272e-03 -2.328169345855712891e-01 -2.271586805582046509e-01
1.634270139038562775e-02 -3.523593544960021973e-01 4.171171784400939941e-01
-1.272759959101676941e-02 -3.340696096420288086e-01 -1.955349594354629517e-01
-1.521574985235929489e-02 7.794775962829589844e-01 4.250968396663665771e-01
8.834482170641422272e-03 -3.108350634574890137e-01 -3.444373905658721924e-01
8.834482170641422272e-03 6.718723177909851074e-01 -1.836845278739929199e-01
8.834482170641422272e-03 4.312640726566314697e-01 7.938271015882492065e-02
-1.272759959101676941e-02 4.399481415748596191e-01 -2.462106049060821533e-01
-1.272759959101676941e-02 -1.994207501411437988e-01 4.057709276676177979e-01
-1.272759959101676941e-02 -1.761224120855331421e-01 1.415016800165176392e-01
2.044511772692203522e-02 -8.020955920219421387e-01 -3.266956508159637451e-01
-1.272759959101676941e-02 4.346027970314025879e-01 -2.484701387584209442e-02
2.044511772692203522e-02 7.883818745613098145e-01 -3.819663822650909424e-01
-1.272759959101676941e-02 -3.547382727265357971e-02 5.976405367255210876e-02
8.834482170641422272e-03 -5.250224471092224121e-01 1.226699277758598328e-01
-1.521574985235929489e-02 -1.155112981796264648e-01 -3.357672691345214844e-01
8.834482170641422272e-03 4.674420356750488281e-01 -1.013871505856513977e-01
8.834482170641422272e-03 2.810404896736145020e-01 -3.946387767791748047e-01
2.044511772692203522e-02 7.721455097198486328e-01 -8.676412701606750488e-02
8.834482170641422272e-03 7.147735357284545898e-01 4.096318781375885010e-02
-1.272759959101676941e-02 4.210739210247993469e-02 1.732429563999176025e-01
-1.272759959101676941e-02 -1.185501366853713989e-01 -5.326232314109802246e-02
8.834482170641422272e-03 4.641780257225036621e-01 -6.059306114912033081e-02
-1.272759959101676941e-02 -5.448983907699584961e-01 -2.036859840154647827e-01
8.834482170641422272e-03 5.534268021583557129e-01 -1.429064869880676270e-01
-1.521574985235929489e-02 5.220153331756591797e-01 4.663770496845245361e-01
-1.272759959101676941e-02 -2.285546064376831055e-01 2.603307068347930908e-01
8.834482170641422272e-03 2.201563566923141479e-01 1.798038333654403687e-01
8.834482170641422272e-03 3.279410302639007568e-01 1.534547209739685059e-01
2.044511772692203522e-02 -5.223064422607421875e-01 -4.693968892097473145e-01
-1.272759959101676941e-02 5.647262930870056152e-01 1.228094175457954407e-01
8.834482170641422272e-03 7.167642116546630859e-01 1.739174723625183105e-01
-1.272759959101676941e-02 -2.194092422723770142e-01 3.101744353771209717e-01
2.044511772692203522e-02 3.195379078388214111e-01 -4.541469812393188477e-01
-1.272759959101676941e-02 1.599985659122467041e-01 -3.681621551513671875e-01
-1.272759959101676941e-02 -6.252858042716979980e-01 5.054909270256757736e-03
-1.521574985235929489e-02 -6.910589337348937988e-01 6.109904125332832336e-02
8.834482170641422272e-03 3.503874540328979492e-01 3.439024388790130615e-01
8.834482170641422272e-03 5.390925407409667969e-01 2.305721342563629150e-01
1.102240569889545441e-02 -1.352417469024658203e-01 -3.342399001121520996e-01
-1.521574985235929489e-02 -7.442213892936706543e-01 1.926127225160598755e-01
8.834482170641422272e-03 7.524858117103576660e-01 -3.163935244083404541e-01
-1.272759959101676941e-02 -3.501773774623870850e-01 -2.672292888164520264e-01
-1.272759959101676941e-02 3.515780866146087646e-01 -2.171235680580139160e-01
8.834482170641422272e-03 7.375856041908264160e-01 -2.813633382320404053e-01
8.834482170641422272e-03 -4.447236955165863037e-01 -3.164491429924964905e-02
9.677382186055183411e-03 4.471556246280670166e-01 -5.087840557098388672e-01
2.044511772692203522e-02 -9.991365671157836914e-02 -4.707150161266326904e-01
8.834482170641422272e-03 6.678211092948913574e-01 8.035991340875625610e-02
-1.272759959101676941e-02 -4.136539399623870850e-01 2.586150467395782471e-01
2.044511772692203522e-02 -4.871184378862380981e-02 -3.401910066604614258e-01
-1.521574985235929489e-02 6.420319676399230957e-01 -4.419219195842742920e-01
2.044511772692203522e-02 -7.686973810195922852e-01 6.696387380361557007e-02
-1.521574985235929489e-02 -6.394038796424865723e-01 -4.907593131065368652e-01
-1.521574985235929489e-02 -7.531286478042602539e-01 -1.061048060655593872e-01
-1.521574985235929489e-02 -6.960923671722412109e-01 3.037570416927337646e-01
8.834482170641422272e-03 -6.449136137962341309e-01 -1.420725584030151367e-01
-1.272759959101676941e-02 1.850395053625106812e-01 -1.790206879377365112e-01
8.834482170641422272e-03 -3.109167516231536865e-01 -6.867733597755432129e-02
-1.272759959101676941e-02 6.586349606513977051e-01 -2.152484655380249023e-01
-4.498330410569906235e-03 2.773201465606689453e-01 5.162725448608398438e-01
2.044511772692203522e-02 -7.400009036064147949e-01 -2.660875022411346436e-01
-1.217005029320716858e-02 -5.914741158485412598e-01 -4.113882184028625488e-01
2.044511772692203522e-02 -7.399879693984985352e-01 -1.746049225330352783e-01
-1.272759959101676941e-02 6.105368137359619141e-01 4.157572090625762939e-01
-1.272759959101676941e-02 -1.804803907871246338e-01 6.161036342382431030e-02
9.914948605000972748e-03 8.648595809936523438e-01 4.889191389083862305e-01
8.834482170641422272e-03 4.000339210033416748e-01 2.760200202465057373e-01
8.834482170641422272e-03 -8.713734149932861328e-02 -7.915191352367401123e-02
-1.272759959101676941e-02 -5.361879989504814148e-02 -2.489933818578720093e-01
-1.272759959101676941e-02 -4.766941368579864502e-01 -3.403085768222808838e-01
-1.521574985235929489e-02 -7.546032667160034180e-01 -1.541611105203628540e-01
-1.272759959101676941e-02 7.217707633972167969e-01 -1.986365467309951782e-01
8.834482170641422272e-03 6.994698047637939453e-01 1.173277385532855988e-02
8.834482170641422272e-03 -6.139440461993217468e-02 -1.506500095129013062e-01
-1.272759959101676941e-02 6.138002127408981323e-02 -1.208954229950904846e-01
8.834482170641422272e-03 4.286078512668609619e-01 1.894015371799468994e-01
8.834482170641422272e-03 -1.184255927801132202e-01 1.219662604853510857e-03
2.044511772692203522e-02 7.325262427330017090e-01 4.858504235744476318e-01
-1.272759959101676941e-02 -2.467855662107467651e-01 3.310377299785614014e-01
-1.521574985235929489e-02 -6.907042264938354492e-01 2.488281577825546265e-02
8.834482170641422272e-03 -6.621023416519165039e-01 2.740303575992584229e-01
2.044511772692203522e-02 1.621994823217391968e-01 4.846428632736206055e-01
-1.521574985235929489e-02 -7.310109734535217285e-01 3.430116772651672363e-01
-1.272759959101676941e-02 -5.902286767959594727e-01 -3.713623583316802979e-01
8.834482170641422272e-03 -4.567381367087364197e-02 1.635238528251647949e-02
8.834482170641422272e-03 1.823424100875854492e-01 3.314153254032135010e-01
-1.272759959101676941e-02 -4.827339053153991699e-01 1.363137513399124146e-01
2.044511772692203522e-02 -4.019290804862976074e-01 -3.825791180133819580e-01
8.834482170641422272e-03 -1.221066806465387344e-02 -2.852648496627807617e-02
8.834482170641422272e-03 -6.046198010444641113e-01 1.452189981937408447e-01
-1.272759959101676941e-02 5.378192067146301270e-01 3.002529144287109375e-01
-1.521574985235929489e-02 3.537989258766174316e-01 -3.600360453128814697e-01
8.834482170641422272e-03 -5.768817663192749023e-01 -2.595983743667602539e-01
-1.272759959101676941e-02 -7.314280420541763306e-02 3.978938758373260498e-01
-1.272759959101676941e-02 3.443974852561950684e-01 -8.906232193112373352e-03
8.834482170641422272e-03 -1.732688993215560913e-01 -3.446504101157188416e-02
8.834482170641422272e-03 6.463271975517272949e-01 2.450190186500549316e-01
-1.521574985235929489e-02 -7.121363878250122070e-01 2.397055476903915405e-01
9.620241820812225342e-03 -8.435690999031066895e-01 1.746278554201126099e-01
-1.521574985235929489e-02 7.903326153755187988e-01 -4.375089704990386963e-02
-1.272759959101676941e-02 1.486293971538543701e-01 2.710722386837005615e-01
-1.521574985235929489e-02 2.252067923545837402e-01 -4.546222090721130371e-01
8.834482170641422272e-03 -5.547242164611816406e-01 -2.239245623350143433e-01
8.834482170641422272e-03 4.948382973670959473e-01 -2.620353996753692627e-01
8.834482170641422272e-03 5.200136899948120117e-01 2.069840393960475922e-02
-1.272759959101676941e-02 5.255268141627311707e-02 -3.265141323208808899e-02
2.044511772692203522e-02 -7.107245922088623047e-01 1.400231122970581055e-01
8.834482170641422272e-03 -2.667272388935089111e-01 3.272257149219512939e-01
8.834482170641422272e-03 8.461866527795791626e-02 3.875399529933929443e-01
8.834482170641422272e-03 5.560870766639709473e-01 -3.722172379493713379e-01
2.044511772692203522e-02 -7.909336090087890625e-01 3.133238554000854492e-01
2.044511772692203522e-02 7.921260595321655273e-01 4.313648045063018799e-01
2.044511772692203522e-02 -7.167613506317138672e-01 3.502799570560455322e-01
-1.272759959101676941e-02 3.106286823749542236e-01 3.463264703750610352e-01
-1.521574985235929489e-02 5.949820280075073242e-01 -4.406356513500213623e-01
-2.291365992277860641e-03 1.695345193147659302e-01 -4.113882184028625488e-01
-1.272759959101676941e-02 1.344415545463562012e-01 1.477556675672531128e-01
8.834482170641422272e-03 5.639660954475402832e-01 -3.397416472434997559e-01
8.834482170641422272e-03 -1.495541334152221680e-01 1.668406650424003601e-02
-1.272759959101676941e-02 -4.959164559841156006e-01 2.922782301902770996e-01
-4.910594783723354340e-03 -8.435690999031066895e-01 4.938739240169525146e-01
-1.272759959101676941e-02 3.086369931697845459e-01 9.273131936788558960e-02
-1.272759959101676941e-02 5.294025316834449768e-02 2.408284246921539307e-01
-1.272759959101676941e-02 -1.279854178428649902e-01 -3.895136415958404541e-01
2.044511772692203522e-02 2.746091485023498535e-01 4.459342062473297119e-01
-1.272759959101676941e-02 -7.726743817329406738e-02 8.552800863981246948e-02
-1.272759959101676941e-02 2.154676020145416260e-01 -1.188479438424110413e-01
2.044511772692203522e-02 -7.633400559425354004e-01 3.005378544330596924e-01
-1.272759959101676941e-02 -4.288321435451507568e-01 4.360086750239133835e-03
-1.272759959101676941e-02 6.419363021850585938e-01 8.587752282619476318e-02
-1.272759959101676941e-02 -4.960748851299285889e-01 -3.874253034591674805e-01
-1.272759959101676941e-02 -5.595942735671997070e-01 1.813421696424484253e-01
-1.272759959101676941e-02 5.786122083663940430e-01 -2.813075482845306396e-01
8.834482170641422272e-03 5.011351108551025391e-01 4.006577134132385254e-01
8.834482170641422272e-03 1.774469763040542603e-02 3.959370553493499756e-01
-1.272759959101676941e-02 7.055345177650451660e-01 -3.807110190391540527e-01
8.834482170641422272e-03 -3.152145817875862122e-02 1.627345979213714600e-01
-1.272759959101676941e-02 6.449342966079711914e-01 3.256256282329559326e-01
-1.272759959101676941e-02 4.704968035221099854e-01 2.231474518775939941e-01
8.834482170641422272e-03 2.189428210258483887e-01 -6.285215914249420166e-02
2.044511772692203522e-02 8.225840330123901367e-01 -4.108631014823913574e-01
-1.521574985235929489e-02 -7.038449048995971680e-01 1.415285766124725342e-01
-1.501638256013393402e-02 -8.435690999031066895e-01 4.959464818239212036e-02
8.834482170641422272e-03 5.853036046028137207e-01 -2.003602087497711182e-01
-1.521574985235929489e-02 -3.701309859752655029e-01 4.381578266620635986e-01
8.834482170641422272e-03 -5.595544576644897461e-01 3.234067559242248535e-01
8.834482170641422272e-03 1.911877654492855072e-02 -1.170117035508155823e-01
8.834482170641422272e-03 -6.550990939140319824e-01 3.834928274154663086e-01
-1.272759959101676941e-02 1.157981157302856445e-01 3.230500817298889160e-01
-1.521574985235929489e-02 -8.019142746925354004e-01 5.106792971491813660e-02
-1.272759959101676941e-02 -3.557907342910766602e-01 3.852981925010681152e-01
8.834482170641422272e-03 5.592195391654968262e-01 -8.200027979910373688e-03
-1.521574985235929489e-02 -7.925288081169128418e-01 4.058226943016052246e-01
2.044511772692203522e-02 -1.549004614353179932e-01 4.502314329147338867e-01
-1.272759959101676941e-02 -3.097360730171203613e-01 -2.616935037076473236e-02
8.834482170641422272e-03 4.745708405971527100e-01 -1.369972079992294312e-01
2.044511772692203522e-02 7.836870551109313965e-01 -2.714049518108367920e-01
2.044511772692203522e-02 -4.380402863025665283e-01 -4.548284709453582764e-01
8.834482170641422272e-03 2.757031321525573730e-01 8.522671461105346680e-02
2.044511772692203522e-02 9.744180738925933838e-02 -4.833316504955291748e-01
8.834482170641422272e-03 4.966944754123687744e-01 -3.832137882709503174e-01
-1.272759959101676941e-02 6.385588049888610840e-01 -2.096349559724330902e-02
