2.491243369877338409e-02 -7.010367512702941895e-01 -1.258456856012344360e-01
2.409843541681766510e-02 -5.708778500556945801e-01 -2.060855627059936523e-01
5.185715854167938232e-03 2.948792651295661926e-02 -9.135418385267257690e-02
-2.661345899105072021e-02 -6.286633610725402832e-01 -6.688760221004486084e-02
1.739287935197353363e-02 2.576054446399211884e-02 1.849422603845596313e-01
-1.217362843453884125e-02 8.982328772544860840e-01 4.879383370280265808e-02
2.967474749311804771e-03 -3.937398195266723633e-01 -2.387483119964599609e-01
-1.767634414136409760e-02 5.541269108653068542e-02 -1.857685297727584839e-01
-1.819315366446971893e-02 2.351145148277282715e-01 1.391588337719440460e-02
2.101724036037921906e-02 -4.557580649852752686e-01 1.692662388086318970e-01
2.937476150691509247e-03 2.919327020645141602e-01 -4.921802505850791931e-02
1.521662529557943344e-02 -3.060272149741649628e-02 1.501022279262542725e-01
-1.992816850543022156e-02 -7.928536534309387207e-01 1.406225413084030151e-01
-2.499474585056304932e-02 7.646498680114746094e-01 1.748713478446006775e-02
-7.228242233395576477e-03 -9.534462094306945801e-01 -1.432896703481674194e-01
-2.630908228456974030e-02 -2.898630313575267792e-02 2.258288562297821045e-01
1.662559993565082550e-02 7.868526577949523926e-01 -1.044615209102630615e-01
-8.513369597494602203e-03 -2.101399302482604980e-01 7.437786553055047989e-03
-2.237056195735931396e-02 5.461021792143583298e-03 1.280372142791748047e-01
-1.498347031883895397e-03 -6.470068097114562988e-01 -1.872200220823287964e-01
1.339735835790634155e-02 4.082744121551513672e-01 -9.532384574413299561e-02
1.785268820822238922e-02 -5.499948263168334961e-01 1.843432784080505371e-01
-1.062324736267328262e-02 6.465801596641540527e-01 2.386737465858459473e-01
1.857085153460502625e-02 -5.262696146965026855e-01 -9.979754686355590820e-02
-1.313146855682134628e-02 7.020117044448852539e-01 -1.841712892055511475e-01
1.915714144706726074e-02 -5.044521689414978027e-01 1.539446115493774414e-01
1.939623057842254639e-02 4.077269509434700012e-02 6.607069075107574463e-02
-2.668503485620021820e-02 -9.426488280296325684e-01 2.229737788438796997e-01
1.658896356821060181e-02 9.484784007072448730e-01 -4.244748130440711975e-02
-1.933169551193714142e-02 -5.118884444236755371e-01 -5.881839618086814880e-02
5.854673683643341064e-03 6.844329833984375000e-01 5.272257328033447266e-02
1.986402459442615509e-02 4.403382241725921631e-01 -2.074192613363265991e-01
1.644640974700450897e-02 -7.400864958763122559e-01 -3.599159792065620422e-02
-2.579466812312602997e-02 -2.217589318752288818e-01 2.275678664445877075e-01
1.241914182901382446e-02 -6.660360097885131836e-01 -1.967765688896179199e-01
4.529445432126522064e-03 2.578244209289550781e-01 1.948112547397613525e-01
-2.688159793615341187e-02 -8.271746039390563965e-01 1.246789917349815369e-01
-1.461581420153379440e-02 -4.197404533624649048e-02 4.281252995133399963e-02
8.215378969907760620e-03 3.581407070159912109e-01 -3.174571029376238585e-04
-1.874799840152263641e-02 -1.005076691508293152e-01 1.463893894106149673e-02
-1.626612269319593906e-03 5.536181926727294922e-01 -2.393532693386077881e-01
3.889816580340266228e-03 -8.641678690910339355e-01 1.473779091611504555e-03
-6.782260257750749588e-03 1.677315235137939453e-01 -1.865242272615432739e-01
1.800033450126647949e-02 2.933532595634460449e-01 -1.379678249359130859e-01
-2.421019598841667175e-02 -4.685201048851013184e-01 -1.558130979537963867e-01
-2.138765528798103333e-02 2.325678914785385132e-01 -1.595387011766433716e-01
1.622239500284194946e-02 5.709233880043029785e-01 -9.749101847410202026e-02
3.523217746987938881e-03 7.558010816574096680e-01 1.993244886398315430e-01
1.921394467353820801e-02 1.756129413843154907e-01 5.721743032336235046e-02
-1.371965650469064713e-02 1.733718067407608032e-01 1.066839694976806641e-01
2.162579260766506195e-02 -7.647360563278198242e-01 -1.037786975502967834e-01
-2.104025334119796753e-02 9.172601699829101562e-01 2.285052388906478882e-01
-2.131423214450478554e-03 1.917801052331924438e-01 1.437182128429412842e-01
2.558427676558494568e-02 -9.342532753944396973e-01 -1.162033081054687500e-01
1.664366759359836578e-02 9.444243907928466797e-01 -2.012868076562881470e-01
2.581817470490932465e-02 -6.344473958015441895e-01 7.456047087907791138e-02
-4.453198343981057405e-04 -8.773591518402099609e-01 1.439398378133773804e-01
8.746764622628688812e-03 -2.837851345539093018e-01 -2.408986240625381470e-01
2.392703108489513397e-02 -1.573178619146347046e-01 8.480554074048995972e-02
-1.351490989327430725e-02 3.294830322265625000e-01 1.019461229443550110e-01
2.499149739742279053e-02 3.556829392910003662e-01 -1.253215968608856201e-01
2.881332766264677048e-03 4.878413975238800049e-01 -2.427354454994201660e-01
-1.308135595172643661e-02 9.702439308166503906e-01 1.452196389436721802e-01
1.569450460374355316e-02 -1.207408308982849121e-01 -2.846356073860079050e-04
-7.864166982471942902e-03 -4.348350763320922852e-01 5.022926628589630127e-02
2.554494515061378479e-02 2.277571856975555420e-01 -2.431579492986202240e-02
-1.588702574372291565e-02 9.335241317749023438e-01 -5.496463179588317871e-02
-5.311531946063041687e-03 -5.166222453117370605e-01 2.401002943515777588e-01
2.491662651300430298e-02 8.284390568733215332e-01 -2.082338482141494751e-01
-2.665967866778373718e-02 -1.368334796279668808e-02 -7.298201322555541992e-02
-2.165659144520759583e-02 8.249041438102722168e-01 -6.338683515787124634e-02
2.009722217917442322e-02 -1.615405976772308350e-01 -1.438020076602697372e-02
9.551977738738059998e-03 -5.943784117698669434e-01 -1.899673044681549072e-01
-2.240799926221370697e-02 -2.184156775474548340e-01 3.095185570418834686e-02
-1.318048499524593353e-02 7.861328721046447754e-01 -1.841333508491516113e-01
-3.551571164280176163e-03 -1.160539090633392334e-01 -9.421635419130325317e-02
-2.268082834780216217e-02 1.733139157295227051e-01 -6.792202591896057129e-02
1.186409778892993927e-02 -6.850982308387756348e-01 2.653622766956686974e-03
1.959478855133056641e-02 -8.587831854820251465e-01 -1.011312454938888550e-01
-6.963707506656646729e-03 1.583167314529418945e-01 -5.052128061652183533e-02
4.198824055492877960e-03 -7.839390635490417480e-01 -4.476479068398475647e-02
4.315873607993125916e-03 6.204171776771545410e-01 1.949000954627990723e-01
-4.921503365039825439e-03 8.158017992973327637e-01 5.061689764261245728e-02
-1.484911236912012100e-02 -4.658297300338745117e-01 -1.879058480262756348e-01
-2.291292883455753326e-02 6.941791772842407227e-01 -6.968498975038528442e-02
6.403379142284393311e-03 3.103609681129455566e-01 1.985458284616470337e-01
-2.231845259666442871e-02 -9.211418628692626953e-01 2.062685340642929077e-01
-2.116573788225650787e-02 1.637044548988342285e-01 1.116382144391536713e-02
-2.427608333528041840e-02 -5.278768949210643768e-03 1.575212366878986359e-02
-1.884862594306468964e-02 -7.323747873306274414e-01 -8.806714415550231934e-02
-1.124291121959686279e-02 8.795370459556579590e-01 1.416158378124237061e-01
-9.395351633429527283e-03 -9.189645648002624512e-01 -8.899823576211929321e-02
2.198627032339572906e-02 -1.520752534270286560e-02 -7.447326555848121643e-03
7.059320341795682907e-03 -1.017595157027244568e-01 -4.357973113656044006e-02
9.999906644225120544e-03 4.235441088676452637e-01 4.992957785725593567e-02
-1.291134767234325409e-02 1.014265716075897217e-01 1.060640439391136169e-01
-2.213466912508010864e-02 8.351835012435913086e-01 3.226019814610481262e-02
3.296428360044956207e-03 -7.904667854309082031e-01 -1.459720432758331299e-01
4.820464178919792175e-03 -2.872052490711212158e-01 -9.571287781000137329e-02
-2.689727023243904114e-02 -5.595483779907226562e-01 2.192252278327941895e-01
-2.620695717632770538e-02 9.335061907768249512e-01 1.297712326049804688e-01
-1.356422435492277145e-02 2.342579960823059082e-01 1.065651774406433105e-01
-8.633432909846305847e-03 -2.068755477666854858e-01 5.012793838977813721e-02
-8.406773209571838379e-03 -2.462108433246612549e-01 -5.081257969141006470e-02
-2.538018114864826202e-02 -6.572441458702087402e-01 -1.751857548952102661e-01
-2.643466740846633911e-02 -9.012424945831298828e-02 2.157132625579833984e-01
1.975341513752937317e-02 -1.985119432210922241e-01 8.325121551752090454e-02
1.341931987553834915e-02 -2.128812074661254883e-01 -1.416814327239990234e-01
-2.255744114518165588e-02 -2.303631156682968140e-01 -1.700366139411926270e-01
3.052178770303726196e-03 1.726307347416877747e-02 1.444000452756881714e-01
-4.479344468563795090e-03 4.308575093746185303e-01 6.775226909667253494e-03
-2.625547349452972412e-02 7.057173252105712891e-01 2.143526226282119751e-01
2.011768706142902374e-02 9.722624421119689941e-01 1.558563262224197388e-01
-2.622053585946559906e-02 -5.072044730186462402e-01 1.172867119312286377e-01
-2.593362890183925629e-02 -5.827428027987480164e-02 -7.704731822013854980e-02
-1.899567432701587677e-02 4.714765846729278564e-01 1.056487560272216797e-01
1.963531784713268280e-02 -2.621972858905792236e-01 -1.269547790288925171e-01
3.932063933461904526e-03 4.679946005344390869e-01 -9.534500539302825928e-02
1.424290332943201065e-02 1.706475019454956055e-01 1.944309026002883911e-01
1.370942126959562302e-02 -2.411235868930816650e-01 5.754596740007400513e-02
2.498171478509902954e-02 1.540051549673080444e-01 -2.218035012483596802e-01
-1.896313019096851349e-02 -5.757414698600769043e-01 3.846311941742897034e-02
-2.279213815927505493e-02 6.701855063438415527e-01 2.337013036012649536e-01
1.202232576906681061e-02 2.690610885620117188e-01 -2.868390409275889397e-03
-2.668862976133823395e-02 2.201662510633468628e-01 2.229458242654800415e-01
7.686090189963579178e-03 -8.156074881553649902e-01 -2.413378655910491943e-01
2.383229322731494904e-02 -3.996576666831970215e-01 -3.165166825056076050e-02
-2.136429585516452789e-02 6.483817100524902344e-02 2.277226001024246216e-01
-1.420841552317142487e-02 -7.288888096809387207e-01 1.990349739789962769e-01
-2.141171321272850037e-02 -3.072637319564819336e-01 -6.279554963111877441e-02
-1.279454957693815231e-02 7.136686444282531738e-01 -5.262935534119606018e-02
-1.579837873578071594e-02 -1.735479235649108887e-01 2.405914366245269775e-01
-2.533805370330810547e-02 1.933683902025222778e-01 2.119178026914596558e-01
-1.160658313892781734e-03 -9.218440204858779907e-02 4.704384878277778625e-02
-2.537768706679344177e-02 6.967108249664306641e-01 1.317727863788604736e-01
-2.262542583048343658e-02 -7.072401046752929688e-01 2.408158220350742340e-02
2.578213624656200409e-02 6.400224566459655762e-01 7.589587569236755371e-02
1.898054592311382294e-02 1.455447077751159668e-01 1.819184571504592896e-01
1.684791781008243561e-02 9.621864557266235352e-02 -2.357464879751205444e-01
1.526823826134204865e-02 -3.732191622257232666e-01 -4.346083849668502808e-02
-2.201527543365955353e-02 2.007436901330947876e-01 -6.425294280052185059e-02
-1.202489435672760010e-02 -5.280845165252685547e-01 -1.847103536128997803e-01
1.887424150481820107e-03 4.852129220962524414e-01 5.151375010609626770e-02
1.366160344332456589e-02 -2.061198502779006958e-01 -4.469361528754234314e-02
-2.422357164323329926e-02 5.288878083229064941e-01 -8.117600530385971069e-02
1.294803246855735779e-02 8.299514651298522949e-01 1.483612209558486938e-01
2.532003261148929596e-02 -7.077412605285644531e-01 1.675781458616256714e-01
2.529197931289672852e-02 7.944405674934387207e-01 1.673655062913894653e-01
-2.148279175162315369e-02 -1.565052717924118042e-01 -6.296725571155548096e-02
1.190703478641808033e-03 4.414472579956054688e-01 -1.462495625019073486e-01
-2.560509555041790009e-02 7.271913886070251465e-01 3.442227840423583984e-02
2.588146552443504333e-02 -7.428697347640991211e-01 1.718427985906600952e-01
-4.713231697678565979e-03 7.981971502304077148e-01 -4.615699499845504761e-02
3.426364390179514885e-03 -8.418213725090026855e-01 1.952684670686721802e-01
-2.090089395642280579e-02 3.038112223148345947e-01 2.117461115121841431e-01
-5.577324889600276947e-03 -9.424191713333129883e-01 -1.866829544305801392e-01
-2.381148189306259155e-02 7.057073116302490234e-01 1.463035400956869125e-02
-1.062509510666131973e-02 -6.993137001991271973e-01 1.975505501031875610e-01
-1.277188863605260849e-02 9.693813920021057129e-01 -1.494210958480834961e-01
-2.444459125399589539e-02 5.632316470146179199e-01 1.615902036428451538e-02
1.065557822585105896e-02 -2.720333635807037354e-01 -4.660003259778022766e-02
2.100236527621746063e-02 -4.939306899905204773e-02 -1.897049881517887115e-02
-2.289605699479579926e-02 8.654193878173828125e-01 -1.674650460481643677e-01
5.963196512311697006e-03 1.018210947513580322e-01 -1.453451216220855713e-01
-2.449810132384300232e-02 -2.624298930168151855e-01 2.306974679231643677e-01
1.004863413982093334e-03 8.099349141120910645e-01 -2.390068769454956055e-01
-2.118051238358020782e-02 4.129583239555358887e-01 2.124209403991699219e-01
-2.100651152431964874e-02 2.757954895496368408e-01 -6.181713566184043884e-02
1.806063018739223480e-02 -4.844177067279815674e-01 -4.108712449669837952e-02
9.026682004332542419e-03 -4.394434764981269836e-02 5.403660982847213745e-02
-6.851171143352985382e-03 -5.726052448153495789e-02 3.019512863829731941e-03
5.580505356192588806e-03 -6.555759906768798828e-01 -1.409936100244522095e-01
2.111077867448329926e-02 -8.024331927299499512e-01 9.049473702907562256e-02
1.236393675208091736e-02 -1.495542377233505249e-01 -9.453111886978149414e-02
-2.271017804741859436e-02 4.602549076080322266e-01 -7.207587361335754395e-02
2.562790177762508392e-02 5.825952887535095215e-01 7.706785947084426880e-02
-1.578979380428791046e-02 3.717532753944396973e-01 -5.488996207714080811e-02
-1.176843605935573578e-02 8.462194800376892090e-01 1.012223735451698303e-01
2.495555952191352844e-02 -5.516429543495178223e-01 -2.220031470060348511e-01
-2.628781832754611969e-02 -2.684804797172546387e-01 2.099589444696903229e-02
-3.541402518749237061e-03 -5.603613331913948059e-02 -9.014955908060073853e-02
-1.729051023721694946e-02 5.331733822822570801e-01 -1.808629781007766724e-01
8.144002407789230347e-03 8.324890732765197754e-01 -4.313040897250175476e-02
-2.664051018655300140e-02 9.559944868087768555e-01 2.367348596453666687e-02
-2.703073993325233459e-02 -7.392110824584960938e-01 -7.016556710004806519e-02
2.361806109547615051e-02 7.751967310905456543e-01 -2.049255520105361938e-01
-7.948721759021282196e-03 -4.779961705207824707e-02 -1.474525034427642822e-01
3.245076630264520645e-03 -8.221552371978759766e-01 -9.511160850524902344e-02
-7.950608618557453156e-03 -3.053889274597167969e-01 2.438208758831024170e-01
3.791665658354759216e-03 4.999036788940429688e-01 -1.459071487188339233e-01
-2.514550229534506798e-03 -2.177887707948684692e-01 2.420429289340972900e-01
2.342529408633708954e-02 -5.582735538482666016e-01 -1.075851395726203918e-01
9.778488427400588989e-03 -7.899416685104370117e-01 3.544319421052932739e-03
1.953089796006679535e-02 -3.440164327621459961e-01 -4.247266333550214767e-03
2.233367227017879486e-02 -8.903787732124328613e-01 -2.018238902091979980e-01
-1.901573874056339264e-02 -8.327110409736633301e-01 -1.490816920995712280e-01
2.522020228207111359e-02 -1.484581232070922852e-01 -1.235845908522605896e-01
2.503332495689392090e-02 -5.627378821372985840e-01 8.158398419618606567e-02
9.787073358893394470e-03 8.914934992790222168e-01 9.564786404371261597e-02
1.857973635196685791e-02 1.363954693078994751e-01 9.379296004772186279e-02
-1.084212120622396469e-02 -6.912406086921691895e-01 -1.442569941282272339e-01
8.960795588791370392e-03 -8.471761345863342285e-01 -1.441032588481903076e-01
-2.642987482249736786e-02 -1.940885633230209351e-01 -7.472690939903259277e-02
1.693606562912464142e-02 -9.314235299825668335e-02 -9.803837537765502930e-02
2.061014063656330109e-02 -6.765848994255065918e-01 -1.127901747822761536e-01
9.194893762469291687e-03 6.621294021606445312e-01 -1.394961923360824585e-01
2.405451051890850067e-02 7.540970444679260254e-01 6.568615138530731201e-02
1.823333278298377991e-02 -6.596872955560684204e-02 -1.376643478870391846e-01
-2.948943758383393288e-03 -9.330363273620605469e-01 -4.592469334602355957e-02
-2.245351858437061310e-02 5.124480724334716797e-01 2.277662977576255798e-02
-2.107199840247631073e-02 4.702207446098327637e-01 4.234134405851364136e-02
2.093718620017170906e-03 1.661881804466247559e-01 -1.420617848634719849e-01
2.213681116700172424e-02 -5.667622759938240051e-02 1.859305351972579956e-01
1.195683795958757401e-02 5.599453449249267578e-01 -2.818116918206214905e-03
1.992132700979709625e-02 -7.175083756446838379e-01 -3.866200149059295654e-02
-1.854854449629783630e-02 -7.590848207473754883e-01 -1.487233042716979980e-01
-1.715614087879657745e-02 3.115649223327636719e-01 1.093653589487075806e-01
-4.092220042366534472e-04 5.836784243583679199e-01 -1.464592069387435913e-01
-2.239312417805194855e-02 -6.523399800062179565e-02 -1.712844520807266235e-01
1.896347478032112122e-02 -1.094003617763519287e-01 -2.253773361444473267e-01
1.221380545757710934e-03 6.745066493749618530e-02 -1.462445706129074097e-01
2.552927285432815552e-02 2.665973007678985596e-01 7.781706750392913818e-02
-9.988200850784778595e-03 2.007876187562942505e-01 4.969877749681472778e-02
-2.201946824789047241e-02 2.952998876571655273e-01 -1.524958163499832153e-01
-8.872441947460174561e-03 3.836328089237213135e-01 1.425971537828445435e-01
2.463710680603981018e-02 -9.377921819686889648e-01 1.638934761285781860e-01
1.990245841443538666e-02 -7.543070912361145020e-01 6.729298084974288940e-02
2.115799672901630402e-02 1.971977949142456055e-01 1.703363955020904541e-01
1.378529053181409836e-02 8.726146072149276733e-02 -9.562143683433532715e-02
2.267019264400005341e-02 3.807907104492187500e-01 -1.312593817710876465e-01
1.624166034162044525e-02 5.738692879676818848e-01 -3.625843673944473267e-02
1.165026612579822540e-02 -4.227718412876129150e-01 5.061340332031250000e-02
8.452271111309528351e-03 1.534048281610012054e-02 1.008949354290962219e-01
-2.604653500020503998e-02 5.762652158737182617e-01 -1.735775321722030640e-01
2.537144161760807037e-02 2.521542012691497803e-01 -1.224355772137641907e-01
-2.428886108100414276e-02 -3.401041924953460693e-01 -1.560027748346328735e-01
-2.085068076848983765e-02 3.663276135921478271e-01 3.536055982112884521e-02
-8.938307873904705048e-03 3.570964932441711426e-01 2.012172192335128784e-01
-2.702694572508335114e-02 -6.806368231773376465e-01 2.660733275115489960e-02
-1.546455267816781998e-02 5.402761697769165039e-01 1.997407674789428711e-01
1.080861408263444901e-02 7.498154044151306152e-01 1.521217375993728638e-01
-2.223349921405315399e-02 -6.154741048812866211e-01 -1.615811735391616821e-01
4.932541400194168091e-03 -4.687057733535766602e-01 5.234052985906600952e-02
-1.712848618626594543e-02 9.163756370544433594e-01 2.010175734758377075e-01
-2.556426450610160828e-02 -4.781704843044281006e-01 1.313225626945495605e-01
-1.758639886975288391e-02 3.360886871814727783e-01 -8.903527259826660156e-02
-7.585167884826660156e-03 4.936743676662445068e-01 1.039856150746345520e-01
-2.617960609495639801e-02 -8.166876435279846191e-01 3.303546458482742310e-02
2.544142305850982666e-02 7.427655458450317383e-01 -1.831702329218387604e-02
1.761290058493614197e-02 7.980928570032119751e-02 1.918453574180603027e-01
-2.628153003752231598e-02 -2.194538861513137817e-01 -7.585277408361434937e-02
-1.150655560195446014e-03 -6.137630343437194824e-01 6.337091792374849319e-03
8.067534305155277252e-03 -7.832551598548889160e-01 1.010546609759330750e-01
-2.226913720369338989e-02 3.278508782386779785e-01 2.144781686365604401e-02
2.532711811363697052e-02 6.200507879257202148e-01 -1.142506673932075500e-01
-1.581215299665927887e-02 3.578482270240783691e-01 -1.517081707715988159e-01
-2.498106844723224640e-02 8.091153502464294434e-01 1.327301412820816040e-01
-1.731286942958831787e-02 1.612896025180816650e-01 -8.924521505832672119e-02
-7.901003584265708923e-03 6.281179189682006836e-01 -9.364354610443115234e-02
1.835083030164241791e-02 -5.231071114540100098e-01 5.609247088432312012e-02
-1.357790082693099976e-02 -7.707417607307434082e-01 -4.858900979161262512e-02
-1.023853942751884460e-02 -8.680142760276794434e-01 1.973898112773895264e-01
-2.046913653612136841e-02 -2.447024285793304443e-01 1.330835223197937012e-01
2.536395564675331116e-02 4.889974296092987061e-01 1.758738607168197632e-01
2.526633441448211670e-03 2.828862667083740234e-01 -2.427823692560195923e-01
1.911721006035804749e-02 9.645966887474060059e-01 -3.708094824105501175e-03
-1.924364641308784485e-02 6.272523999214172363e-01 1.348993927240371704e-01
1.706196228042244911e-03 -5.235343575477600098e-01 -4.531145095825195312e-02
4.190219566226005554e-03 1.071737781167030334e-01 1.349383266642689705e-03
8.688164874911308289e-03 8.091542124748229980e-01 -9.731461852788925171e-02
-2.443840354681015015e-02 6.033315658569335938e-01 -1.774588376283645630e-01
-2.416457422077655792e-02 -7.795655727386474609e-01 3.789938986301422119e-02
-2.279373444616794586e-02 9.432953596115112305e-01 -1.655802875757217407e-01
-2.257570996880531311e-02 -5.000647306442260742e-01 -8.379988372325897217e-02
-2.195937000215053558e-02 6.300022453069686890e-02 1.379860937595367432e-01
2.349218819290399551e-03 6.793797016143798828e-01 9.860897064208984375e-02
1.378189679235219955e-02 -5.118444561958312988e-01 -1.978217661380767822e-01
2.094805799424648285e-02 -1.189539134502410889e-01 -1.216628998517990112e-01
1.557730510830879211e-02 8.394261598587036133e-01 1.873081773519515991e-01
-2.700618281960487366e-02 -3.744270801544189453e-01 -7.035164535045623779e-02
6.657591089606285095e-03 -3.524998426437377930e-01 -9.196403622627258301e-02
2.171603590250015259e-02 9.312779903411865234e-01 1.572798788547515869e-01
-1.492777653038501740e-02 6.749100238084793091e-02 5.729886703193187714e-03
2.026713080704212189e-02 -8.444338440895080566e-01 1.649746149778366089e-01
-1.005259994417428970e-02 -4.249171614646911621e-01 -8.872590959072113037e-02
5.545316264033317566e-03 -3.824116662144660950e-02 -4.420695081353187561e-02
3.278788877651095390e-03 2.692893147468566895e-02 -1.419050544500350952e-01
3.225530032068490982e-03 -7.395105361938476562e-01 1.444230079650878906e-01
-2.238264307379722595e-02 3.752891719341278076e-01 2.158400565385818481e-01
2.131293155252933502e-02 -6.818208098411560059e-01 -2.149333059787750244e-01
-1.717660576105117798e-02 7.596755027770996094e-01 2.061936557292938232e-01
5.642628297209739685e-03 6.258738040924072266e-01 5.263472348451614380e-02
2.527031674981117249e-02 2.965427339076995850e-01 1.765856295824050903e-01
-2.409609220921993256e-02 -7.559292912483215332e-01 1.531767006963491440e-02
-1.847387291491031647e-02 5.368780493736267090e-01 1.110823974013328552e-01
-2.244543470442295074e-02 -2.741158008575439453e-01 -1.807701438665390015e-01
2.574240602552890778e-02 1.042528077960014343e-01 1.707866191864013672e-01
-2.292351052165031433e-02 2.648233771324157715e-01 2.206387817859649658e-01
1.617698231711983681e-03 5.325764417648315430e-01 1.482793539762496948e-01
-1.948533020913600922e-02 6.527605056762695312e-01 -5.264073237776756287e-02
2.434760704636573792e-02 4.029904901981353760e-01 -2.238459736108779907e-01
1.643762364983558655e-02 1.223951112478971481e-02 -1.042169332504272461e-01
-2.222062088549137115e-02 -4.177494943141937256e-01 2.149326205253601074e-01
1.869274303317070007e-02 -8.666246533393859863e-01 -3.242892771959304810e-02
-1.308514922857284546e-02 8.613633513450622559e-01 4.966550506651401520e-03
6.965360807953402400e-05 -1.884432733058929443e-01 4.720576852560043335e-02
1.175399753265082836e-03 1.265194714069366455e-01 1.482214629650115967e-01
5.784474313259124756e-03 6.478839516639709473e-01 1.449840366840362549e-01
1.303807646036148071e-02 -1.679685413837432861e-01 -1.419739276170730591e-01
-2.225396409630775452e-02 -3.571678102016448975e-01 2.150134742259979248e-01
1.120143849402666092e-02 -9.312993288040161133e-01 9.975609928369522095e-02
-2.098464965820312500e-02 7.491205930709838867e-01 -8.587361872196197510e-02
-1.979779265820980072e-02 8.432235717773437500e-01 2.030650526285171509e-01
7.407210767269134521e-03 5.449847131967544556e-02 -4.794581606984138489e-02
3.860836615785956383e-03 -3.588668704032897949e-01 -1.879248172044754028e-01
2.531274408102035522e-02 -2.918642461299896240e-01 -1.734000630676746368e-02
-1.752909831702709198e-02 4.718918800354003906e-01 -1.479416489601135254e-01
-1.733862608671188354e-02 -6.426572203636169434e-01 7.575918454676866531e-03
2.207102440297603607e-02 -7.731705904006958008e-01 -2.011889815330505371e-01
2.085691504180431366e-02 4.724109768867492676e-01 -3.744259849190711975e-02
1.026834454387426376e-02 -2.015587091445922852e-01 1.517074555158615112e-01
2.371809072792530060e-02 6.795992851257324219e-01 -2.253653556108474731e-01
2.027361840009689331e-02 -6.309454441070556641e-01 1.883873045444488525e-01
2.530725486576557159e-02 2.011749446392059326e-01 -2.112017422914505005e-01
-2.629161253571510315e-02 9.280056357383728027e-01 -7.577610015869140625e-02
-2.070423215627670288e-02 -6.857325136661529541e-02 2.041651606559753418e-01
1.877869293093681335e-02 -2.859953343868255615e-01 -1.290232241153717041e-01
2.502325456589460373e-03 7.375875115394592285e-01 5.856219213455915451e-03
9.976147674024105072e-03 6.284244656562805176e-01 -1.949008107185363770e-01
2.494697459042072296e-02 -7.342855334281921387e-01 -1.456138864159584045e-02
-2.172806859016418457e-02 -1.190876811742782593e-01 1.169423088431358337e-01
2.327844686806201935e-02 -8.017603754997253418e-01 -1.297909021377563477e-01
-2.239542081952095032e-02 6.516534686088562012e-01 2.233518846333026886e-02
1.262809499166905880e-03 -5.480331778526306152e-01 1.028206199407577515e-01
1.769256405532360077e-02 -6.151666045188903809e-01 -2.026534527540206909e-01
-1.678228378295898438e-02 -1.607968807220458984e-01 -1.864543557167053223e-01
-2.115031238645315170e-03 -8.415368795394897461e-01 6.464042235165834427e-03
-2.694866852834820747e-03 7.794454097747802734e-01 1.436433494091033936e-01
2.513485029339790344e-02 9.644539356231689453e-01 -2.206404954195022583e-01
2.527461014688014984e-02 -4.908586442470550537e-01 -1.138513535261154175e-01
2.075998298823833466e-02 5.315811634063720703e-01 1.764758229255676270e-01
1.710158027708530426e-02 -1.401254534721374512e-01 -2.287395447492599487e-01
1.090245321393013000e-02 5.013381838798522949e-01 -1.905263364315032959e-01
-2.447893284261226654e-02 -4.407758414745330811e-01 2.098443657159805298e-01
-2.131917327642440796e-02 2.796837687492370605e-01 1.915346644818782806e-02
-2.497058734297752380e-02 4.421680569648742676e-01 1.742893643677234650e-02
-4.691928625106811523e-03 -3.332689404487609863e-01 1.433807909488677979e-01
-2.698491886258125305e-02 8.126682043075561523e-01 -1.665086895227432251e-01
1.460667513310909271e-02 1.437937319278717041e-01 -1.407700031995773315e-01
-3.835760871879756451e-04 -4.666143953800201416e-01 1.998385936021804810e-01
-2.523862570524215698e-02 9.091910719871520996e-01 -6.149459257721900940e-02
3.214649157598614693e-03 5.699450969696044922e-01 5.168854817748069763e-02
2.045011520385742188e-02 -6.109638214111328125e-01 -3.797278553247451782e-02
-1.161600835621356964e-02 9.019864201545715332e-01 4.357938654720783234e-03
2.130384556949138641e-02 5.259837508201599121e-01 7.553879171609878540e-02
-7.145563722588121891e-04 -8.898586630821228027e-01 -1.465001404285430908e-01
2.071955241262912750e-02 -1.411859970539808273e-02 -2.311034798622131348e-01
8.058150298893451691e-03 -3.387814462184906006e-01 -2.411831319332122803e-01
2.153894118964672089e-02 4.069786369800567627e-01 8.993680030107498169e-02
1.518737617880105972e-02 4.533098638057708740e-01 9.101524949073791504e-02
2.058059163391590118e-02 9.333793520927429199e-01 1.879870146512985229e-01
1.449456997215747833e-02 -9.288176298141479492e-01 -1.353363543748855591e-01
-3.702192334458231926e-04 7.444376945495605469e-01 9.896714985370635986e-02
-2.271087840199470520e-02 -1.116368733346462250e-02 -1.688716113567352295e-01
-1.394974882714450359e-03 -1.835926324129104614e-01 -2.393233329057693481e-01
1.575380191206932068e-02 7.980234622955322266e-01 -6.524356082081794739e-03
-2.264219522476196289e-02 8.513472229242324829e-02 -7.259208709001541138e-02
-1.762693002820014954e-02 2.234545946121215820e-01 -8.900423347949981689e-02
-1.773244701325893402e-02 5.124800801277160645e-01 1.368680149316787720e-01
-8.719844743609428406e-03 -4.752744436264038086e-01 -5.094225704669952393e-02
-1.332483626902103424e-02 -7.071272730827331543e-01 -4.848418757319450378e-02
2.374793775379657745e-02 1.510712057352066040e-01 6.494592875242233276e-02
2.118904329836368561e-02 -2.405505776405334473e-01 -2.304915338754653931e-01
2.537513710558414459e-02 -6.012206077575683594e-01 7.119517028331756592e-02
-1.742397807538509369e-02 -7.090060114860534668e-01 -1.859612017869949341e-01
-1.463957317173480988e-02 2.292026877403259277e-01 1.395953148603439331e-01
2.404722198843955994e-02 7.060468196868896484e-01 -3.113275952637195587e-02
-1.780542358756065369e-02 -9.219084978103637695e-01 -5.682962387800216675e-02
-8.663611486554145813e-03 -7.351699471473693848e-01 -1.477200388908386230e-01
-1.704582944512367249e-02 -8.309221863746643066e-01 1.041523292660713196e-01
1.196961570531129837e-02 -2.220873534679412842e-01 1.907752156257629395e-01
-2.555597946047782898e-02 1.154984533786773682e-01 3.454097360372543335e-02
2.222196571528911591e-02 -3.794434368610382080e-01 1.857248991727828979e-01
1.265593525022268295e-02 6.997206807136535645e-01 -9.475512802600860596e-02
-1.753888092935085297e-02 7.946891784667968750e-01 1.098644882440567017e-01
-1.202554348856210709e-02 -4.841361939907073975e-01 1.056946739554405212e-01
-2.231146581470966339e-02 -3.676497638225555420e-01 1.284864395856857300e-01
2.274136990308761597e-02 8.593508601188659668e-01 -2.277233004570007324e-01
1.636684499680995941e-02 3.691128194332122803e-01 -3.609541803598403931e-02
2.382212318480014801e-03 -1.368720680475234985e-01 -1.917991489171981812e-01
1.829382777214050293e-02 -4.864402413368225098e-01 -1.375854909420013428e-01
-2.414308983134105802e-04 -3.350568413734436035e-01 -4.963650554418563843e-02
-1.489553228020668030e-02 2.143542468547821045e-01 -1.459361016750335693e-01
1.709858514368534088e-02 -7.607878446578979492e-01 -2.355548143386840820e-01
2.707591746002435684e-03 8.861865997314453125e-01 -9.504083544015884399e-02
-2.223759144544601440e-02 9.222785234451293945e-01 -1.527803242206573486e-01
2.063679508864879608e-02 -3.162053227424621582e-01 -1.345307379961013794e-01
-7.579078432172536850e-03 -5.969050526618957520e-01 1.039846166968345642e-01
-4.966196604073047638e-03 -4.377251025289297104e-03 1.433448642492294312e-01
1.207293756306171417e-02 7.275597453117370605e-01 -1.427136510610580444e-01
1.208851113915443420e-02 -8.210740685462951660e-01 1.477013528347015381e-01
-1.346549391746520996e-02 -6.337665319442749023e-01 -8.711378276348114014e-02
-2.652680873870849609e-02 4.388237893581390381e-01 2.241747081279754639e-01
-1.898279413580894470e-02 4.625090360641479492e-01 2.024401277303695679e-01
2.529567480087280273e-02 -3.117709755897521973e-01 7.959121465682983398e-02
8.787394501268863678e-03 6.120496392250061035e-01 1.007561758160591125e-01
2.077306061983108521e-02 5.060357600450515747e-02 1.763759851455688477e-01
-5.530285649001598358e-03 -1.064095124602317810e-01 -1.866889446973800659e-01
1.407189760357141495e-02 5.834857821464538574e-01 -1.980444043874740601e-01
1.668310165405273438e-02 -4.177998006343841553e-02 -2.292856127023696899e-01
2.563349157571792603e-02 -5.791875720024108887e-01 -2.364385128021240234e-02
-1.050576940178871155e-02 -6.527528762817382812e-01 1.975006312131881714e-01
1.565217599272727966e-02 2.397654950618743896e-01 1.565760821104049683e-01
6.599173066206276417e-04 6.110773086547851562e-01 -2.430279552936553955e-01
2.086370438337326050e-02 4.046326577663421631e-01 1.756861805915832520e-01
6.778853014111518860e-03 -5.878106951713562012e-01 -4.369593039155006409e-02
1.505540404468774796e-02 -2.351189255714416504e-01 -1.992173790931701660e-01
-2.531848661601543427e-02 8.025646209716796875e-01 2.118708789348602295e-01
-1.137048099189996719e-02 5.872772336006164551e-01 -1.893463730812072754e-01
-2.647030539810657501e-02 -9.228359460830688477e-01 -1.626014262437820435e-01
-3.458114108070731163e-03 7.112557888031005859e-01 6.640818901360034943e-03
-2.962695900350809097e-03 3.066902756690979004e-01 2.507334575057029724e-03
-2.177858166396617889e-02 -4.099050164222717285e-01 -1.733399331569671631e-01
8.487422601319849491e-04 7.380496859550476074e-01 -1.875285059213638306e-01
-8.245868957601487637e-04 8.563739657402038574e-01 1.479579210281372070e-01
2.502753399312496185e-02 4.270001649856567383e-01 6.855511665344238281e-02
1.721558533608913422e-02 9.571085572242736816e-01 9.534888714551925659e-02
-1.811129599809646606e-02 -6.446123123168945312e-02 1.363748610019683838e-01
1.986812800168991089e-03 3.619651198387145996e-01 4.745813831686973572e-02
-2.655875310301780701e-02 8.392364382743835449e-01 1.198542937636375427e-01
1.745826750993728638e-02 2.504321634769439697e-01 -2.282753437757492065e-01
2.982699079439043999e-04 -4.931087493896484375e-01 1.481056511402130127e-01
2.252145111560821533e-02 2.861516475677490234e-01 -2.022771090269088745e-01
2.281723916530609131e-02 -1.546215116977691650e-01 6.269879639148712158e-02
-1.859675906598567963e-02 -4.904722869396209717e-01 2.021436244249343872e-01
-7.105723489075899124e-03 -1.170921176671981812e-01 1.430623531341552734e-01
2.110528945922851562e-02 -2.302453070878982544e-01 -2.366631478071212769e-02
-1.135922130197286606e-02 -2.907551527023315430e-01 1.054181531071662903e-01
1.303088944405317307e-02 -5.237240195274353027e-01 1.953613162040710449e-01
1.945732533931732178e-02 -4.478875994682312012e-01 -4.151291213929653168e-03
-1.696906238794326782e-02 7.606227993965148926e-01 -1.863105893135070801e-01
1.202901359647512436e-02 7.706475853919982910e-01 5.625678598880767822e-02
-1.289258059114217758e-02 3.823460340499877930e-01 -1.494710296392440796e-01
1.697270199656486511e-02 -9.154755473136901855e-01 -2.289082556962966919e-01
6.890201009809970856e-03 -4.616599082946777344e-01 -1.933704465627670288e-01
-1.303573418408632278e-02 4.680135548114776611e-01 -1.842441558837890625e-01
1.133311167359352112e-02 7.759999483823776245e-02 1.472830921411514282e-01
-2.560399658977985382e-02 1.469143629074096680e-01 -1.591773033142089844e-01
-1.061591040343046188e-02 -6.173577904701232910e-01 4.507403820753097534e-02
6.608795374631881714e-03 9.231869578361511230e-01 -1.450775861740112305e-01
7.166475057601928711e-03 -1.804290860891342163e-01 1.982293725013732910e-01
-2.469566091895103455e-02 -8.769888281822204590e-01 1.334189474582672119e-01
-2.200657967478036880e-03 1.448988318443298340e-01 -9.439434856176376343e-02
-2.239472232758998871e-02 -5.405231118202209473e-01 -6.574836373329162598e-02
1.509663369506597519e-02 -4.458774626255035400e-02 -1.024689450860023499e-01
-2.082702144980430603e-02 4.251862764358520508e-01 -5.414054915308952332e-02
-1.440397836267948151e-02 -4.447859823703765869e-01 1.072090640664100647e-01
-2.201627381145954132e-02 -5.058887600898742676e-01 4.111036285758018494e-02
2.583404630422592163e-02 -6.628385186195373535e-01 1.714824289083480835e-01
4.051847383379936218e-03 -2.527838572859764099e-02 -9.539462625980377197e-02
-1.936603523790836334e-02 -8.694956898689270020e-01 2.315410226583480835e-01
5.170552060008049011e-03 -8.140481710433959961e-01 1.990559548139572144e-01
5.971952923573553562e-04 -1.012444049119949341e-01 -1.463274359703063965e-01
-8.045085705816745758e-03 -9.627791047096252441e-01 3.176772268489003181e-03
-2.071730978786945343e-02 5.689098834991455078e-01 2.041821330785751343e-01
-2.281539700925350189e-02 1.860938966274261475e-01 2.552429772913455963e-02
-4.584334325045347214e-03 -5.874772667884826660e-01 2.401961237192153931e-01
-1.105776987969875336e-02 4.517216086387634277e-01 2.384940385818481445e-01
-2.230866812169551849e-02 -9.386886358261108398e-01 1.285074055194854736e-01
3.941377624869346619e-03 3.754409253597259521e-01 -9.534890949726104736e-02
-2.162654511630535126e-02 1.232191622257232666e-01 -1.737073063850402832e-01
-2.197624184191226959e-02 -6.796745061874389648e-01 2.347654700279235840e-01
-1.293690409511327744e-02 7.080403566360473633e-01 1.060840040445327759e-01
-1.963617093861103058e-02 3.053901717066764832e-02 -8.746298402547836304e-02
-2.482443861663341522e-02 2.075729370117187500e-01 1.707614399492740631e-02
-2.052753604948520660e-02 -5.952658653259277344e-01 -6.066032499074935913e-02
2.073851972818374634e-02 -4.264904558658599854e-01 -2.200574874877929688e-01
-2.081713825464248657e-02 2.940530478954315186e-01 -7.886049896478652954e-02
-1.516705378890037537e-03 7.647836804389953613e-01 -2.393393069505691528e-01
-1.545056584291160107e-03 -1.500004678964614868e-01 -2.433184534311294556e-01
-2.213526889681816101e-02 8.448967337608337402e-01 2.258608043193817139e-01
1.844037696719169617e-02 -3.555995225906372070e-01 -1.298398226499557495e-01
9.058528579771518707e-03 3.756615519523620605e-01 -2.407688498497009277e-01
-8.799816481769084930e-03 2.698996067047119141e-01 -9.352514892816543579e-02
1.981510967016220093e-02 1.384100019931793213e-01 -1.369907334446907043e-02
4.249207675457000732e-03 -2.462697178125381470e-01 1.445577740669250488e-01
2.538881264626979828e-02 -7.200749516487121582e-01 -1.147198528051376343e-01
2.495246566832065582e-02 -4.570951312780380249e-02 -1.256180852651596069e-01
2.118654921650886536e-02 7.750485837459564209e-02 5.978830531239509583e-02
-2.225705794990062714e-02 7.305275797843933105e-01 2.343990951776504517e-01
-7.939098402857780457e-03 -3.009425997734069824e-01 -4.658186063170433044e-02
2.498061582446098328e-02 8.380984067916870117e-01 -2.860191836953163147e-02
1.723984256386756897e-02 -8.162049204111099243e-02 -1.950854957103729248e-01
-7.951446718834631611e-07 -9.587720632553100586e-01 1.997886896133422852e-01
2.424408309161663055e-02 8.456554412841796875e-01 1.629451215267181396e-01
-2.257261425256729126e-02 -4.806132912635803223e-01 -6.709974259138107300e-02
1.762867346405982971e-02 -8.594230413436889648e-01 -1.954009383916854858e-01
2.530685439705848694e-02 5.236837267875671387e-01 -2.612478099763393402e-02
2.380613796412944794e-02 -7.338003516197204590e-01 -2.053787559270858765e-01
-2.269969694316387177e-02 2.855746448040008545e-01 4.021949693560600281e-02
2.128188312053680420e-02 7.539892792701721191e-01 -1.033304631710052490e-01
-1.957450527697801590e-03 -3.544794023036956787e-01 6.443298421800136566e-03
2.099647559225559235e-02 -8.003128767013549805e-01 -2.307420969009399414e-01
-5.334233399480581284e-03 3.582365214824676514e-01 -1.907829046249389648e-01
2.132411114871501923e-02 -4.754411876201629639e-01 -2.141668647527694702e-02
2.701083198189735413e-03 1.593888849020004272e-01 9.856265038251876831e-02
2.562331035733222961e-02 9.496453404426574707e-01 -2.372102066874504089e-02
-1.442963443696498871e-02 4.068658053874969482e-01 -8.637385070323944092e-02
-9.238759521394968033e-04 -7.167187333106994629e-01 1.438769400119781494e-01
-2.123441919684410095e-02 -4.448049366474151611e-01 1.125326752662658691e-02
-2.195647545158863068e-02 7.264027595520019531e-01 1.294917166233062744e-01
1.744628883898258209e-02 6.531085073947906494e-02 -2.282903194427490234e-01
3.707580268383026123e-03 -8.643196225166320801e-01 -2.426266372203826904e-01
1.580682350322604179e-03 -4.572914242744445801e-01 9.871020168066024780e-02
2.065087109804153442e-02 3.980400264263153076e-01 -2.712026797235012054e-02
1.264355517923831940e-02 -5.763817951083183289e-02 9.345634281635284424e-02
2.487060427665710449e-02 9.445251822471618652e-01 -1.259465217590332031e-01
-1.046269387006759644e-02 6.465751528739929199e-01 2.018481343984603882e-01
1.275715976953506470e-02 3.165732622146606445e-01 -1.002338007092475891e-01
-1.838732138276100159e-02 -3.820489645004272461e-01 -5.179848521947860718e-02
1.521822251379489899e-02 -9.003426432609558105e-01 5.330217629671096802e-02
-2.277506701648235321e-02 -5.730021595954895020e-01 1.249645054340362549e-01
-2.418009797111153603e-03 3.824089169502258301e-01 1.960381567478179932e-01
1.538823172450065613e-02 1.893772482872009277e-01 -6.047906354069709778e-03
-9.753075428307056427e-03 1.799694448709487915e-01 2.015546411275863647e-01
-2.066539786756038666e-02 1.422663629055023193e-01 2.364745289087295532e-01
-1.646752469241619110e-02 6.339468955993652344e-01 -1.471270620822906494e-01
5.701297428458929062e-03 -5.169646739959716797e-01 -1.409437060356140137e-01
6.379470229148864746e-03 2.573142945766448975e-01 -1.406621783971786499e-01
-2.646940760314464569e-02 -6.201639771461486816e-01 2.246109545230865479e-01
-1.508660335093736649e-02 -9.444716572761535645e-01 2.411375045776367188e-01
8.319400250911712646e-03 8.818461298942565918e-01 1.505454778671264648e-01
-1.695189252495765686e-02 6.644943356513977051e-01 1.040804535150527954e-01
-2.696076035499572754e-02 -1.255315989255905151e-01 2.727658301591873169e-02
2.565765008330345154e-02 5.735468864440917969e-01 -1.167613416910171509e-01
1.932608429342508316e-04 6.299318075180053711e-01 2.091640373691916466e-03
-2.256442978978157043e-02 6.761632561683654785e-01 1.371974498033523560e-01
-5.064757075160741806e-03 5.024073123931884766e-01 -5.027141049504280090e-02
2.124564722180366516e-02 -9.289723634719848633e-01 1.871204972267150879e-01
1.283482648432254791e-02 8.558458685874938965e-01 5.147342383861541748e-02
-4.385646432638168335e-03 1.046900525689125061e-01 -9.003844857215881348e-02
1.556322909891605377e-02 2.874563932418823242e-01 9.661670774221420288e-02
-1.254366151988506317e-02 9.716864824295043945e-01 1.983451694250106812e-01
-4.010911099612712860e-03 -3.773839771747589111e-01 -9.008776396512985229e-02
-3.511439077556133270e-03 3.362923264503479004e-01 -1.428004950284957886e-01
4.146894498262554407e-04 -5.859289169311523438e-01 1.440526545047760010e-01
4.715454764664173126e-03 -6.845122575759887695e-01 1.947343796491622925e-01
8.418129757046699524e-03 -9.434234499931335449e-01 5.378454551100730896e-02
1.990974694490432739e-02 -8.238258212804794312e-02 -2.321586608886718750e-01
1.328704878687858582e-02 1.801920682191848755e-01 9.296259284019470215e-02
-9.358953684568405151e-03 6.062246561050415039e-01 7.788052782416343689e-03
-2.440296486020088196e-02 6.894922852516174316e-01 -1.562782973051071167e-01
7.276665885001420975e-03 3.444612622261047363e-01 1.936742216348648071e-01
-6.653072778135538101e-03 -3.511990904808044434e-01 4.632089287042617798e-02
-1.673985831439495087e-02 -6.565034389495849609e-01 2.347854375839233398e-01
-8.642616681754589081e-03 1.284750457853078842e-02 2.394933253526687622e-01
1.170177664607763290e-02 -5.976660922169685364e-02 1.474358141422271729e-01
-1.558784116059541702e-02 -1.998067200183868408e-01 -1.822865158319473267e-01
-2.204402536153793335e-02 -2.746029496192932129e-01 4.107422754168510437e-02
1.846014335751533508e-02 3.861774206161499023e-01 9.394889324903488159e-02
1.335962302982807159e-02 8.523249030113220215e-01 -1.417273432016372681e-01
-2.150106057524681091e-02 -7.234700918197631836e-01 2.273921668529510498e-01
-2.147390693426132202e-02 6.507509946823120117e-01 -1.820369511842727661e-01
2.202939614653587341e-02 -1.911765784025192261e-01 -1.043047830462455750e-01
1.912749372422695160e-02 -8.708144426345825195e-01 1.622233539819717407e-01
1.918229833245277405e-02 1.076150164008140564e-01 -2.057740986347198486e-01
2.493379637598991394e-02 -6.034517884254455566e-01 1.791412383317947388e-01
9.213360957801342010e-03 1.420407444238662720e-01 -4.719760268926620483e-02
-1.474049873650074005e-02 -6.335169672966003418e-01 1.024532541632652283e-01
-1.460942439734935760e-02 3.030116260051727295e-01 -5.398392304778099060e-02
8.889419026672840118e-03 -7.602238655090332031e-01 -4.282153770327568054e-02
-8.412393741309642792e-03 1.827925890684127808e-01 2.437599897384643555e-01
-2.698691561818122864e-02 4.567206278443336487e-02 1.231046989560127258e-01
2.090323530137538910e-02 6.227791309356689453e-01 -2.520246990025043488e-02
-3.588238963857293129e-03 -9.145790934562683105e-01 2.589722862467169762e-03
-1.210966799408197403e-02 7.771523594856262207e-01 -4.798095673322677612e-02
-2.486247383058071136e-02 -5.995464920997619629e-01 3.621479496359825134e-02
1.654154434800148010e-02 -9.082390069961547852e-01 -7.550998125225305557e-03
-2.489192225039005280e-02 4.518753290176391602e-01 1.329457610845565796e-01
-2.114048041403293610e-02 4.247570335865020752e-01 3.466076776385307312e-02
-2.766191260889172554e-03 4.107032120227813721e-01 -4.590053483843803406e-02
1.813120953738689423e-02 -1.504037678241729736e-01 -1.960558146238327026e-01
1.457123644649982452e-02 6.023033857345581055e-01 5.769589333795011044e-04
-2.220285125076770782e-02 1.146985683590173721e-02 -7.551355659961700439e-02
1.693496666848659515e-02 -3.994869291782379150e-01 9.556421637535095215e-02
2.331378497183322906e-02 8.984186053276062012e-01 -3.290371224284172058e-02
1.881413161754608154e-02 2.351983636617660522e-01 6.466541439294815063e-02
-1.669363491237163544e-02 4.933679103851318359e-01 -1.523849964141845703e-01
3.405719995498657227e-03 -8.179744482040405273e-01 5.171370878815650940e-02
2.062860876321792603e-02 8.433723449707031250e-01 6.951166689395904541e-02
2.515022456645965576e-02 7.085614800453186035e-01 8.069571107625961304e-02
2.515551447868347168e-02 -1.158861964941024780e-01 1.663282960653305054e-01
1.576028950512409210e-02 -5.848507881164550781e-01 -1.336871832609176636e-01
-2.546313963830471039e-02 -5.786194801330566406e-01 1.861809007823467255e-02
-1.746670529246330261e-02 -6.857001781463623047e-01 -8.912711590528488159e-02
-5.273387301713228226e-03 9.225890040397644043e-01 6.879726890474557877e-03
-1.284845732152462006e-02 8.640996217727661133e-01 2.028364390134811401e-01
-1.799239963293075562e-02 8.776453733444213867e-01 2.389083355665206909e-01
-2.477332577109336853e-02 1.213803142309188843e-01 -6.037132441997528076e-02
2.294202521443367004e-02 3.243698477745056152e-01 -3.380136936902999878e-02
5.292312242090702057e-03 5.474927425384521484e-01 -1.456236392259597778e-01
2.384057827293872833e-02 1.897146701812744141e-01 -1.284332275390625000e-01
8.519555442035198212e-03 7.022822499275207520e-01 -1.442869454622268677e-01
9.382170625030994415e-03 -2.694757878780364990e-01 3.708516713231801987e-03
-2.689497359097003937e-02 8.158916831016540527e-01 2.560506016016006470e-02
-9.371930500492453575e-04 -4.777781665325164795e-01 2.240534173324704170e-03
7.641766685992479324e-03 1.086083129048347473e-01 5.346289649605751038e-02
-2.251830883324146271e-02 -4.748585447669029236e-02 2.168712764978408813e-01
-1.914591528475284576e-02 -3.361000716686248779e-01 2.087602466344833374e-01
2.458309940993785858e-02 7.993167638778686523e-02 -1.358017884194850922e-02
1.193737145513296127e-02 -5.410981178283691406e-01 -4.061493650078773499e-02
-1.749405823647975922e-02 7.661592960357666016e-01 -1.479147076606750488e-01
-1.496411487460136414e-02 5.886798501014709473e-01 4.254519194364547729e-02
-1.274752989411354065e-02 8.674758672714233398e-01 -1.494111269712448120e-01
-2.171459235250949860e-02 2.546269297599792480e-01 -5.529756098985671997e-02
-1.828080415725708008e-02 4.263762235641479492e-01 -1.795731931924819946e-01
-2.239309687865898013e-04 5.416008830070495605e-01 2.146585611626505852e-03
1.141886413097381592e-02 -4.138621985912322998e-01 -4.101275280117988586e-02
2.501146309077739716e-02 6.313683986663818359e-01 -2.089536041021347046e-01
9.230332449078559875e-03 -6.853537559509277344e-01 -1.898335218429565430e-01
-4.259513225406408310e-03 8.822943568229675293e-01 1.962807327508926392e-01
1.635567517951130867e-03 -3.206630423665046692e-02 -1.917003244161605835e-01
-1.609157398343086243e-02 -1.494274586439132690e-01 4.167978465557098389e-02
-6.161009892821311951e-03 6.649465560913085938e-01 1.431871354579925537e-01
2.529637329280376434e-02 -4.174689948558807373e-01 1.673984378576278687e-01
2.039690688252449036e-02 -7.163863182067871094e-01 -2.219182848930358887e-01
-2.083700336515903473e-02 1.102115511894226074e-01 2.289964109659194946e-01
