-2.256767451763153076e-01 2.006078064441680908e-01 2.363593280315399170e-01
2.309214770793914795e-01 2.216080576181411743e-01 1.548563987016677856e-01
9.077287465333938599e-02 3.985362350940704346e-01 2.176390439271926880e-01
-2.282736003398895264e-01 3.025538921356201172e-01 1.330919861793518066e-01
-1.125702932476997375e-01 -9.275189042091369629e-01 5.744537711143493652e-02
2.369972467422485352e-01 -2.900296822190284729e-02 -2.882182002067565918e-01
-5.997827649116516113e-02 6.901247054338455200e-02 -2.629895806312561035e-01
2.617365419864654541e-01 5.628247186541557312e-02 1.658554887399077415e-03
-8.290626853704452515e-02 -9.309151768684387207e-01 1.082657203078269958e-01
-1.180476993322372437e-01 9.767428785562515259e-02 2.548681199550628662e-01
1.636127680540084839e-01 2.116569578647613525e-01 -2.366136163473129272e-01
1.261250525712966919e-01 3.053887486457824707e-01 -2.256912440061569214e-01
1.889998167753219604e-01 3.586241006851196289e-01 -2.216117531061172485e-01
-2.375394254922866821e-01 2.217245101928710938e-01 -2.424862608313560486e-02
9.713529050350189209e-02 -2.426582621410489082e-03 2.788270413875579834e-01
-2.785789966583251953e-01 1.501075830310583115e-02 -1.161956042051315308e-01
-1.545324921607971191e-01 -4.236400593072175980e-03 -2.813038229942321777e-01
-4.905973374843597412e-02 -9.070034027099609375e-01 -5.134026333689689636e-02
7.181605696678161621e-02 -9.100682735443115234e-01 7.420976459980010986e-02
2.206022664904594421e-02 -9.646948575973510742e-01 1.081573963165283203e-01
2.310113757848739624e-01 2.209227830171585083e-01 7.480592280626296997e-02
2.646679282188415527e-01 4.389513656497001648e-02 -1.181122884154319763e-01
2.160953730344772339e-02 -7.735010385513305664e-01 -2.773709129542112350e-03
-1.803063899278640747e-01 1.893936544656753540e-01 2.380519807338714600e-01
-2.386005520820617676e-01 2.140386253595352173e-01 1.243073567748069763e-01
-1.674105972051620483e-01 2.570479512214660645e-01 2.287183851003646851e-01
1.804675906896591187e-02 -8.638048171997070312e-01 6.454358994960784912e-02
-2.830195724964141846e-01 -2.036020858213305473e-03 1.053112279623746872e-02
8.388248272240161896e-03 -9.646948575973510742e-01 4.810823127627372742e-02
-2.260750345885753632e-02 -7.735010385513305664e-01 -2.024636045098304749e-02
-1.951837241649627686e-01 4.452002421021461487e-02 -2.687897384166717529e-01
-1.503962427377700806e-01 2.118772715330123901e-01 -2.365797311067581177e-01
-1.401293370872735977e-02 2.228784859180450439e-01 -1.288020517677068710e-02
-2.813777625560760498e-01 4.181233700364828110e-03 -2.257752716541290283e-01
2.649641931056976318e-01 4.264385998249053955e-02 -4.572683945298194885e-02
-2.450477182865142822e-01 1.725112199783325195e-01 -1.351760029792785645e-01
-2.295963317155838013e-01 2.881636619567871094e-01 1.953831017017364502e-01
1.856745593249797821e-02 -9.100682735443115234e-01 -9.232731163501739502e-02
-1.254516933113336563e-02 3.418146073818206787e-01 1.209018845111131668e-02
1.980040222406387329e-01 7.391179911792278290e-03 2.762500941753387451e-01
-1.320068389177322388e-01 2.902122735977172852e-01 -2.270427197217941284e-01
2.859106361865997314e-01 -3.597997874021530151e-02 4.481117427349090576e-02
-2.648468017578125000e-01 7.116273790597915649e-02 5.610730499029159546e-02
2.372640073299407959e-01 1.792236268520355225e-01 1.435618996620178223e-01
-8.248475939035415649e-02 1.357257515192031860e-01 -2.492028623819351196e-01
7.668311591260135174e-04 1.484638601541519165e-01 -1.651298999786376953e-02
-2.487639188766479492e-01 1.509509086608886719e-01 1.699268072843551636e-01
-2.431512810289859772e-02 -9.100682735443115234e-01 9.119537472724914551e-02
-8.217525482177734375e-02 3.989717364311218262e-01 2.176176756620407104e-01
2.449933737516403198e-01 1.354147791862487793e-01 2.201511412858963013e-01
-2.001423388719558716e-01 3.750850260257720947e-01 -2.207200974225997925e-01
2.153124064207077026e-01 3.984374701976776123e-01 1.977338343858718872e-01
-2.382888495922088623e-01 2.160975039005279541e-01 -1.359445899724960327e-01
-4.246917366981506348e-02 -8.352040648460388184e-01 -4.777859523892402649e-02
-2.577544748783111572e-02 1.688281595706939697e-01 2.414004802703857422e-01
1.059375926852226257e-01 -9.595298767089843750e-01 4.452393203973770142e-02
2.362920194864273071e-01 1.191549897193908691e-01 -2.524194419384002686e-01
-2.504956424236297607e-01 1.412267386913299561e-01 -1.161720156669616699e-01
-2.713190317153930664e-01 4.381407424807548523e-02 -1.732230335474014282e-01
-2.220423519611358643e-01 3.963733911514282227e-01 -4.974590241909027100e-02
-1.759233027696609497e-01 8.723238110542297363e-02 2.571083009243011475e-01
8.386147022247314453e-02 2.971332371234893799e-01 -2.264252156019210815e-01
2.225561589002609253e-01 2.923139035701751709e-01 -8.881523460149765015e-02
2.200160622596740723e-01 3.209035098552703857e-01 -4.585763812065124512e-02
-1.125702932476997375e-01 -9.638687968254089355e-01 -3.728554397821426392e-02
-1.894174665212631226e-01 1.930678486824035645e-01 -2.394182682037353516e-01
-2.915101647377014160e-01 -3.231387212872505188e-02 1.547591388225555420e-01
2.233409583568572998e-01 1.509390920400619507e-01 2.444836944341659546e-01
5.540692433714866638e-02 -9.100682735443115234e-01 1.057558283209800720e-01
1.223579943180084229e-01 3.563868403434753418e-01 -2.217642962932586670e-01
4.120820388197898865e-02 -8.264784812927246094e-01 3.485731407999992371e-02
-9.641885757446289062e-02 2.771646380424499512e-01 2.265371531248092651e-01
-4.668410867452621460e-02 2.982702553272247314e-01 -2.263242602348327637e-01
-1.702646315097808838e-01 1.079703047871589661e-01 -2.545896172523498535e-01
2.238118201494216919e-01 7.672856748104095459e-02 -2.612821757793426514e-01
1.011623069643974304e-03 3.162256479263305664e-01 -2.247266471385955811e-01
-2.262721657752990723e-01 3.250810205936431885e-01 1.001774743199348450e-01
1.421398203819990158e-02 3.760341703891754150e-01 -2.206751406192779541e-01
-2.335549890995025635e-01 2.522904872894287109e-01 -1.656388342380523682e-01
-2.370965331792831421e-01 1.682239025831222534e-01 2.415051013231277466e-01
-2.344820052385330200e-01 2.451801300048828125e-01 5.853606387972831726e-02
-8.874737657606601715e-03 6.927701830863952637e-02 1.401409320533275604e-02
2.507072985172271729e-01 1.060646697878837585e-01 5.867851153016090393e-02
2.770935893058776855e-01 -4.552535247057676315e-03 1.772582530975341797e-01
-2.650384008884429932e-01 -4.033016040921211243e-03 -2.812471091747283936e-01
1.297756582498550415e-01 3.209654092788696289e-01 2.223839610815048218e-01
-2.453115284442901611e-01 1.233487427234649658e-01 -2.516051828861236572e-01
-1.446708757430315018e-02 1.027714684605598450e-01 -2.556964755058288574e-01
2.752682864665985107e-01 2.158433664590120316e-03 -4.403660423122346401e-04
-2.828493416309356689e-01 -1.428809599019587040e-03 -4.878019541501998901e-02
-1.786712110042572021e-01 2.618871927261352539e-01 -2.301148772239685059e-01
-9.601577371358871460e-02 3.530833125114440918e-01 -2.219890505075454712e-01
-2.486717998981475830e-01 1.514858901500701904e-01 1.232499033212661743e-01
-2.240658700466156006e-01 9.143347293138504028e-02 2.562070786952972412e-01
-4.416257143020629883e-02 -9.646948575973510742e-01 -2.860950771719217300e-03
2.552421987056732178e-01 8.496934920549392700e-02 -2.294023036956787109e-01
8.514184504747390747e-03 -9.646948575973510742e-01 -2.199827320873737335e-02
-5.044457968324422836e-03 -6.942957639694213867e-01 -1.682175137102603912e-02
-2.395695745944976807e-01 2.076356858015060425e-01 2.152573764324188232e-01
-2.509046196937561035e-01 1.391154974699020386e-01 -2.988689020276069641e-02
-1.553136110305786133e-01 3.170340657234191895e-01 2.227332592010498047e-01
-1.648690253496170044e-01 3.755094707012176514e-01 -2.207002043724060059e-01
5.403952300548553467e-02 -8.976190686225891113e-01 3.804795444011688232e-02
-1.086322888731956482e-01 -9.646948575973510742e-01 4.627960547804832458e-02
1.012088954448699951e-01 2.302077114582061768e-01 2.321575134992599487e-01
7.436057180166244507e-02 2.576079964637756348e-01 -2.305791229009628296e-01
-2.561697959899902344e-01 1.119215637445449829e-01 2.309003621339797974e-01
-7.464971393346786499e-02 1.962858885526657104e-01 -2.389326542615890503e-01
7.321027666330337524e-02 -9.646948575973510742e-01 -6.900485605001449585e-02
3.879152983427047729e-02 2.255527228116989136e-01 2.327676713466644287e-01
1.571884453296661377e-01 -2.265161834657192230e-02 -2.864452004432678223e-01
2.682706415653228760e-01 2.923518791794776917e-02 2.108592726290225983e-02
-1.851533539593219757e-02 -2.171817123889923096e-01 4.082021769136190414e-03
-2.304371446371078491e-01 3.434743266552686691e-03 -2.792390286922454834e-01
-2.089508809149265289e-02 4.615889489650726318e-02 2.664816975593566895e-01
-2.312624752521514893e-01 2.729679942131042480e-01 -1.313396841287612915e-01
-5.615741480141878128e-03 -5.242590904235839844e-01 -1.674688048660755157e-02
1.390864253044128418e-01 4.947201535105705261e-02 2.656969130039215088e-01
2.485894560813903809e-01 1.168418824672698975e-01 -1.901680976152420044e-01
2.082838118076324463e-01 3.267463063821196556e-03 -2.792824804782867432e-01
1.115697398781776428e-01 2.886293828487396240e-01 2.252932488918304443e-01
1.511421501636505127e-01 3.908393085002899170e-01 -2.199743539094924927e-01
1.567927300930023193e-01 -1.098055299371480942e-02 2.812278568744659424e-01
2.190403938293457031e-01 3.333357870578765869e-01 1.225107908248901367e-01
1.497029960155487061e-01 1.320677697658538818e-01 -2.499125003814697266e-01
-6.281674653291702271e-02 3.295547366142272949e-01 -2.235910743474960327e-01
7.313510775566101074e-02 -9.100682735443115234e-01 -2.705769985914230347e-02
1.298685222864151001e-01 3.276911377906799316e-01 -2.237178385257720947e-01
-2.434692680835723877e-01 1.818624734878540039e-01 -2.070056051015853882e-01
-2.239177674055099487e-01 3.590308725833892822e-01 -1.631805300712585449e-01
2.523948252201080322e-01 9.821592271327972412e-02 9.399486333131790161e-02
-2.288122922182083130e-01 2.964943349361419678e-01 1.408608816564083099e-02
2.671741247177124023e-01 3.347826376557350159e-02 1.904547065496444702e-01
1.257746666669845581e-02 3.948914706707000732e-01 6.538396119140088558e-04
2.359537929296493530e-01 1.877289861440658569e-01 -5.446915701031684875e-02
1.039398461580276489e-01 5.336876213550567627e-02 2.647742927074432373e-01
5.578111857175827026e-02 3.018744885921478271e-01 2.240825295448303223e-01
2.273113727569580078e-01 2.493023723363876343e-01 -1.237746402621269226e-01
2.362271845340728760e-01 1.859213411808013916e-01 1.953072100877761841e-01
1.693915575742721558e-01 3.819028437137603760e-01 2.184503823518753052e-01
3.019283153116703033e-02 1.546818464994430542e-01 2.438388764858245850e-01
2.552031576633453369e-01 8.515283465385437012e-02 1.606344580650329590e-01
-5.195288732647895813e-02 -8.597967624664306641e-01 4.740927368402481079e-02
2.497994452714920044e-01 1.105907410383224487e-01 -6.993391551077365875e-03
-2.405982911586761475e-01 2.008333057165145874e-01 -1.959550082683563232e-01
-2.604740262031555176e-01 9.147179126739501953e-02 -6.271664053201675415e-02
-2.237136363983154297e-01 3.620293438434600830e-01 1.602652668952941895e-01
-1.467235237360000610e-01 5.756762996315956116e-02 -2.656998932361602783e-01
-2.339352220296859741e-01 2.493723928928375244e-01 -8.497891575098037720e-02
-8.496811985969543457e-02 2.175934314727783203e-01 2.338111251592636108e-01
-2.382844239473342896e-01 -3.289235755801200867e-02 2.873787879943847656e-01
1.961057633161544800e-01 3.304574787616729736e-01 2.216087430715560913e-01
-1.454302668571472168e-01 4.002797305583953857e-01 -2.195277959108352661e-01
-2.820413373410701752e-02 -7.854506969451904297e-01 2.123036049306392670e-02
-1.592431217432022095e-02 -8.506399989128112793e-01 -6.592062115669250488e-02
-3.157944232225418091e-02 3.618981540203094482e-01 2.194673120975494385e-01
3.824865072965621948e-02 -8.260959982872009277e-01 -4.034693166613578796e-02
2.815142869949340820e-01 -2.031121216714382172e-02 1.980396509170532227e-01
-1.205826401710510254e-01 1.576176434755325317e-01 -2.452530562877655029e-01
1.119894254952669144e-02 -5.914764404296875000e-01 5.735874641686677933e-03
-4.927010275423526764e-03 2.773768901824951172e-01 -2.284347414970397949e-01
2.239533215761184692e-01 2.791719734668731689e-01 1.089458912611007690e-01
9.228058159351348877e-02 -9.797763228416442871e-01 -9.214530885219573975e-02
-2.727217227220535278e-02 2.563692629337310791e-01 2.287920564413070679e-01
2.250623553991317749e-01 2.690439820289611816e-01 2.075896598398685455e-02
-2.868868410587310791e-01 -1.582568138837814331e-02 9.459543973207473755e-02
2.211943566799163818e-01 3.076392710208892822e-01 -1.833208054304122925e-01
2.209902405738830566e-01 3.099406063556671143e-01 -4.260424990206956863e-03
2.242031395435333252e-01 9.857036173343658447e-02 2.546765208244323730e-01
-9.029740095138549805e-02 1.636373996734619141e-01 2.422950863838195801e-01
5.908001586794853210e-02 -9.267929196357727051e-01 -1.102421581745147705e-01
-2.732040286064147949e-01 3.584741801023483276e-02 6.177114322781562805e-02
2.581176161766052246e-01 7.159383594989776611e-02 1.131344437599182129e-01
2.367407977581024170e-01 1.825301498174667358e-01 -9.455128759145736694e-02
2.376295030117034912e-01 1.771021187305450439e-01 -1.690300554037094116e-01
-2.837774902582168579e-02 2.410339936614036560e-02 -2.738788127899169922e-01
1.235635727643966675e-01 9.748122841119766235e-02 -2.568312883377075195e-01
2.305795401334762573e-01 2.080446481704711914e-01 -2.371581941843032837e-01
-2.631762623786926270e-01 7.890832424163818359e-02 9.693142026662826538e-02
2.224102467298507690e-01 2.939535379409790039e-01 1.693866550922393799e-01
-1.078139338642358780e-02 -9.520533084869384766e-01 -1.102421581745147705e-01
-2.746513187885284424e-01 3.020715713500976562e-02 2.302553132176399231e-02
-3.863079100847244263e-02 -9.646948575973510742e-01 -3.328990936279296875e-02
2.153993546962738037e-01 3.966121673583984375e-01 1.302983760833740234e-01
-2.245330810546875000e-01 1.291769146919250488e-01 2.485528588294982910e-01
-2.329234629869461060e-01 2.578143179416656494e-01 2.031441628932952881e-01
-2.318851649761199951e-01 2.672864794731140137e-01 1.739458590745925903e-01
2.459815591573715210e-01 1.303109973669052124e-01 1.938179433345794678e-01
2.747399210929870605e-01 4.201130941510200500e-03 1.354648023843765259e-01
-9.993968531489372253e-03 -6.821103096008300781e-01 1.355743408203125000e-02
2.626554667949676514e-01 5.239973589777946472e-02 -1.837821155786514282e-01
-2.853260636329650879e-01 -1.026059221476316452e-02 4.804905503988265991e-02
9.183513000607490540e-03 9.467288851737976074e-02 2.555121481418609619e-01
2.165636569261550903e-01 3.721506893634796143e-01 1.164652481675148010e-01
2.601183056831359863e-01 6.312167644500732422e-02 -2.489545196294784546e-01
2.600225210189819336e-01 6.352547556161880493e-02 2.598783075809478760e-01
1.224298588931560516e-02 3.088478147983551025e-01 3.202241146937012672e-03
-9.967228770256042480e-02 -9.183885455131530762e-01 -1.102421581745147705e-01
2.360002100467681885e-01 1.874209493398666382e-01 7.771079242229461670e-02
-2.484632730484008789e-01 1.526958644390106201e-01 9.741114825010299683e-02
-2.220850884914398193e-01 3.954685032367706299e-01 -1.285873502492904663e-01
-4.901758581399917603e-02 2.489206343889236450e-01 -2.316255271434783936e-01
2.206770479679107666e-01 3.134644925594329834e-01 1.916963756084442139e-01
-7.631430029869079590e-02 -9.646948575973510742e-01 1.721448825264815241e-05
-2.238588184118270874e-01 3.598996698856353760e-01 9.837427735328674316e-02
1.621640175580978394e-01 3.613627701997756958e-02 -2.707749605178833008e-01
-2.309544533491134644e-01 2.757792770862579346e-01 1.455183774232864380e-01
-2.843150496482849121e-01 -6.654198747128248215e-03 -1.042091399431228638e-01
1.083329226821660995e-02 2.256875783205032349e-01 -8.540142327547073364e-03
-1.768012903630733490e-02 3.181121349334716797e-01 -8.012644946575164795e-03
-2.107091434299945831e-02 2.969917654991149902e-01 -2.264384776353836060e-01
-1.573750562965869904e-02 -8.207910060882568359e-01 5.200894922018051147e-02
2.835422456264495850e-01 -2.753728628158569336e-02 -2.060604095458984375e-02
-7.212891429662704468e-02 9.448498487472534180e-02 -2.574738562107086182e-01
-2.282271683216094971e-01 3.030748963356018066e-01 -1.735760122537612915e-01
2.195112705230712891e-01 3.265865147113800049e-01 8.114697039127349854e-02
2.305456548929214478e-01 -1.397865940816700459e-03 2.785381674766540527e-01
7.811436057090759277e-02 6.201189756393432617e-02 -2.646476030349731445e-01
-1.586068123579025269e-01 1.900480240583419800e-01 -2.398736774921417236e-01
-2.367472499608993530e-01 2.277995645999908447e-01 1.545174270868301392e-01
1.816005706787109375e-01 1.426069289445877075e-01 2.459464222192764282e-01
-2.366116642951965332e-01 2.288407981395721436e-01 3.371533751487731934e-02
-2.566539347171783447e-01 1.094198003411293030e-01 1.271562278270721436e-01
-2.260673046112060547e-01 3.274685740470886230e-01 -3.908837586641311646e-02
-2.278086096048355103e-01 3.077896237373352051e-01 -9.683790057897567749e-02
8.023555390536785126e-03 1.624119430780410767e-01 -2.444270104169845581e-01
-1.909472793340682983e-01 3.159404695034027100e-01 2.228305190801620483e-01
-3.907720744609832764e-02 2.210318446159362793e-01 2.333601266145706177e-01
-1.900920644402503967e-02 -2.777380347251892090e-01 -4.114717245101928711e-03
6.257536262273788452e-02 3.563581109046936035e-01 -2.217657715082168579e-01
-1.672860682010650635e-01 3.108639419078826904e-01 -2.252034097909927368e-01
2.264661639928817749e-01 2.562196552753448486e-01 -1.839663386344909668e-01
-2.691098153591156006e-01 5.314914882183074951e-02 1.623249202966690063e-01
-5.535603500902652740e-03 -2.959729731082916260e-01 1.483632996678352356e-02
-1.172643676400184631e-01 3.646475374698638916e-01 2.192919254302978516e-01
-2.610642910003662109e-01 8.872681856155395508e-02 2.302091419696807861e-01
2.164428085088729858e-01 3.746826648712158203e-01 7.326137274503707886e-02
2.686048485338687897e-02 3.177908360958099365e-01 2.226661890745162964e-01
7.269370555877685547e-02 -9.920081496238708496e-01 9.438984096050262451e-02
1.040592342615127563e-01 -9.646948575973510742e-01 -5.350344628095626831e-02
2.311373800039291382e-01 2.679013647139072418e-02 -2.731816768646240234e-01
-1.268964260816574097e-01 2.888143360614776611e-01 2.252733558416366577e-01
-8.447439223527908325e-02 -9.646948575973510742e-01 6.283707171678543091e-02
5.991344898939132690e-02 1.043462306261062622e-01 2.534370422363281250e-01
2.660503685474395752e-01 3.805443271994590759e-02 1.431271135807037354e-01
2.440088540315628052e-01 1.405023634433746338e-01 5.185265094041824341e-02
1.688171736896038055e-02 -8.957354426383972168e-01 6.583449989557266235e-02
-2.724767029285430908e-01 3.892102837562561035e-02 -1.005235826596617699e-03
-1.399406883865594864e-02 -2.954829297959804535e-02 2.864399850368499756e-01
-1.068740338087081909e-01 2.274001240730285645e-01 -2.344464063644409180e-01
2.155032455921173096e-01 3.944235742092132568e-01 2.191825956106185913e-02
8.385890163481235504e-03 1.421831995248794556e-01 1.002288050949573517e-02
5.872991308569908142e-02 -3.374863415956497192e-02 2.876190245151519775e-01
-2.487366497516632080e-01 1.511122733354568481e-01 3.939081355929374695e-02
1.814977824687957764e-02 -9.646948575973510742e-01 2.530550584197044373e-02
-2.263937592506408691e-01 -3.874586429446935654e-03 2.792330682277679443e-01
1.432595103979110718e-01 3.699812293052673340e-01 2.190317958593368530e-01
2.163462787866592407e-01 3.767165243625640869e-01 -9.845171123743057251e-02
1.234350074082612991e-02 -4.704291224479675293e-01 2.436709590256214142e-03
-5.782983452081680298e-02 3.165885061025619507e-02 2.699930369853973389e-01
5.795529577881097794e-03 -1.755832582712173462e-01 -1.410184241831302643e-02
1.877859816886484623e-03 -1.504873037338256836e-01 1.416243147104978561e-02
4.859573021531105042e-02 3.623542785644531250e-01 2.194363474845886230e-01
2.289576232433319092e-01 2.366784662008285522e-01 -2.305820733308792114e-01
-6.409699562937021255e-04 -1.086999941617250443e-02 2.811969220638275146e-01
1.002070866525173187e-02 6.286007165908813477e-02 -2.644464373588562012e-01
-2.481390386819839478e-01 1.545794159173965454e-01 2.157842665910720825e-01
-1.768727786839008331e-02 -2.687260136008262634e-02 -7.995313964784145355e-03
2.006377279758453369e-01 2.584215402603149414e-01 2.285695225000381470e-01
-1.655572801828384399e-01 3.623572289943695068e-01 2.194363474845886230e-01
2.725107967853546143e-01 1.282878220081329346e-02 -2.000551372766494751e-01
-2.852391302585601807e-01 -9.950365871191024780e-03 -2.655230462551116943e-01
-2.089033573865890503e-01 -2.943923138082027435e-02 -2.883397638797760010e-01
1.227367669343948364e-01 2.042437046766281128e-01 2.358110547065734863e-01
-1.125702932476997375e-01 -9.166561961174011230e-01 -6.482683867216110229e-02
5.187833309173583984e-02 1.945280656218528748e-02 2.731403410434722900e-01
2.710878252983093262e-01 1.833492517471313477e-02 -2.732155919075012207e-01
2.625382840633392334e-01 5.289492383599281311e-02 7.129649817943572998e-02
-2.832104563713073730e-01 -2.716187620535492897e-03 1.524629443883895874e-01
-6.131619215011596680e-02 -8.834469318389892578e-01 -4.052216559648513794e-02
-2.219738066196441650e-01 3.978059291839599609e-01 6.879257410764694214e-02
-2.601254880428314209e-01 9.309224039316177368e-02 4.209075123071670532e-02
-1.698677800595760345e-02 -4.157885313034057617e-01 7.455585058778524399e-03
1.565996706485748291e-01 2.084425985813140869e-01 2.351773381233215332e-01
9.012626484036445618e-03 3.398485481739044189e-01 -2.228902876377105713e-01
-1.125702932476997375e-01 -9.107992649078369141e-01 2.045521326363086700e-02
2.614240944385528564e-01 -1.516762841492891312e-02 -2.843553423881530762e-01
-8.392024785280227661e-02 -9.743887782096862793e-01 -6.927095353603363037e-02
-2.401672154664993286e-01 2.036851346492767334e-01 -3.746180981397628784e-02
2.460913509130477905e-01 1.297464966773986816e-01 -7.780443131923675537e-02
-2.897574380040168762e-02 1.458493173122406006e-01 -2.472817748785018921e-01
2.496631294488906860e-01 1.112966686487197876e-01 -1.618644148111343384e-01
9.799893200397491455e-02 -9.100682735443115234e-01 8.396267890930175781e-02
-2.001990675926208496e-01 1.453489363193511963e-01 2.454475462436676025e-01
-2.311195135116577148e-01 2.742708325386047363e-01 -4.886279627680778503e-02
4.699716717004776001e-02 -9.237037040293216705e-03 -2.827002704143524170e-01
-6.920663639903068542e-03 -3.699472844600677490e-01 1.465505082160234451e-02
-2.237519621849060059e-01 5.986824259161949158e-02 -2.651553452014923096e-01
2.621639370918273926e-01 5.447484925389289856e-02 9.454680979251861572e-02
-4.875008389353752136e-02 -9.109399914741516113e-01 -1.102421581745147705e-01
2.010223716497421265e-01 2.994021475315093994e-01 -2.262233048677444458e-01
2.040101401507854462e-02 2.408471405506134033e-01 -2.326837033033370972e-01
-1.484176665544509888e-01 2.784498333930969238e-01 2.263971418142318726e-01
9.557379037141799927e-02 8.579615503549575806e-02 2.574163377285003662e-01
8.212827146053314209e-02 3.992060720920562744e-01 -2.195786386728286743e-01
7.528834044933319092e-02 -4.908463917672634125e-03 -2.814917564392089844e-01
2.306156754493713379e-01 2.239580601453781128e-01 -1.046699564903974533e-02
-2.226841896772384644e-01 3.155624568462371826e-01 -2.247855961322784424e-01
1.527460571378469467e-02 4.061664640903472900e-02 2.677933871746063232e-01
9.539324790239334106e-02 1.748479157686233521e-01 -2.422841042280197144e-01
-5.095828697085380554e-02 1.003298442810773849e-02 -2.775279283523559570e-01
3.527421876788139343e-02 1.824999302625656128e-01 2.390917688608169556e-01
-2.875493168830871582e-01 -1.818892732262611389e-02 2.690299153327941895e-01
9.320760518312454224e-02 -9.100682735443115234e-01 4.626553133130073547e-02
9.126586467027664185e-02 2.516678273677825928e-01 -2.312651723623275757e-01
2.254020720720291138e-01 2.659401595592498779e-01 -3.271327912807464600e-02
-2.803645133972167969e-01 8.101543411612510681e-03 2.027661353349685669e-01
-1.332632601261138916e-01 7.735051959753036499e-02 2.592283487319946289e-01
3.665023669600486755e-02 9.972214698791503906e-02 -2.563501000404357910e-01
-7.159989327192306519e-02 -9.667228460311889648e-01 9.146434068679809570e-02
7.051541656255722046e-02 3.348582386970520020e-01 2.213088124990463257e-01
2.563136518001556396e-01 7.998641580343246460e-02 -9.341941028833389282e-02
2.221751809120178223e-01 2.965982556343078613e-01 1.221290752291679382e-01
2.163639664649963379e-01 3.763414621353149414e-01 2.136236578226089478e-01
4.745633155107498169e-02 2.271429598331451416e-01 -2.344802916049957275e-01
-2.477123737335205078e-01 1.570539325475692749e-01 6.928297877311706543e-02
-1.163273584097623825e-02 1.196892708539962769e-01 2.503943741321563721e-01
1.842806935310363770e-01 2.674603760242462158e-01 -2.295106202363967896e-01
1.377099007368087769e-01 2.471255511045455933e-01 -2.318605929613113403e-01
-2.379027158021926880e-01 2.189360558986663818e-01 6.377087533473968506e-02
2.294395714998245239e-01 2.329762578010559082e-01 4.542103409767150879e-02
1.788438111543655396e-01 4.130639135837554932e-02 -2.695509791374206543e-01
-1.465035416185855865e-02 4.488563835620880127e-01 1.602650061249732971e-02
-2.740440964698791504e-01 3.255713731050491333e-02 1.620640456676483154e-01
9.193202108144760132e-02 1.822217553853988647e-02 -2.754041850566864014e-01
2.194420099258422852e-01 3.274369239807128906e-01 4.414368793368339539e-02
1.772056818008422852e-01 1.087108924984931946e-01 -2.544459402561187744e-01
-1.898481696844100952e-02 -5.032500028610229492e-01 2.367492299526929855e-03
7.954911142587661743e-02 -9.100682735443115234e-01 -7.463133335113525391e-02
-2.321806550025939941e-01 2.261923402547836304e-01 -2.346048355102539062e-01
-1.049138680100440979e-01 6.226831674575805664e-02 2.626667618751525879e-01
-2.238153368234634399e-01 3.605356216430664062e-01 2.555767260491847992e-02
-2.264880836009979248e-01 3.226566016674041748e-01 -1.289263367652893066e-01
-2.417309135198593140e-01 1.933507919311523438e-01 1.469204388558864594e-02
-2.219141125679016113e-01 3.990682959556579590e-01 -1.998510211706161499e-01
1.224424038082361221e-02 -5.592641830444335938e-01 3.193206386640667915e-03
2.738688886165618896e-01 7.572449278086423874e-03 9.619304537773132324e-02
1.369029879570007324e-01 2.082885503768920898e-01 -2.371213436126708984e-01
8.643438108265399933e-03 -8.008143901824951172e-01 3.545037284493446350e-02
-4.522981122136116028e-03 1.206420883536338806e-01 -1.689006201922893524e-02
2.244894206523895264e-02 4.019661247730255127e-02 -2.698140442371368408e-01
-2.594460546970367432e-01 4.377944394946098328e-02 -2.689651250839233398e-01
2.208877950906753540e-01 3.110945820808410645e-01 -7.058079540729522705e-02
2.340282499790191650e-01 2.004390656948089600e-01 1.002663839608430862e-02
-2.206919528543949127e-02 2.304715663194656372e-01 -2.340440452098846436e-01
6.719707697629928589e-02 1.681214720010757446e-01 -2.434432506561279297e-01
2.251927852630615234e-01 2.678509354591369629e-01 1.649991422891616821e-01
2.656981348991394043e-01 3.954150527715682983e-02 2.178976982831954956e-01
9.139998257160186768e-02 -9.688185453414916992e-01 9.460944682359695435e-02
2.181892693042755127e-01 1.313846409320831299e-01 -2.500451505184173584e-01
4.345302656292915344e-02 6.294184923171997070e-02 2.625068426132202148e-01
-2.187778800725936890e-01 2.279992252588272095e-01 2.324471026659011841e-01
2.488517910242080688e-01 1.154852360486984253e-01 1.487857997417449951e-01
-9.891327470541000366e-02 -9.867658615112304688e-01 8.295311778783798218e-02
-1.104413866996765137e-01 1.352843344211578369e-01 -2.492883354425430298e-01
-2.231941372156143188e-01 3.721027970314025879e-01 -1.865366548299789429e-01
-6.373507529497146606e-02 1.213553920388221741e-01 2.500708699226379395e-01
2.162195295095443726e-01 3.604029715061187744e-01 -2.214901745319366455e-01
-1.696857810020446777e-02 2.660182714462280273e-01 -9.399887174367904663e-03
-4.497029259800910950e-02 -9.100682735443115234e-01 8.013888448476791382e-02
-9.546972811222076416e-02 9.905746579170227051e-02 2.545718848705291748e-01
-3.461975604295730591e-02 -9.633890986442565918e-01 -1.102421581745147705e-01
3.343557193875312805e-02 2.527267336845397949e-01 2.292054593563079834e-01
2.367282807826995850e-01 1.826126724481582642e-01 5.296448990702629089e-02
-1.801369041204452515e-01 -2.755937911570072174e-02 2.858814001083374023e-01
8.912515640258789062e-02 -9.491860270500183105e-01 -1.102421581745147705e-01
2.333900928497314453e-01 2.046534121036529541e-01 9.665655344724655151e-02
-2.649087309837341309e-01 7.090262323617935181e-02 -1.981996148824691772e-01
-2.422423213720321655e-01 1.899721175432205200e-01 -7.922592014074325562e-02
-2.584151327610015869e-01 1.010434105992317200e-01 1.801144927740097046e-01
-1.948948651552200317e-01 9.998006373643875122e-02 -2.562948167324066162e-01
1.410598605871200562e-01 2.472065985202789307e-01 2.299291193485260010e-01
-6.097080931067466736e-02 3.836351679638028145e-03 2.771667838096618652e-01
1.256538275629281998e-02 -3.431276977062225342e-01 -2.700099954381585121e-03
-8.216052502393722534e-02 3.675855994224548340e-01 -2.210752815008163452e-01
1.322649270296096802e-01 -4.487705416977405548e-03 2.794055044651031494e-01
-7.078650593757629395e-02 -8.592559099197387695e-01 6.940121296793222427e-03
-9.941953420639038086e-02 2.563545405864715576e-01 -2.307147085666656494e-01
-2.559848427772521973e-01 1.128751263022422791e-01 -1.308963261544704437e-02
-2.348629832267761230e-01 2.422582954168319702e-01 -7.522502448409795761e-03
-2.844086289405822754e-01 -6.988012231886386871e-03 -7.804982364177703857e-02
1.714946776628494263e-01 2.932070195674896240e-01 2.248540669679641724e-01
2.063148170709609985e-01 -1.322663482278585434e-02 2.818586528301239014e-01
-2.442997545003890991e-01 1.768500804901123047e-01 1.189205944538116455e-01
2.239046841859817505e-01 2.796185314655303955e-01 6.427616626024246216e-02
-2.719111368060112000e-02 2.956962883472442627e-01 2.246322631835937500e-01
-1.352595239877700806e-01 -8.230698877014219761e-04 2.783767879009246826e-01
1.077923774719238281e-01 2.859006226062774658e-01 -2.275106608867645264e-01
-1.060015894472599030e-02 -9.646948575973510742e-01 -3.958733379840850830e-02
2.157184332609176636e-01 3.899100720882415771e-01 -1.460814327001571655e-01
2.300740331411361694e-01 2.281119823455810547e-01 -7.310689985752105713e-02
7.565531879663467407e-02 1.244091317057609558e-01 -2.513995766639709473e-01
-2.329389303922653198e-01 2.576765120029449463e-01 9.090651571750640869e-02
4.174481704831123352e-02 2.944163084030151367e-01 -2.266676425933837891e-01
2.424945384263992310e-01 1.488743126392364502e-01 9.258884936571121216e-02
8.817788213491439819e-03 -5.236426740884780884e-02 9.461213834583759308e-03
-2.534115612506866455e-01 1.261659115552902222e-01 -2.042621225118637085e-01
-3.417009860277175903e-02 -9.100682735443115234e-01 -7.285524904727935791e-02
-2.508640885353088379e-01 1.393254995346069336e-01 -9.207602590322494507e-02
-2.303295582532882690e-01 2.814814150333404541e-01 -1.599071919918060303e-01
2.401091754436492920e-01 1.627140492200851440e-01 1.987971812486648560e-01
2.072683572769165039e-01 1.541976779699325562e-01 -2.458425909280776978e-01
1.213668659329414368e-01 1.305961906909942627e-01 2.482779771089553833e-01
2.766750454902648926e-01 -3.061794443055987358e-03 2.445497363805770874e-02
-1.329869329929351807e-01 2.289933413267135620e-01 -2.342378497123718262e-01
2.382352203130722046e-01 1.735893040895462036e-01 7.200764026492834091e-03
2.020127773284912109e-01 5.502384155988693237e-02 -2.663027048110961914e-01
-2.272411882877349854e-01 1.459856480360031128e-01 -2.472581863403320312e-01
-2.233591973781585693e-01 3.686194419860839844e-01 1.942077577114105225e-01
-2.259516119956970215e-01 3.291619718074798584e-01 7.146672159433364868e-02
-2.379244379699230194e-02 1.987103074789047241e-01 -2.385663986206054688e-01
-2.266642004251480103e-01 3.206669688224792480e-01 2.326406352221965790e-02
1.725436747074127197e-02 -8.708576560020446777e-01 -6.776788830757141113e-02
1.158069297671318054e-01 3.883765339851379395e-01 2.181342542171478271e-01
-9.288393706083297729e-02 7.785455137491226196e-02 -2.610404789447784424e-01
2.378461509943008423e-01 4.643965139985084534e-02 2.664146423339843750e-01
-1.317087467759847641e-02 -8.986451476812362671e-02 -1.352882664650678635e-02
2.833086252212524414e-01 -2.670457400381565094e-02 -2.132700234651565552e-01
1.382448822259902954e-01 9.949706494808197021e-03 -2.775492966175079346e-01
2.490559220314025879e-01 1.144336834549903870e-01 2.274479568004608154e-01
2.257321923971176147e-01 2.629210352897644043e-01 -8.020083606243133545e-02
1.610770821571350098e-01 4.835633188486099243e-02 2.659606933593750000e-01
1.669221967458724976e-01 1.633728444576263428e-01 -2.442611902952194214e-01
1.255300175398588181e-02 -6.563909649848937988e-01 8.404896361753344536e-04
2.171178162097930908e-01 3.615672886371612549e-01 -1.505868434906005859e-01
2.188966870307922363e-01 3.354396522045135498e-01 -2.210553884506225586e-01
-1.935912668704986572e-01 3.835189044475555420e-01 2.183715254068374634e-01
-2.260503768920898438e-01 3.277161717414855957e-01 1.381817609071731567e-01
-2.232538014650344849e-01 3.708419501781463623e-01 5.701811984181404114e-02
1.132756695151329041e-01 4.853393509984016418e-02 -2.678391337394714355e-01
1.529347058385610580e-02 2.780312299728393555e-01 2.264428287744522095e-01
-2.545272409915924072e-01 8.868677541613578796e-03 2.758691012859344482e-01
-1.128738969564437866e-01 1.276485621929168701e-01 2.488498389720916748e-01
1.165924668312072754e-01 1.065635457634925842e-01 2.529617249965667725e-01
2.073446288704872131e-02 -9.646948575973510742e-01 -6.145197525620460510e-02
-2.225957512855529785e-01 3.847156167030334473e-01 -7.675655931234359741e-02
1.820935457944869995e-01 3.136723041534423828e-01 2.230324447154998779e-01
-2.621225118637084961e-01 8.380725979804992676e-02 -8.377113193273544312e-02
-2.401185780763626099e-01 2.040041834115982056e-01 9.219829738140106201e-02
-6.907099485397338867e-02 2.045760601758956909e-01 2.357609719038009644e-01
2.767862975597381592e-01 -3.458241932094097137e-03 -1.757867187261581421e-01
-1.836080662906169891e-02 3.483207225799560547e-01 -2.223132848739624023e-01
-1.388143450021743774e-01 3.837222754955291748e-01 2.183611989021301270e-01
2.183484435081481934e-01 3.434896171092987061e-01 -1.010750904679298401e-01
-2.554365694522857666e-01 1.157063022255897522e-01 -1.392938196659088135e-01
1.511524766683578491e-01 3.173096179962158203e-01 -2.246301025152206421e-01
-5.663831718266010284e-03 -6.365166902542114258e-01 -1.674054376780986786e-02
1.764709800481796265e-01 1.083490550518035889e-01 2.525955140590667725e-01
-1.128598973155021667e-01 3.047167360782623291e-01 -2.257509380578994751e-01
3.782869130373001099e-02 -9.151897430419921875e-01 -1.102421581745147705e-01
8.667495846748352051e-02 -9.100682735443115234e-01 4.451387096196413040e-03
2.551368474960327148e-01 8.546086400747299194e-02 2.264966070652008057e-01
-2.280355840921401978e-01 3.052340149879455566e-01 2.073334455490112305e-01
1.390385329723358154e-01 1.549065858125686646e-01 -2.457202672958374023e-01
-9.891327470541000366e-02 -9.703652858734130859e-01 -9.491163492202758789e-02
2.274572849273681641e-01 2.481844872236251831e-01 1.916131228208541870e-01
-1.611914858222007751e-02 -7.367310523986816406e-01 8.584446273744106293e-03
-1.570158451795578003e-01 2.379282563924789429e-01 2.311450093984603882e-01
-2.236738353967666626e-01 3.626129627227783203e-01 -1.410881727933883667e-01
-2.067751884460449219e-01 2.683218419551849365e-01 2.274958491325378418e-01
-2.229479998350143433e-01 3.772810101509094238e-01 1.131838113069534302e-01
2.178853191435337067e-02 1.381803900003433228e-01 -2.487260848283767700e-01
1.670894622802734375e-01 1.359589397907257080e-02 2.746502459049224854e-01
-8.217083662748336792e-02 2.592431604862213135e-01 2.284803688526153564e-01
2.990897628478705883e-04 -7.735010385513305664e-01 -2.782739512622356415e-02
2.339744716882705688e-01 2.007935196161270142e-01 -1.649137139320373535e-01
-2.368187159299850464e-01 2.272549569606781006e-01 -1.139922589063644409e-01
-2.850541770458221436e-01 -9.291566908359527588e-03 -1.738695614039897919e-02
2.599790394306182861e-01 -1.648963987827301025e-02 2.827746272087097168e-01
-2.277570366859436035e-01 3.083658516407012939e-01 1.775684952735900879e-01
2.414002418518066406e-01 1.552256494760513306e-01 -4.049431160092353821e-02
2.459144890308380127e-01 1.306565850973129272e-01 3.538891300559043884e-02
-1.973060071468353271e-01 2.936440110206604004e-01 2.248149961233139038e-01
6.563513725996017456e-02 -9.427778720855712891e-01 1.082657203078269958e-01
2.423353493213653564e-01 1.497991085052490234e-01 -2.304147928953170776e-01
-1.420990843325853348e-02 3.636239767074584961e-01 -1.272840332239866257e-02
-1.262000501155853271e-01 -3.300537122413516045e-03 -2.810429632663726807e-01
2.282236814498901367e-01 2.423054724931716919e-01 1.425147503614425659e-01
2.091820985078811646e-01 2.464446723461151123e-01 -2.319497615098953247e-01
2.170839309692382812e-01 3.620676398277282715e-01 -4.549743980169296265e-02
-2.487683445215225220e-01 1.509280651807785034e-01 1.938695013523101807e-01
9.277135133743286133e-02 2.525469660758972168e-01 2.292283177375793457e-01
2.176336348056793213e-01 3.539889752864837646e-01 1.092890277504920959e-02
-9.041309356689453125e-02 3.761844933032989502e-01 2.187289297580718994e-01
2.634174227714538574e-01 4.917725175619125366e-02 1.652224212884902954e-01
-2.617429792881011963e-01 8.557286858558654785e-02 -2.227538730949163437e-03
-6.779018044471740723e-02 -2.690943144261837006e-02 2.856993675231933594e-01
2.748040258884429932e-01 3.953515551984310150e-03 -1.521284580230712891e-01
2.630880177021026611e-01 5.056999996304512024e-02 2.640886977314949036e-02
-1.023889984935522079e-02 1.025699079036712646e-02 2.755109667778015137e-01
-2.857196033000946045e-01 -1.166291628032922745e-02 2.184783816337585449e-01
-2.317259907722473145e-01 2.687411308288574219e-01 -1.073711887001991272e-01
1.133114378899335861e-02 -5.246209502220153809e-01 5.416560452431440353e-03
-2.293177992105484009e-01 2.908054590225219727e-01 -2.070638090372085571e-01
1.925266236066818237e-01 5.276818200945854187e-02 2.649165093898773193e-01
-1.430419534444808960e-01 2.728950381278991699e-01 -2.289210855960845947e-01
-4.122720274608582258e-04 4.428307116031646729e-01 -2.390404976904392242e-02
-6.658578664064407349e-02 1.618489474058151245e-01 -2.445242702960968018e-01
2.314918488264083862e-01 2.172330915927886963e-01 1.806568503379821777e-01
2.838988900184631348e-01 -2.880918048322200775e-02 -8.439308404922485352e-02
-3.157614497467875481e-03 -2.038211673498153687e-01 1.510596275329589844e-02
-5.311726406216621399e-02 1.433025747537612915e-01 2.458115816116333008e-01
-2.578211724758148193e-01 1.038038730621337891e-01 -2.367875277996063232e-01
4.418552853167057037e-03 8.244103938341140747e-02 -2.600567042827606201e-01
2.369935512542724609e-01 1.808639764785766602e-01 1.197577193379402161e-01
1.998676508665084839e-01 2.950711548328399658e-02 2.705479264259338379e-01
-1.855096668004989624e-01 2.095239795744419098e-02 2.727534770965576172e-01
-1.730840057134628296e-01 4.072898067533969879e-03 -2.790739834308624268e-01
-2.924224734306335449e-01 -3.556730225682258606e-02 -1.986034363508224487e-01
5.918657034635543823e-02 -8.426261544227600098e-01 1.249754801392555237e-02
-3.428682312369346619e-02 -8.817711472511291504e-01 6.216568127274513245e-02
-2.371348440647125244e-01 2.248261123895645142e-01 2.027462422847747803e-01
1.291515082120895386e-01 1.716210246086120605e-01 2.409192919731140137e-01
1.935173943638801575e-02 -9.100682735443115234e-01 8.718441426753997803e-02
-1.134339421987533569e-01 3.639990687370300293e-01 -2.212455272674560547e-01
-1.912088543176651001e-01 4.704464226961135864e-02 2.662716805934906006e-01
1.242993772029876709e-02 2.831895947456359863e-01 1.778331003151834011e-03
-2.310716062784194946e-01 6.923794746398925781e-02 2.610161006450653076e-01
-2.380029112100601196e-01 9.763008356094360352e-02 -2.567988634109497070e-01
2.278846949338912964e-01 1.213016286492347717e-01 2.500819265842437744e-01
1.755498498678207397e-01 1.929934024810791016e-01 2.375088930130004883e-01
2.184309661388397217e-01 3.422861993312835693e-01 1.472213566303253174e-01
2.224898338317871094e-01 2.930559813976287842e-01 -1.187460273504257202e-01
2.168517857789993286e-01 3.660904169082641602e-01 -1.901872754096984863e-01
1.863300204277038574e-01 2.173126786947250366e-01 -2.357691377401351929e-01
-1.801523864269256592e-01 1.616691201925277710e-01 2.426347732543945312e-01
-2.227468341588973999e-01 3.815211653709411621e-01 -3.167078644037246704e-02
-1.257652789354324341e-01 1.806016713380813599e-01 -2.412988394498825073e-01
-2.164241969585418701e-01 3.456885218620300293e-01 2.205711752176284790e-01
2.705366313457489014e-01 2.046751044690608978e-02 -4.628850147128105164e-02
8.129079826176166534e-03 -2.217653244733810425e-01 -1.227756682783365250e-02
2.246121168136596680e-01 2.731515169143676758e-01 -1.646528542041778564e-01
2.253350019454956055e-01 2.665539979934692383e-01 2.141616046428680420e-01
-5.971284210681915283e-02 -8.950045108795166016e-01 3.972595557570457458e-02
-2.502251863479614258e-01 1.426231414079666138e-01 -2.457475215196609497e-01
-2.371658086776733398e-01 1.092974767088890076e-01 2.524112761020660400e-01
-1.133219301700592041e-01 2.068049274384975433e-02 2.728234827518463135e-01
-2.528301477432250977e-01 1.291702687740325928e-01 1.647832244634628296e-01
1.059375926852226257e-01 -9.172928929328918457e-01 -2.434987761080265045e-02
3.501890227198600769e-03 2.592129409313201904e-01 2.284833043813705444e-01
-2.995737269520759583e-02 -9.646948575973510742e-01 -5.472515523433685303e-02
-1.380015462636947632e-01 3.770739138126373291e-01 -2.206257730722427368e-01
-2.277393341064453125e-01 3.085692524909973145e-01 -1.786247827112674713e-02
-1.859639585018157959e-02 -3.145414590835571289e-01 3.886963706463575363e-03
4.799237009137868881e-03 2.003174871206283569e-01 -2.383239716291427612e-01
-2.732490003108978271e-01 3.565729781985282898e-02 -2.705136127769947052e-02
9.018040448427200317e-02 3.625429272651672363e-01 2.194238305091857910e-01
2.437981218099594116e-01 1.415885388851165771e-01 1.151970252394676208e-01
1.040750928223133087e-02 -3.019658327102661133e-01 -9.314405731856822968e-03
3.620647266507148743e-02 -9.010839462280273438e-01 5.550636723637580872e-02
-2.604600489139556885e-01 9.153589606285095215e-02 -1.622468680143356323e-01
-2.358268499374389648e-01 2.348590493202209473e-01 -1.513510197401046753e-01
5.837582796812057495e-02 3.915113210678100586e-01 2.179817110300064087e-01
8.372331038117408752e-03 8.925371617078781128e-02 1.004056632518768311e-02
2.797258198261260986e-01 -1.393405627459287643e-02 5.176658555865287781e-02
-2.624062001705169678e-01 8.248893916606903076e-02 -2.368752211332321167e-01
2.669700384140014648e-01 3.426896408200263977e-02 5.798427388072013855e-02
-1.477574110031127930e-01 1.029210239648818970e-01 2.537428736686706543e-01
2.582399547100067139e-01 7.105664163827896118e-02 -1.671760082244873047e-01
-5.421539768576622009e-02 1.392289996147155762e-01 -2.485226988792419434e-01
-2.676197886466979980e-01 5.944452062249183655e-02 1.891746968030929565e-01
-2.362859547138214111e-01 2.313396036624908447e-01 -1.987198740243911743e-01
2.572989165782928467e-01 7.540289312601089478e-02 -4.279926791787147522e-02
5.662944540381431580e-02 6.986433267593383789e-02 -2.627884149551391602e-01
-1.409491598606109619e-01 -1.670628972351551056e-02 -2.847849428653717041e-01
2.681704461574554443e-01 2.962353266775608063e-02 -1.853458136320114136e-01
-5.520822852849960327e-02 -9.485257863998413086e-01 -1.102421581745147705e-01
-2.617046535015106201e-01 8.575122058391571045e-02 -2.366094477474689484e-02
-2.902920842170715332e-01 -2.796983718872070312e-02 -2.527193725109100342e-01
-4.001233726739883423e-02 3.568717539310455322e-01 -2.217311412096023560e-01
-1.768329739570617676e-02 -6.614645123481750488e-01 6.084061227738857269e-03
2.689228057861328125e-01 2.671204134821891785e-02 -1.495573967695236206e-01
-1.159681454300880432e-01 2.230745106935501099e-01 2.330926358699798584e-01
6.444783508777618408e-02 4.394744709134101868e-02 2.670049071311950684e-01
-2.450882345438003540e-01 1.722775846719741821e-01 -6.023011356592178345e-02
2.849327623844146729e-01 -3.249588608741760254e-02 1.247576102614402771e-01
-1.002272963523864746e-02 6.688061356544494629e-02 -1.546636596322059631e-02
-2.481611222028732300e-01 1.544482111930847168e-01 -2.252520620822906494e-01
2.552871704101562500e-01 8.476007729768753052e-02 -1.186583340167999268e-01
-2.171087861061096191e-01 1.986395418643951416e-01 -2.385774701833724976e-01
8.367355167865753174e-02 2.053615748882293701e-01 -2.375634908676147461e-01
-2.726167142391204834e-01 3.832857683300971985e-02 -1.211350634694099426e-01
2.338580340147018433e-01 2.015621215105056763e-01 -1.004258766770362854e-01
6.234560161828994751e-02 -8.722820878028869629e-01 -2.460278198122978210e-02
-1.148981675505638123e-01 7.360336929559707642e-02 -2.619527578353881836e-01
-1.364941988140344620e-02 -9.646948575973510742e-01 5.488426983356475830e-02
-2.865552306175231934e-01 -1.464441977441310883e-02 -2.160665690898895264e-01
4.411587119102478027e-02 1.346623897552490234e-01 2.474887520074844360e-01
-3.081866353750228882e-02 2.769870758056640625e-01 -2.284774780273437500e-01
2.236283421516418457e-01 2.821365296840667725e-01 4.413963481783866882e-02
2.422889322042465210e-01 1.500695496797561646e-01 1.559816449880599976e-01
8.414074778556823730e-02 6.687100976705551147e-02 2.615768611431121826e-01
-2.329728305339813232e-01 2.573662996292114258e-01 -1.966808736324310303e-01
2.248169779777526855e-01 9.636040776968002319e-02 -2.570714950561523438e-01
-7.320965826511383057e-02 1.162449717521667480e-01 -2.529839277267456055e-01
4.402332007884979248e-02 -9.612144827842712402e-01 1.082657203078269958e-01
-1.029721274971961975e-01 -9.646948575973510742e-01 -6.050070375204086304e-02
-2.384096831083297729e-01 2.152957767248153687e-01 -6.146376207470893860e-02
-1.742026209831237793e-01 1.669556796550750732e-01 -2.436436712741851807e-01
6.995501928031444550e-03 -3.234883248805999756e-01 -1.317902002483606339e-02
-2.307547479867935181e-01 2.775965034961700439e-01 5.658276006579399109e-02
-4.525805637240409851e-02 4.851403832435607910e-02 -2.678443193435668945e-01
1.704980432987213135e-02 4.230331182479858398e-01 -1.600106246769428253e-02
6.278133392333984375e-02 1.469347774982452393e-01 -2.470945864915847778e-01
-1.904509589076042175e-02 -1.927700489759445190e-01 -3.841717028990387917e-03
-1.048622950911521912e-01 -7.503095082938671112e-03 -2.822161316871643066e-01
1.377754807472229004e-01 1.226626709103584290e-01 -2.517385482788085938e-01
2.165673524141311646e-01 3.720740675926208496e-01 3.233776986598968506e-02
8.955330401659011841e-02 2.727859914302825928e-01 -2.289328724145889282e-01
2.276378273963928223e-01 2.468020617961883545e-01 -9.715844690799713135e-02
9.144899435341358185e-03 -5.424672365188598633e-01 -1.095644664019346237e-02
-1.148830447345972061e-02 3.712531328201293945e-01 2.189698815345764160e-01
4.743601195514202118e-03 -9.370301365852355957e-01 1.082657203078269958e-01
-1.451933383941650391e-02 2.052647806704044342e-02 1.056944113224744797e-02
-7.698825560510158539e-03 -7.581955194473266602e-01 -3.302292898297309875e-02
-2.346338182687759399e-01 2.440150827169418335e-01 1.811945252120494843e-02
-2.767618000507354736e-01 2.204374782741069794e-02 -5.678494647145271301e-02
-2.426351010799407959e-01 1.873767226934432983e-01 1.678922176361083984e-01
-2.564446628093719482e-01 1.105015799403190613e-01 1.997072696685791016e-01
