4.374227225780487061e-01 5.414654612541198730e-01 7.527676969766616821e-02
1.159309223294258118e-01 5.091953277587890625e-01 4.206921532750129700e-02
-4.204161763191223145e-01 -4.485578835010528564e-01 3.462455049157142639e-02
2.696449160575866699e-01 -2.202582657337188721e-01 8.088438212871551514e-02
4.112618267536163330e-01 -1.969886869192123413e-01 4.288230836391448975e-02
-7.828172296285629272e-02 -3.465456888079643250e-02 -7.080736011266708374e-02
3.433740735054016113e-01 4.286945760250091553e-01 8.088438212871551514e-02
4.374227225780487061e-01 5.265227556228637695e-01 -8.956941962242126465e-02
1.897421777248382568e-01 4.047752544283866882e-02 8.088438212871551514e-02
-2.421189695596694946e-01 -3.123246878385543823e-02 -1.097469031810760498e-01
6.916055083274841309e-02 -6.695541739463806152e-01 8.088438212871551514e-02
3.577392697334289551e-01 -4.829347133636474609e-01 6.143400911241769791e-03
3.855338096618652344e-01 3.272463977336883545e-01 5.239614471793174744e-02
-4.139269888401031494e-02 3.966325521469116211e-01 6.152326241135597229e-02
1.280345469713211060e-01 8.895824104547500610e-02 -4.052975028753280640e-02
4.374227225780487061e-01 4.627727568149566650e-01 -6.167698279023170471e-02
-4.027669131755828857e-01 6.131923794746398926e-01 1.974355196580290794e-03
2.655369639396667480e-01 -7.763268947601318359e-01 -1.097469031810760498e-01
2.077320218086242676e-01 -6.469675302505493164e-01 8.088438212871551514e-02
2.336540669202804565e-01 6.512980163097381592e-02 -7.571822404861450195e-02
2.740038335323333740e-01 4.282989799976348877e-01 8.088438212871551514e-02
-2.579545378684997559e-01 -5.067631602287292480e-01 7.789500802755355835e-02
2.008074074983596802e-01 4.915758669376373291e-01 5.854498594999313354e-02
1.848300248384475708e-01 -3.646325320005416870e-02 5.854498594999313354e-02
-3.746803402900695801e-01 6.512980163097381592e-02 -6.091817840933799744e-02
-2.980673015117645264e-01 -9.994618594646453857e-02 6.450153887271881104e-02
-6.894058734178543091e-02 -1.433166563510894775e-01 4.421899840235710144e-02
-1.830401830375194550e-02 -2.223382517695426941e-02 2.183565497398376465e-02
3.533420860767364502e-01 5.202493667602539062e-01 -9.369760006666183472e-02
3.434514999389648438e-01 6.512980163097381592e-02 3.405943885445594788e-02
1.829929798841476440e-01 6.370217800140380859e-01 2.304181642830371857e-02
1.159309223294258118e-01 7.503213826566934586e-03 3.463210910558700562e-02
4.612511992454528809e-01 3.546743392944335938e-01 -5.484311375766992569e-03
-2.624319195747375488e-01 2.213301956653594971e-01 8.088438212871551514e-02
1.662813425064086914e-01 8.895824104547500610e-02 8.159302175045013428e-03
2.714399695396423340e-01 3.350004851818084717e-01 -1.097469031810760498e-01
2.901789844036102295e-01 4.668620824813842773e-01 6.190550699830055237e-02
2.184986621141433716e-01 -5.067631602287292480e-01 4.580255597829818726e-02
-3.693642020225524902e-01 3.510757982730865479e-01 -8.649457246065139771e-02
3.587356805801391602e-01 6.370217800140380859e-01 4.745300486683845520e-02
2.631644010543823242e-01 3.272463977336883545e-01 -3.864546306431293488e-03
-3.752438724040985107e-01 -1.873434931039810181e-01 3.322609886527061462e-02
-6.162000820040702820e-02 -7.471132278442382812e-01 8.088438212871551514e-02
-9.190461784601211548e-02 5.242247581481933594e-01 6.450153887271881104e-02
1.635887473821640015e-01 3.791530728340148926e-01 -4.645149782299995422e-02
-6.727630738168954849e-03 -7.688807249069213867e-01 -8.752067387104034424e-02
-1.834003441035747528e-02 8.895824104547500610e-02 -7.416498661041259766e-02
2.772907316684722900e-01 -3.423337936401367188e-01 8.088438212871551514e-02
4.146215021610260010e-01 6.131923794746398926e-01 7.957447320222854614e-02
5.602430552244186401e-02 6.512980163097381592e-02 -6.134670600295066833e-02
1.842809724621474743e-03 5.806803703308105469e-02 8.088438212871551514e-02
1.114326436072587967e-02 -4.829347133636474609e-01 1.269724871963262558e-02
1.481441110372543335e-01 3.272463977336883545e-01 -6.462576985359191895e-02
1.147404313087463379e-01 3.510757982730865479e-01 -6.309212744235992432e-02
-2.797472178936004639e-01 6.512980163097381592e-02 4.419430624693632126e-03
-2.872978448867797852e-01 -5.067631602287292480e-01 1.651530712842941284e-02
1.134585067629814148e-01 4.971346259117126465e-01 -1.097469031810760498e-01
-2.732172608375549316e-01 -1.489033699035644531e-01 -1.097469031810760498e-01
-1.470804214477539062e-01 -4.829347133636474609e-01 -9.158783406019210815e-02
4.374227225780487061e-01 2.117502987384796143e-01 -5.248409137129783630e-02
-1.206284388899803162e-01 -7.688807249069213867e-01 5.280936509370803833e-02
4.374227225780487061e-01 -4.795209169387817383e-01 6.552119553089141846e-02
-2.811420261859893799e-01 4.563333392143249512e-01 -1.097469031810760498e-01
4.374227225780487061e-01 6.896878480911254883e-01 -8.982458710670471191e-02
4.612511992454528809e-01 -4.185335338115692139e-01 1.387532893568277359e-02
4.612511992454528809e-01 -1.206355020403862000e-01 -6.347325444221496582e-02
-1.851061135530471802e-01 -1.603717207908630371e-01 -1.777134649455547333e-02
-2.641728818416595459e-01 6.131923794746398926e-01 -3.272100584581494331e-03
-2.405979111790657043e-02 -1.380430813878774643e-02 -4.165688529610633850e-02
2.286318093538284302e-01 -2.208171337842941284e-01 -6.231056898832321167e-02
2.657935619354248047e-01 -7.688807249069213867e-01 -2.115372568368911743e-02
3.089142441749572754e-01 -4.359915256500244141e-01 8.088438212871551514e-02
-2.369194328784942627e-01 4.088565111160278320e-01 1.386497355997562408e-02
2.926364541053771973e-01 5.893639326095581055e-01 -1.232117414474487305e-01
1.519320309162139893e-01 -2.208171337842941284e-01 -4.995551332831382751e-02
-1.354153156280517578e-01 -1.969886869192123413e-01 -5.652438476681709290e-02
-4.100805819034576416e-01 3.365501761436462402e-01 8.088438212871551514e-02
4.100713431835174561e-01 5.205982327461242676e-01 -9.612742811441421509e-03
2.577922642230987549e-01 6.131923794746398926e-01 2.616442553699016571e-02
2.880564630031585693e-01 5.294747352600097656e-01 8.088438212871551514e-02
-3.014161949977278709e-03 3.510757982730865479e-01 -1.086086630821228027e-01
-2.654118835926055908e-01 -2.208171337842941284e-01 5.641721934080123901e-02
1.159309223294258118e-01 -2.467862330377101898e-02 -9.803392738103866577e-02
-5.883196741342544556e-02 4.548564255237579346e-01 3.389961645007133484e-02
9.275546669960021973e-02 -4.829347133636474609e-01 5.747615545988082886e-02
4.612511992454528809e-01 -6.841338872909545898e-01 -7.551408559083938599e-02
4.612511992454528809e-01 4.176563918590545654e-01 6.520752608776092529e-02
-4.204161763191223145e-01 -8.333126306533813477e-01 7.673904299736022949e-02
-9.128045290708541870e-02 4.716529548168182373e-01 -2.682027593255043030e-02
-1.215791478753089905e-01 6.512980163097381592e-02 -9.497192688286304474e-03
-1.725817173719406128e-01 -4.829347133636474609e-01 4.067346826195716858e-02
-4.442446529865264893e-01 -2.854431569576263428e-01 -5.261844024062156677e-02
6.343715637922286987e-02 -7.194292265921831131e-03 8.088438212871551514e-02
-5.556847527623176575e-02 -1.694739311933517456e-01 3.389961645007133484e-02
-1.253045499324798584e-01 -2.118623405694961548e-01 -1.097469031810760498e-01
4.374227225780487061e-01 -5.269361734390258789e-01 4.451017826795578003e-02
1.393115371465682983e-01 3.510757982730865479e-01 1.295046135783195496e-02
2.576000988483428955e-01 -4.829347133636474609e-01 2.614585869014263153e-02
1.125915069133043289e-02 3.510757982730865479e-01 -1.863145641982555389e-02
-1.851061135530471802e-01 4.115042686462402344e-01 4.475900530815124512e-02
-6.649891729466617107e-04 -5.758675336837768555e-01 8.088438212871551514e-02
-8.250712603330612183e-02 6.131923794746398926e-01 -3.985939919948577881e-02
4.612511992454528809e-01 -7.440819740295410156e-01 -7.221654057502746582e-02
4.374227225780487061e-01 -4.699102342128753662e-01 -6.692604720592498779e-02
4.374227225780487061e-01 -7.390848994255065918e-01 7.965470850467681885e-02
2.756813466548919678e-01 8.895824104547500610e-02 6.894011795520782471e-02
4.374227225780487061e-01 3.072689846158027649e-02 3.689637035131454468e-02
2.112465798854827881e-01 5.172395110130310059e-01 -6.841630488634109497e-02
-2.878688275814056396e-01 4.318834841251373291e-01 2.885412797331809998e-02
4.612511992454528809e-01 -7.995229959487915039e-02 -9.463739395141601562e-02
-4.017350375652313232e-01 -7.688807249069213867e-01 -1.082429364323616028e-01
-4.362290725111961365e-02 3.651153743267059326e-01 -7.445567753165960312e-03
-5.522457510232925415e-02 6.131923794746398926e-01 4.293520748615264893e-02
-2.638174295425415039e-01 -6.000449061393737793e-01 8.088438212871551514e-02
3.239987790584564209e-01 -7.237260937690734863e-01 8.088438212871551514e-02
4.374227225780487061e-01 -2.213474549353122711e-02 5.354557931423187256e-02
-1.297688782215118408e-01 3.272463977336883545e-01 2.970538660883903503e-02
-2.093861252069473267e-01 -7.312673926353454590e-01 8.088438212871551514e-02
9.908241778612136841e-02 2.316965907812118530e-01 8.088438212871551514e-02
-4.083974659442901611e-01 -1.503269225358963013e-01 -1.097469031810760498e-01
1.117539405822753906e-01 6.131923794746398926e-01 3.713521733880043030e-02
-3.254037797451019287e-01 5.902633666992187500e-01 8.088438212871551514e-02
-1.270231157541275024e-01 -1.022689491510391235e-01 3.122027218341827393e-02
-3.600912392139434814e-01 3.510757982730865479e-01 1.449109986424446106e-02
-4.442446529865264893e-01 7.064741849899291992e-01 6.929812952876091003e-03
3.648868501186370850e-01 3.664084672927856445e-01 3.361888229846954346e-02
3.957621455192565918e-01 -4.353434592485427856e-02 8.088438212871551514e-02
-1.947139948606491089e-01 -5.614799261093139648e-01 8.088438212871551514e-02
-3.757066130638122559e-01 4.624368846416473389e-01 8.088438212871551514e-02
-1.863208562135696411e-01 5.670245289802551270e-01 3.726946562528610229e-02
-3.459509015083312988e-01 -3.125486150383949280e-02 -5.870364606380462646e-02
1.159309223294258118e-01 -1.709023267030715942e-01 -6.460925936698913574e-02
1.741100102663040161e-01 -3.263862729072570801e-01 8.088438212871551514e-02
5.041697621345520020e-02 6.370217800140380859e-01 -3.881566599011421204e-02
4.612511992454528809e-01 6.015244722366333008e-01 -5.144203826785087585e-02
-6.894058734178543091e-02 5.139927864074707031e-01 7.714828476309776306e-03
-2.140697091817855835e-01 3.510757982730865479e-01 -6.298559159040451050e-02
1.159309223294258118e-01 -7.704431563615798950e-02 4.978677257895469666e-02
2.737911045551300049e-01 6.370217800140380859e-01 -5.691294558346271515e-03
3.218081295490264893e-01 -2.049731761217117310e-01 -1.097469031810760498e-01
-2.689749598503112793e-01 -7.292391061782836914e-01 8.088438212871551514e-02
-4.204161763191223145e-01 2.868117988109588623e-01 2.801966853439807892e-02
2.100654095411300659e-01 5.893639326095581055e-01 1.473836891818791628e-04
4.612511992454528809e-01 -5.783622860908508301e-01 -5.586270615458488464e-02
-1.270231157541275024e-01 -1.115350723266601562e-01 -7.174249738454818726e-02
-4.230229854583740234e-01 4.249038398265838623e-01 8.088438212871551514e-02
4.374227225780487061e-01 -7.669522166252136230e-01 -1.084659174084663391e-01
-7.954433560371398926e-02 9.928917884826660156e-02 8.088438212871551514e-02
-1.270231157541275024e-01 4.907912611961364746e-01 -2.061944268643856049e-02
-4.204161763191223145e-01 6.781356930732727051e-01 -9.673204272985458374e-02
-1.318457126617431641e-01 -2.188438624143600464e-01 8.088438212871551514e-02
2.112465798854827881e-01 -3.603538498282432556e-02 -4.694122448563575745e-02
-1.329597085714340210e-01 -4.829347133636474609e-01 7.411212474107742310e-02
-1.193511784076690674e-01 5.510341525077819824e-01 8.088438212871551514e-02
-1.734055429697036743e-01 6.512980163097381592e-02 -8.528561145067214966e-02
3.239904046058654785e-01 -2.718159854412078857e-01 8.088438212871551514e-02
-3.459509015083312988e-01 5.229811072349548340e-01 -2.016890235245227814e-02
1.364090144634246826e-01 4.092856645584106445e-01 8.088438212871551514e-02
-4.204161763191223145e-01 2.543812394142150879e-01 -7.942506670951843262e-02
4.165956974029541016e-01 -5.448223948478698730e-01 8.088438212871551514e-02
-1.372570246458053589e-01 3.272463977336883545e-01 -7.070529460906982422e-02
1.509160101413726807e-01 -1.611803323030471802e-01 8.088438212871551514e-02
-2.878688275814056396e-01 -1.217010766267776489e-01 -2.487098984420299530e-02
4.612511992454528809e-01 1.181103065609931946e-01 -9.443204104900360107e-02
1.847740411758422852e-01 3.832139819860458374e-02 -2.233540639281272888e-02
-4.204161763191223145e-01 3.974793106317520142e-02 2.114067226648330688e-02
-4.204161763191223145e-01 -3.714308142662048340e-01 7.621955126523971558e-02
-4.204161763191223145e-01 -1.499584764242172241e-01 -5.484146624803543091e-02
-3.014698922634124756e-01 3.510757982730865479e-01 -6.419538706541061401e-02
3.997668251395225525e-02 -2.208171337842941284e-01 1.360793597996234894e-02
3.549710810184478760e-01 5.536268949508666992e-01 8.088438212871551514e-02
1.682228893041610718e-01 6.343412995338439941e-01 -1.097469031810760498e-01
3.426485136151313782e-02 -5.067631602287292480e-01 4.881329461932182312e-02
4.374227225780487061e-01 -2.498534917831420898e-01 -6.162780895829200745e-02
3.747811615467071533e-01 -2.208171337842941284e-01 4.212994873523712158e-02
-2.757717669010162354e-01 5.661335587501525879e-01 8.088438212871551514e-02
-3.308617472648620605e-01 1.535894814878702164e-02 6.450153887271881104e-02
-2.948345243930816650e-01 8.895824104547500610e-02 7.387141138315200806e-02
-2.092461735010147095e-01 -1.769304424524307251e-01 6.450153887271881104e-02
3.139032050967216492e-02 -7.901770472526550293e-01 8.088438212871551514e-02
4.612511992454528809e-01 1.668942421674728394e-01 -4.268606379628181458e-02
1.635887473821640015e-01 1.800751127302646637e-02 5.192657187581062317e-02
4.374227225780487061e-01 -1.889743506908416748e-01 -5.426708608865737915e-03
3.224546909332275391e-01 6.512980163097381592e-02 -5.589487031102180481e-03
-6.601912528276443481e-02 3.272463977336883545e-01 -3.440684452652931213e-02
2.357141077518463135e-01 6.370217800140380859e-01 -7.614282518625259399e-02
-1.563393771648406982e-01 -4.829347133636474609e-01 -3.964891657233238220e-02
-2.878688275814056396e-01 3.894475996494293213e-01 -4.331041872501373291e-02
-4.269318655133247375e-02 3.111290931701660156e-01 8.088438212871551514e-02
-2.834362089633941650e-01 2.965055108070373535e-01 8.088438212871551514e-02
-1.411454100161790848e-02 3.510757982730865479e-01 3.356169536709785461e-02
2.112465798854827881e-01 4.197024703025817871e-01 -3.949198871850967407e-02
3.816927075386047363e-01 -4.829347133636474609e-01 -5.774911120533943176e-02
2.163537293672561646e-01 -2.172904461622238159e-01 -1.097469031810760498e-01
4.386841356754302979e-01 -5.687786936759948730e-01 -1.097469031810760498e-01
-8.521511405706405640e-02 3.788890242576599121e-01 -1.008117049932479858e-01
1.635887473821640015e-01 -1.268812865018844604e-01 -9.500620514154434204e-02
-2.337174564599990845e-01 3.669878840446472168e-01 1.386497355997562408e-02
-4.204161763191223145e-01 1.862406283617019653e-01 2.092235349118709564e-02
-3.810153007507324219e-01 -7.927110195159912109e-01 7.036880403757095337e-02
1.680381596088409424e-01 -4.829347133636474609e-01 -6.471860408782958984e-02
-1.070758998394012451e-01 1.747103966772556305e-02 5.753689631819725037e-02
4.374227225780487061e-01 -3.324861526489257812e-01 -3.224512189626693726e-02
3.341630101203918457e-02 -1.969886869192123413e-01 4.954587668180465698e-02
-3.395823538303375244e-01 4.622512459754943848e-01 -1.097469031810760498e-01
1.635887473821640015e-01 5.392794609069824219e-01 -7.865395396947860718e-02
1.159309223294258118e-01 -1.796914823353290558e-02 -3.126408532261848450e-02
-2.945649027824401855e-01 3.510757982730865479e-01 6.085057929158210754e-02
4.374227225780487061e-01 -6.082383394241333008e-01 -3.960861265659332275e-02
-4.442446529865264893e-01 -5.386478900909423828e-01 -6.855195760726928711e-02
-1.294722110033035278e-01 -4.061111807823181152e-02 -2.154463715851306915e-02
-1.851061135530471802e-01 -6.825211644172668457e-02 -1.161219924688339233e-01
7.429206371307373047e-02 4.724310338497161865e-01 8.088438212871551514e-02
-4.442446529865264893e-01 -4.192547500133514404e-01 1.120114000514149666e-03
1.635887473821640015e-01 4.256147742271423340e-01 -2.809408120810985565e-02
2.112465798854827881e-01 -1.089115217328071594e-01 -9.797533601522445679e-02
-4.233849644660949707e-01 4.399939775466918945e-01 -1.097469031810760498e-01
-4.043343365192413330e-01 6.096489429473876953e-01 8.088438212871551514e-02
-6.273745000362396240e-02 4.828972816467285156e-01 -1.216620504856109619e-01
-1.391855031251907349e-01 -4.829347133636474609e-01 8.208470419049263000e-03
2.704482376575469971e-01 -6.731676459312438965e-01 8.088438212871551514e-02
8.181864023208618164e-02 4.031279981136322021e-01 8.088438212871551514e-02
-3.035233914852142334e-01 -3.726492822170257568e-01 8.088438212871551514e-02
-3.959757387638092041e-01 -7.688807249069213867e-01 -5.839016661047935486e-02
-1.036537066102027893e-01 5.652351379394531250e-01 -1.097469031810760498e-01
3.533420860767364502e-01 3.770715892314910889e-01 -1.059125214815139771e-01
3.959328830242156982e-01 6.370217800140380859e-01 2.105110511183738708e-02
-4.159901142120361328e-01 -6.357399281114339828e-03 -6.480845063924789429e-02
-1.234087273478507996e-01 4.472385942935943604e-01 8.088438212871551514e-02
-6.847586482763290405e-02 -4.371810853481292725e-01 8.088438212871551514e-02
-4.204161763191223145e-01 -2.734375298023223877e-01 2.953296713531017303e-02
-2.878688275814056396e-01 3.511028587818145752e-01 -4.017089493572711945e-03
6.827300786972045898e-02 -1.381285041570663452e-01 -5.709984898567199707e-02
7.643344998359680176e-02 6.131923794746398926e-01 -8.301047491841018200e-04
4.612511992454528809e-01 -2.167707830667495728e-01 6.188837811350822449e-03
-2.976894378662109375e-01 -4.829347133636474609e-01 -6.330736726522445679e-02
-2.348491549491882324e-01 -4.829347133636474609e-01 1.244767475873231888e-02
1.021432578563690186e-01 -3.410005867481231689e-01 8.088438212871551514e-02
2.773775160312652588e-01 3.903255760669708252e-01 8.088438212871551514e-02
2.350218147039413452e-01 5.283019542694091797e-01 -2.378312870860099792e-02
4.374227225780487061e-01 -6.083699464797973633e-01 1.038624439388513565e-02
4.442885518074035645e-01 -6.363454461097717285e-01 8.088438212871551514e-02
2.501156628131866455e-01 6.512980163097381592e-02 2.782681770622730255e-02
-3.587458729743957520e-01 -5.067631602287292480e-01 -8.684908039867877960e-03
6.827300786972045898e-02 -3.694961592555046082e-02 3.530945628881454468e-02
-4.204161763191223145e-01 4.018171429634094238e-01 1.280911359935998917e-02
-6.894058734178543091e-02 -8.546221256256103516e-02 -7.343801110982894897e-02
-4.204161763191223145e-01 4.939593747258186340e-02 -6.744301319122314453e-02
-4.300194084644317627e-01 5.048971176147460938e-01 -1.097469031810760498e-01
1.925896704196929932e-01 -9.743150323629379272e-02 8.088438212871551514e-02
3.855720758438110352e-01 3.272463977336883545e-01 -3.680657967925071716e-02
-2.268068194389343262e-01 -1.330014765262603760e-01 -8.965338021516799927e-02
3.626358509063720703e-02 6.370217800140380859e-01 -2.386323874816298485e-03
2.627342939376831055e-01 3.525760471820831299e-01 8.088438212871551514e-02
1.635887473821640015e-01 -1.654279977083206177e-02 -7.219890505075454712e-02
4.219874143600463867e-01 3.272463977336883545e-01 2.079612202942371368e-02
-2.268068194389343262e-01 -8.930035680532455444e-02 -2.603712864220142365e-02
4.593740105628967285e-01 -7.759546041488647461e-01 8.088438212871551514e-02
1.020145043730735779e-01 -7.688807249069213867e-01 -1.055634915828704834e-01
2.302779071033000946e-02 5.208567380905151367e-01 -4.192260280251502991e-02
2.355293780565261841e-01 -2.513546943664550781e-01 8.088438212871551514e-02
-1.851061135530471802e-01 -1.065955683588981628e-01 -9.078025072813034058e-02
3.533420860767364502e-01 4.711453914642333984e-01 3.566361591219902039e-02
-3.176441490650177002e-01 -1.969886869192123413e-01 5.827227234840393066e-02
-5.062216147780418396e-02 6.512980163097381592e-02 -7.059566676616668701e-02
3.489701449871063232e-01 -7.927110195159912109e-01 5.526218563318252563e-02
4.612511992454528809e-01 5.846551656723022461e-01 3.121691569685935974e-02
-1.861118674278259277e-01 -2.117195874452590942e-01 -1.097469031810760498e-01
-1.395279169082641602e-01 -1.782030463218688965e-01 -1.145274937152862549e-02
3.113670945167541504e-01 -4.829347133636474609e-01 -4.816377535462379456e-03
-4.442446529865264893e-01 -7.091453671455383301e-01 3.996878117322921753e-02
2.851865887641906738e-01 -5.662571638822555542e-02 8.088438212871551514e-02
-4.442446529865264893e-01 -6.741696596145629883e-01 -5.569187924265861511e-02
4.612511992454528809e-01 6.907467842102050781e-01 2.500005811452865601e-02
1.166349742561578751e-02 -3.942712247371673584e-01 8.088438212871551514e-02
4.374227225780487061e-01 6.537837982177734375e-01 -2.972158044576644897e-02
1.951964199542999268e-01 -7.560634016990661621e-01 8.088438212871551514e-02
2.984228432178497314e-01 1.718437224626541138e-01 8.088438212871551514e-02
4.392943084239959717e-01 4.380514621734619141e-01 -1.097469031810760498e-01
-1.271128803637111560e-05 6.512980163097381592e-02 3.909187018871307373e-02
-1.578060388565063477e-01 6.131923794746398926e-01 -4.599365405738353729e-03
-1.270231157541275024e-01 4.097689688205718994e-01 -8.668294548988342285e-02
-1.830401830375194550e-02 -9.238900244235992432e-02 3.698043152689933777e-02
-1.626846045255661011e-01 5.982203781604766846e-02 8.088438212871551514e-02
1.871065050363540649e-01 -1.758397668600082397e-01 -1.097469031810760498e-01
8.047504723072052002e-02 -2.084168344736099243e-01 8.088438212871551514e-02
-3.312797248363494873e-01 6.370217800140380859e-01 -5.308689177036285400e-02
2.274002879858016968e-01 6.370217800140380859e-01 8.077335357666015625e-02
4.612511992454528809e-01 3.178157806396484375e-01 -6.031230092048645020e-02
-2.878688275814056396e-01 -1.721081882715225220e-02 -4.132381081581115723e-02
-1.847531646490097046e-02 5.573028922080993652e-01 8.088438212871551514e-02
4.437017440795898438e-01 -8.880266547203063965e-01 -2.798156253993511200e-02
1.706160008907318115e-01 3.947124183177947998e-01 -1.097469031810760498e-01
4.374227225780487061e-01 -3.877310156822204590e-01 -5.783849209547042847e-02
-3.296208679676055908e-01 1.513898819684982300e-01 8.088438212871551514e-02
4.612511992454528809e-01 6.196346879005432129e-01 -1.046248152852058411e-01
4.612511992454528809e-01 5.087400674819946289e-01 -3.387485444545745850e-02
-2.350385636091232300e-01 -4.829347133636474609e-01 -7.924024760723114014e-02
4.255691468715667725e-01 -4.829347133636474609e-01 -2.748941443860530853e-02
-6.894058734178543091e-02 -7.152295112609863281e-02 -1.181251108646392822e-01
4.374227225780487061e-01 -3.412729799747467041e-01 4.137348383665084839e-02
1.113033145666122437e-01 3.272463977336883545e-01 1.030059624463319778e-02
-3.002878129482269287e-01 -4.829347133636474609e-01 7.352826744318008423e-02
-4.442446529865264893e-01 3.875685632228851318e-01 -3.544778004288673401e-02
-4.204161763191223145e-01 4.430242776870727539e-01 -5.239760503172874451e-02
1.770284026861190796e-01 -6.705963015556335449e-01 8.088438212871551514e-02
-4.324237108230590820e-01 -7.336857318878173828e-01 -1.097469031810760498e-01
-9.128045290708541870e-02 3.575255274772644043e-01 1.749493926763534546e-02
4.165900945663452148e-01 3.272463977336883545e-01 -9.154025465250015259e-02
3.945007622241973877e-01 3.908666372299194336e-01 8.088438212871551514e-02
-9.052660316228866577e-02 -7.927110195159912109e-01 -5.065170675516128540e-02
4.612511992454528809e-01 -8.223566412925720215e-01 4.375959187746047974e-02
-3.593821823596954346e-01 2.160018980503082275e-01 8.088438212871551514e-02
3.747634589672088623e-01 -5.067631602287292480e-01 6.517356634140014648e-02
-1.292706727981567383e-01 -8.603536337614059448e-02 -1.097469031810760498e-01
1.446055900305509567e-02 4.960896968841552734e-01 -9.876268357038497925e-02
2.228636760264635086e-03 -1.969886869192123413e-01 7.897736132144927979e-02
2.304222136735916138e-01 2.667581737041473389e-01 8.088438212871551514e-02
3.920264542102813721e-01 5.505750775337219238e-01 8.088438212871551514e-02
-1.559288650751113892e-01 3.510757982730865479e-01 6.866638362407684326e-02
-1.305703222751617432e-01 -7.040428519248962402e-01 8.088438212871551514e-02
2.666453719139099121e-01 -2.208171337842941284e-01 9.466414339840412140e-03
-3.937934637069702148e-01 1.606413722038269043e-01 8.088438212871551514e-02
4.126737639307975769e-02 -3.778062760829925537e-02 1.125245704315602779e-03
-4.026148319244384766e-01 3.510757982730865479e-01 -6.284853070974349976e-02
1.159309223294258118e-01 -1.527449488639831543e-01 3.673041937872767448e-03
-1.851061135530471802e-01 3.575152754783630371e-01 -3.235343843698501587e-02
-3.965905606746673584e-01 3.510757982730865479e-01 -9.698559530079364777e-03
1.656357198953628540e-01 5.602268576622009277e-01 8.088438212871551514e-02
-4.442446529865264893e-01 -9.191849827766418457e-02 6.747262924909591675e-02
2.559253573417663574e-01 5.299319028854370117e-01 4.414146393537521362e-02
3.028564155101776123e-01 6.131923794746398926e-01 4.203776642680168152e-02
1.386369764804840088e-01 -7.927110195159912109e-01 -2.741216309368610382e-02
-3.338164985179901123e-01 -5.067631602287292480e-01 -6.102137267589569092e-02
-3.507100641727447510e-01 -6.714527606964111328e-01 8.088438212871551514e-02
-4.434739947319030762e-01 -1.333011537790298462e-01 8.088438212871551514e-02
-3.116860985755920410e-01 -4.829347133636474609e-01 4.112578183412551880e-02
1.037955805659294128e-01 -5.067631602287292480e-01 -5.523509159684181213e-02
-3.191891610622406006e-01 8.895824104547500610e-02 3.443369641900062561e-04
-2.526990473270416260e-01 3.899691700935363770e-01 8.088438212871551514e-02
1.008608713746070862e-01 6.512980163097381592e-02 -9.027326107025146484e-02
-4.389266073703765869e-01 6.413331627845764160e-01 -1.097469031810760498e-01
-3.336700201034545898e-01 5.500600934028625488e-01 8.088438212871551514e-02
8.087725937366485596e-02 -7.461196184158325195e-01 8.088438212871551514e-02
-1.872473210096359253e-01 5.670245289802551270e-01 -7.453426718711853027e-02
-3.459509015083312988e-01 4.017685949802398682e-01 -2.267843671143054962e-02
-3.646721839904785156e-01 3.510757982730865479e-01 7.751061767339706421e-02
-4.204161763191223145e-01 -4.056428372859954834e-02 1.009888574481010437e-02
-6.892954930663108826e-03 1.135937273502349854e-01 8.088438212871551514e-02
-4.362290725111961365e-02 4.907595217227935791e-01 2.844818681478500366e-02
4.612511992454528809e-01 -4.164753258228302002e-01 5.805274471640586853e-02
-4.173466563224792480e-01 -2.329095602035522461e-01 8.088438212871551514e-02
-1.187988445162773132e-01 -7.927110195159912109e-01 -1.031924933195114136e-01
4.301454424858093262e-01 4.268341958522796631e-01 1.237462181597948074e-02
-3.551703691482543945e-02 -5.992229580879211426e-01 8.088438212871551514e-02
-4.442446529865264893e-01 3.910001218318939209e-01 -8.365214616060256958e-02
4.612511992454528809e-01 1.533192992210388184e-01 7.306858152151107788e-02
-3.018011152744293213e-01 -2.208171337842941284e-01 -5.454216524958610535e-02
2.112465798854827881e-01 -1.553508639335632324e-01 2.000560425221920013e-02
-4.204161763191223145e-01 4.903020337224006653e-02 -2.486138045787811279e-02
-4.085931181907653809e-02 1.975064128637313843e-01 8.088438212871551514e-02
-2.585264742374420166e-01 -1.600005775690078735e-01 8.088438212871551514e-02
-2.317283302545547485e-01 -7.688807249069213867e-01 2.905015088617801666e-02
-4.442446529865264893e-01 1.037955060601234436e-01 -1.037324145436286926e-01
8.960188925266265869e-02 -2.208171337842941284e-01 -5.637641251087188721e-02
3.232187926769256592e-01 2.514488399028778076e-01 8.088438212871551514e-02
-4.442446529865264893e-01 5.883731245994567871e-01 -1.029028072953224182e-01
-1.947307884693145752e-01 5.218653082847595215e-01 6.450153887271881104e-02
3.087621927261352539e-01 3.272463977336883545e-01 -9.156246483325958252e-02
-6.920154392719268799e-02 6.512980163097381592e-02 -2.257572254166007042e-03
-1.555612683296203613e-01 5.004037618637084961e-01 -1.097469031810760498e-01
-1.950293481349945068e-01 -4.168746769428253174e-01 8.088438212871551514e-02
3.488385975360870361e-01 -9.883929789066314697e-02 8.088438212871551514e-02
1.752398610115051270e-01 -2.021294385194778442e-01 8.088438212871551514e-02
-2.699359357357025146e-01 3.272463977336883545e-01 -9.779349714517593384e-02
-3.160021007061004639e-01 -7.927110195159912109e-01 -4.647507332265377045e-03
1.635887473821640015e-01 -1.897533833980560303e-01 -2.417572960257530212e-02
-1.830401830375194550e-02 -4.879302531480789185e-02 -6.176225468516349792e-02
-3.727593123912811279e-01 4.918660521507263184e-01 -2.892714366316795349e-02
3.286683559417724609e-01 3.881283998489379883e-01 6.931107491254806519e-02
-2.183713950216770172e-02 -4.829347133636474609e-01 -1.497912127524614334e-02
3.091129958629608154e-01 -2.325615584850311279e-01 8.088438212871551514e-02
-2.385232597589492798e-01 -1.644278503954410553e-02 -4.025778546929359436e-02
2.112465798854827881e-01 3.694696128368377686e-01 2.174963243305683136e-02
-4.204161763191223145e-01 -3.972633183002471924e-01 3.882914036512374878e-02
4.612511992454528809e-01 -5.577246546745300293e-01 6.023024022579193115e-02
-3.649119734764099121e-01 -5.067631602287292480e-01 -1.025754213333129883e-01
-2.116728723049163818e-01 3.510757982730865479e-01 -9.876902401447296143e-02
2.259858846664428711e-01 -7.688807249069213867e-01 2.992295473814010620e-02
-4.362290725111961365e-02 -1.044616475701332092e-01 -3.503968939185142517e-02
9.147960692644119263e-02 3.073156252503395081e-02 8.088438212871551514e-02
-4.309514760971069336e-01 8.591577410697937012e-02 8.088438212871551514e-02
-4.442446529865264893e-01 -7.693345658481121063e-03 7.987675815820693970e-02
2.780374139547348022e-02 -6.638051271438598633e-01 8.088438212871551514e-02
4.374227225780487061e-01 -8.615261316299438477e-01 3.541329503059387207e-02
1.376620233058929443e-01 -1.969886869192123413e-01 6.371194869279861450e-02
-7.871267944574356079e-02 3.678013980388641357e-01 6.450153887271881104e-02
-1.712130308151245117e-01 -4.935446083545684814e-01 8.088438212871551514e-02
-3.459509015083312988e-01 -4.613065719604492188e-02 -1.993211172521114349e-02
-1.658213138580322266e-01 -7.697259783744812012e-01 -1.097469031810760498e-01
2.944585978984832764e-01 5.863858461380004883e-01 -5.766496062278747559e-02
-1.851061135530471802e-01 -2.003804780542850494e-02 -3.504454344511032104e-02
-1.684019416570663452e-01 -6.446238756179809570e-01 8.088438212871551514e-02
4.028764739632606506e-02 -6.814752519130706787e-02 8.088438212871551514e-02
1.471280902624130249e-01 -7.688807249069213867e-01 1.582797430455684662e-02
4.185997545719146729e-01 -6.042732000350952148e-01 8.088438212871551514e-02
-3.727593123912811279e-01 -1.598449498414993286e-01 -2.920974604785442352e-02
-3.136826753616333008e-01 -1.554003059864044189e-01 8.088438212871551514e-02
-4.204161763191223145e-01 5.656176209449768066e-01 -7.511934638023376465e-02
3.485213518142700195e-01 -5.067631602287292480e-01 -3.164026513695716858e-02
6.827300786972045898e-02 4.289343059062957764e-01 1.412947475910186768e-02
2.499290704727172852e-01 3.702738285064697266e-01 -1.097469031810760498e-01
-2.143495976924896240e-01 5.040172934532165527e-01 -1.171930581331253052e-01
7.262015342712402344e-02 4.643093943595886230e-01 -1.097469031810760498e-01
3.977316915988922119e-01 -5.067631602287292480e-01 4.876405932009220123e-03
2.112465798854827881e-01 -1.201918646693229675e-01 -3.980005905032157898e-02
-9.839819371700286865e-02 -4.829347133636474609e-01 1.964465249329805374e-03
-4.432556927204132080e-01 1.859560757875442505e-01 8.088438212871551514e-02
4.612511992454528809e-01 -1.383873224258422852e-01 4.495017603039741516e-02
3.726213276386260986e-01 -7.927110195159912109e-01 -7.618014514446258545e-02
8.348084986209869385e-02 1.561591634526848793e-03 -1.097469031810760498e-01
-3.727593123912811279e-01 -1.029424667358398438e-01 -1.484580989927053452e-02
-1.270231157541275024e-01 3.971540629863739014e-01 -3.544525802135467529e-02
-2.324896305799484253e-01 -1.969886869192123413e-01 5.033415183424949646e-02
2.112465798854827881e-01 4.996089041233062744e-01 1.785927079617977142e-02
2.235171794891357422e-01 -5.893771648406982422e-01 8.088438212871551514e-02
-3.254140317440032959e-01 3.090975992381572723e-02 -1.037887707352638245e-01
2.008820325136184692e-01 5.863858461380004883e-01 3.803451731801033020e-02
1.159309223294258118e-01 5.496560931205749512e-01 1.873058639466762543e-02
-3.872784376144409180e-01 -4.188818857073783875e-02 -1.097469031810760498e-01
-2.878688275814056396e-01 4.836128950119018555e-01 -3.870576247572898865e-02
4.374227225780487061e-01 -6.836366653442382812e-01 1.429881155490875244e-02
1.273506581783294678e-01 5.043036937713623047e-01 8.088438212871551514e-02
6.827300786972045898e-02 5.545150637626647949e-01 -5.249771103262901306e-02
1.159309223294258118e-01 3.613237142562866211e-01 -1.096946597099304199e-01
-1.164094731211662292e-01 3.826050758361816406e-01 8.088438212871551514e-02
-1.359853744506835938e-01 -1.969886869192123413e-01 2.122949250042438507e-02
-4.362290725111961365e-02 -1.420162618160247803e-01 -8.331430703401565552e-02
-3.906950056552886963e-01 6.512980163097381592e-02 7.381058484315872192e-02
-2.056989669799804688e-01 4.570619761943817139e-01 6.450153887271881104e-02
-3.634658455848693848e-01 -2.758530080318450928e-01 8.088438212871551514e-02
2.826712429523468018e-01 -7.927110195159912109e-01 -6.536170840263366699e-02
-4.204161763191223145e-01 5.954432487487792969e-01 2.776552177965641022e-02
-3.379141688346862793e-01 -2.313999831676483154e-01 8.088438212871551514e-02
-2.521233558654785156e-01 4.267707467079162598e-01 -1.097469031810760498e-01
-9.025293402373790741e-03 -1.440318822860717773e-01 -1.097469031810760498e-01
8.494600653648376465e-02 6.131923794746398926e-01 -1.035102680325508118e-01
-8.426337689161300659e-02 6.131923794746398926e-01 7.112740725278854370e-02
3.930807411670684814e-01 8.895824104547500610e-02 -3.020785376429557800e-02
-4.204161763191223145e-01 -8.032006025314331055e-01 4.914599657058715820e-02
4.374227225780487061e-01 -7.954857349395751953e-01 7.861025631427764893e-03
-4.442446529865264893e-01 5.862057805061340332e-01 -4.279419779777526855e-02
4.612511992454528809e-01 4.914144873619079590e-01 2.606823481619358063e-02
-9.128045290708541870e-02 -1.290238946676254272e-01 -6.555110216140747070e-02
4.278260469436645508e-01 8.895824104547500610e-02 -6.966296583414077759e-02
1.635887473821640015e-01 -6.978070735931396484e-02 3.196330368518829346e-02
3.288288414478302002e-01 4.312331974506378174e-01 -9.748999774456024170e-02
-9.128045290708541870e-02 4.151438772678375244e-01 4.772954061627388000e-02
3.827740550041198730e-01 4.673994183540344238e-01 8.088438212871551514e-02
-4.080519825220108032e-02 -4.829347133636474609e-01 7.989914715290069580e-02
-8.830142766237258911e-02 -3.336620703339576721e-02 5.216972203925251961e-04
-4.442446529865264893e-01 -6.043711900711059570e-01 -3.946400061249732971e-02
4.374227225780487061e-01 -1.535389274358749390e-01 -8.873952925205230713e-02
-7.682431489229202271e-02 -2.208171337842941284e-01 1.872939523309469223e-03
-4.127293527126312256e-01 5.297928452491760254e-01 1.937938481569290161e-02
-3.242123723030090332e-01 4.759670794010162354e-01 6.450153887271881104e-02
-6.894058734178543091e-02 -1.829397976398468018e-01 -3.403990343213081360e-02
-4.174381196498870850e-01 3.510757982730865479e-01 3.073250874876976013e-02
1.387711614370346069e-02 -7.688807249069213867e-01 4.569087550044059753e-02
1.594528257846832275e-01 6.512980163097381592e-02 -4.656746610999107361e-02
1.161333769559860229e-01 1.867108345031738281e-01 8.088438212871551514e-02
-1.415459513664245605e-01 -3.934585750102996826e-01 8.088438212871551514e-02
7.312135398387908936e-02 -1.707305610179901123e-01 -1.097469031810760498e-01
-3.499020934104919434e-01 6.370217800140380859e-01 2.770711667835712433e-02
3.683753013610839844e-01 8.895824104547500610e-02 1.392319239675998688e-02
-1.270231157541275024e-01 -1.421680748462677002e-01 3.029027394950389862e-02
-1.721217483282089233e-01 -1.969886869192123413e-01 -4.110110923647880554e-02
-3.946742117404937744e-01 -1.626649051904678345e-01 8.088438212871551514e-02
5.871914327144622803e-02 5.968502163887023926e-01 8.088438212871551514e-02
-4.442446529865264893e-01 -4.616897106170654297e-01 1.088579534552991390e-03
-2.160028517246246338e-01 5.061631202697753906e-01 8.088438212871551514e-02
-2.878688275814056396e-01 -3.964463993906974792e-02 7.295730523765087128e-03
-1.851061135530471802e-01 4.822077751159667969e-01 -4.368603602051734924e-02
2.019549757242202759e-01 1.213813424110412598e-01 8.088438212871551514e-02
-2.878688275814056396e-01 5.048354864120483398e-01 -8.741487562656402588e-02
-4.442446529865264893e-01 -5.675027146935462952e-02 -8.369869738817214966e-02
-1.270231157541275024e-01 5.547977685928344727e-01 -2.535763382911682129e-02
2.162607386708259583e-02 -6.177613139152526855e-01 8.088438212871551514e-02
1.100727021694183350e-01 -8.458144962787628174e-02 -1.097469031810760498e-01
-2.995404899120330811e-01 3.688099980354309082e-01 -1.097469031810760498e-01
-9.560204297304153442e-02 3.510757982730865479e-01 -3.704122453927993774e-02
-4.442446529865264893e-01 3.406804502010345459e-01 -7.688781619071960449e-02
-1.625558584928512573e-01 -5.065068975090980530e-02 8.088438212871551514e-02
-2.166307568550109863e-01 6.131923794746398926e-01 -1.186192873865365982e-02
-7.794380187988281250e-02 4.913435876369476318e-01 8.088438212871551514e-02
-6.894058734178543091e-02 4.362097382545471191e-01 -1.019908115267753601e-01
2.235059887170791626e-01 -4.585595130920410156e-01 8.088438212871551514e-02
4.374227225780487061e-01 -6.443122625350952148e-01 -7.337410002946853638e-02
-4.192835390567779541e-01 6.131923794746398926e-01 -2.904357947409152985e-02
-2.049572318792343140e-01 -5.067631602287292480e-01 2.902449294924736023e-02
1.777398213744163513e-02 6.370217800140380859e-01 -6.503880769014358521e-02
5.228406563401222229e-02 6.131923794746398926e-01 -6.981532275676727295e-02
2.112465798854827881e-01 -1.251687481999397278e-02 4.175880551338195801e-02
-3.307233378291130066e-02 -7.203235030174255371e-01 8.088438212871551514e-02
4.374227225780487061e-01 -5.360262393951416016e-01 -2.317938394844532013e-02
-4.442446529865264893e-01 2.443226724863052368e-01 9.151625446975231171e-03
-1.225065365433692932e-01 -7.688807249069213867e-01 2.409594133496284485e-03
-1.270231157541275024e-01 1.527357939630746841e-02 -1.048804521560668945e-01
-4.044546782970428467e-01 -5.202261209487915039e-01 8.088438212871551514e-02
-4.442446529865264893e-01 -8.304717540740966797e-01 -2.565917558968067169e-02
-1.002165898680686951e-01 4.957693442702293396e-02 8.088438212871551514e-02
-3.872737586498260498e-01 6.370217800140380859e-01 -3.637693449854850769e-02
4.345444738864898682e-01 4.640015363693237305e-01 8.088438212871551514e-02
2.417449057102203369e-01 -9.599396586418151855e-02 8.088438212871551514e-02
-4.204161763191223145e-01 4.851700365543365479e-01 -6.001225486397743225e-02
-2.051401138305664062e-01 6.370217800140380859e-01 -7.672837376594543457e-02
-2.073876708745956421e-01 -5.247072577476501465e-01 8.088438212871551514e-02
2.613637447357177734e-01 -1.969886869192123413e-01 -4.921444505453109741e-02
-2.502975165843963623e-01 -1.969886869192123413e-01 -2.380766719579696655e-02
3.466762229800224304e-02 -2.701534032821655273e-01 8.088438212871551514e-02
4.126737639307975769e-02 5.180232524871826172e-01 3.308932110667228699e-02
3.621653318405151367e-01 -1.969886869192123413e-01 -1.429756265133619308e-02
-3.727593123912811279e-01 4.134122729301452637e-01 -7.701265066862106323e-02
-1.423334032297134399e-01 5.102850794792175293e-01 8.088438212871551514e-02
3.398782014846801758e-01 6.512980163097381592e-02 -7.180257141590118408e-02
1.457304805517196655e-01 3.832139819860458374e-02 2.474600635468959808e-02
4.409945383667945862e-02 3.635246455669403076e-01 8.088438212871551514e-02
-2.333246469497680664e-01 5.374265313148498535e-01 -1.067681610584259033e-01
-2.703184485435485840e-01 -7.927110195159912109e-01 6.568941473960876465e-02
-2.380452677607536316e-02 1.119270455092191696e-02 8.088438212871551514e-02
2.635198831558227539e-01 -1.446905918419361115e-02 8.088438212871551514e-02
5.470618605613708496e-02 -4.966253042221069336e-01 8.088438212871551514e-02
-1.734923124313354492e-01 4.323360025882720947e-01 -1.097469031810760498e-01
4.374227225780487061e-01 -1.971476711332798004e-02 6.264782045036554337e-03
-3.091343939304351807e-01 -7.927110195159912109e-01 -6.656657159328460693e-02
-4.225919246673583984e-01 -8.468493223190307617e-01 -1.097469031810760498e-01
2.341270744800567627e-01 -1.726228445768356323e-01 8.088438212871551514e-02
-1.851061135530471802e-01 -1.225539147853851318e-01 -4.346146807074546814e-02
4.320039451122283936e-01 -1.969886869192123413e-01 -6.939202547073364258e-02
-2.938250303268432617e-01 5.766333937644958496e-01 -7.210822403430938721e-02
-1.138353720307350159e-01 6.131923794746398926e-01 5.717120133340358734e-03
-2.789159119129180908e-01 8.895824104547500610e-02 3.599081188440322876e-02
-1.571240127086639404e-01 -1.234065741300582886e-01 8.088438212871551514e-02
-1.947995275259017944e-02 6.131923794746398926e-01 -1.956785656511783600e-02
2.133523076772689819e-01 4.203816950321197510e-01 -1.097469031810760498e-01
-6.894058734178543091e-02 4.837528467178344727e-01 -7.465061545372009277e-02
-9.401036798954010010e-02 2.429054975509643555e-01 8.088438212871551514e-02
2.404620647430419922e-01 6.010785102844238281e-01 8.088438212871551514e-02
-4.086895287036895752e-01 -1.653719693422317505e-01 3.322609886527061462e-02
-3.830716013908386230e-01 -4.936933517456054688e-02 3.322609886527061462e-02
1.563049256801605225e-01 -5.067631602287292480e-01 2.132493630051612854e-02
1.950210183858871460e-01 3.272463977336883545e-01 -8.126688003540039062e-02
3.155804574489593506e-01 -2.208171337842941284e-01 8.562444709241390228e-03
4.374227225780487061e-01 1.928508281707763672e-01 4.868743568658828735e-02
4.180912971496582031e-01 -5.067631602287292480e-01 8.056623488664627075e-02
4.132686853408813477e-01 6.370217800140380859e-01 -5.924804508686065674e-02
-8.819787204265594482e-02 -5.067631602287292480e-01 -4.893435910344123840e-02
-2.878688275814056396e-01 -7.223367691040039062e-02 -4.135030880570411682e-02
1.397556364536285400e-01 -6.030304431915283203e-01 8.088438212871551514e-02
-1.589806675910949707e-01 -2.208171337842941284e-01 1.823433116078376770e-02
3.102838695049285889e-01 -5.003656148910522461e-01 8.088438212871551514e-02
8.607902377843856812e-02 4.198806285858154297e-01 -1.097469031810760498e-01
-4.442446529865264893e-01 -3.216821551322937012e-01 -7.579705864191055298e-02
1.994424313306808472e-01 6.512980163097381592e-02 2.186980284750461578e-02
1.573368012905120850e-01 -7.927110195159912109e-01 -7.798966765403747559e-02
-3.727593123912811279e-01 4.490383267402648926e-01 -8.080408908426761627e-03
2.552461624145507812e-01 3.272463977336883545e-01 5.233204737305641174e-02
2.112465798854827881e-01 -1.242688372731208801e-01 -1.508758403360843658e-03
6.827300786972045898e-02 4.910814464092254639e-01 5.059118941426277161e-02
1.635887473821640015e-01 4.828543663024902344e-01 -2.466840669512748718e-03
4.126737639307975769e-02 -1.063060685992240906e-01 6.464820355176925659e-02
1.822895109653472900e-01 -4.829347133636474609e-01 4.726650193333625793e-02
4.612511992454528809e-01 -8.325625658035278320e-01 -6.953150779008865356e-02
3.531051278114318848e-01 6.131923794746398926e-01 1.875875890254974365e-02
-3.511774837970733643e-01 -7.111802101135253906e-01 8.088438212871551514e-02
1.500408649444580078e-01 -1.588385552167892456e-01 -1.097469031810760498e-01
-9.128045290708541870e-02 4.359335899353027344e-01 -5.879020900465548038e-04
2.450738251209259033e-01 -1.336848884820938110e-01 8.088438212871551514e-02
1.738823801279067993e-01 -4.131156504154205322e-01 8.088438212871551514e-02
4.612511992454528809e-01 -7.364948987960815430e-01 5.783311650156974792e-02
-6.145888566970825195e-02 -1.969886869192123413e-01 -8.399940282106399536e-02
1.960575580596923828e-01 -7.927110195159912109e-01 7.253342121839523315e-02
4.374227225780487061e-01 5.763264298439025879e-01 -6.592831760644912720e-02
2.970625758171081543e-01 3.272463977336883545e-01 -1.998535729944705963e-02
-1.270231157541275024e-01 4.703775346279144287e-01 -8.978829532861709595e-02
-2.963879406452178955e-01 6.512980163097381592e-02 -6.339087337255477905e-02
4.612511992454528809e-01 1.385967880487442017e-01 -1.813228987157344818e-02
-3.717078268527984619e-01 3.272463977336883545e-01 4.948700591921806335e-02
-1.698303520679473877e-01 8.895824104547500610e-02 -6.809206679463386536e-04
-4.204161763191223145e-01 -6.079761981964111328e-01 2.938929200172424316e-02
-4.204161763191223145e-01 -2.946237623691558838e-01 -3.177592530846595764e-02
1.295450329780578613e-01 6.370217800140380859e-01 -3.394548594951629639e-02
1.159309223294258118e-01 -1.808583140373229980e-01 2.821680717170238495e-02
-3.670279681682586670e-01 6.131923794746398926e-01 -7.552807778120040894e-02
2.635147655382752419e-03 6.512980163097381592e-02 -4.978997632861137390e-03
-3.727593123912811279e-01 5.114699602127075195e-01 -7.038407027721405029e-02
7.955773919820785522e-02 -4.829347133636474609e-01 -6.952105462551116943e-02
1.721824854612350464e-01 6.131923794746398926e-01 -3.453286597505211830e-03
-4.244439005851745605e-01 -6.171996593475341797e-01 -1.097469031810760498e-01
3.533420860767364502e-01 5.120670199394226074e-01 3.140145912766456604e-02
1.159309223294258118e-01 -7.892753183841705322e-02 -2.092526992782950401e-03
2.078803628683090210e-01 3.510757982730865479e-01 6.767648458480834961e-02
-3.224107623100280762e-01 6.131923794746398926e-01 3.669465705752372742e-02
-3.687670826911926270e-01 -1.969886869192123413e-01 -1.061299070715904236e-01
5.516195297241210938e-02 3.510757982730865479e-01 -6.890182942152023315e-02
-1.738376595312729478e-04 3.875573873519897461e-01 8.088438212871551514e-02
2.148367017507553101e-01 -4.946790933609008789e-01 8.088438212871551514e-02
-1.851061135530471802e-01 3.600949943065643311e-01 1.984288915991783142e-02
2.938167154788970947e-01 6.016681790351867676e-01 8.088438212871551514e-02
-2.624048590660095215e-01 -4.700278043746948242e-01 8.088438212871551514e-02
6.827300786972045898e-02 4.814073145389556885e-01 -5.796444788575172424e-02
2.169359177350997925e-01 3.272463977336883545e-01 -4.206245765089988708e-02
-1.243295893073081970e-01 3.272463977336883545e-01 6.985603272914886475e-02
-1.067213565111160278e-01 1.596673280000686646e-01 8.088438212871551514e-02
-4.075820744037628174e-01 8.895824104547500610e-02 -7.614636421203613281e-02
4.265385270118713379e-01 5.119205713272094727e-01 -4.619156941771507263e-02
-1.541132777929306030e-01 1.416551172733306885e-01 8.088438212871551514e-02
5.951646715402603149e-02 3.328443467617034912e-01 -1.097469031810760498e-01
-4.442446529865264893e-01 -1.560036838054656982e-01 -1.028594225645065308e-01
-6.082277372479438782e-02 -1.623766124248504639e-01 -1.216620504856109619e-01
4.612511992454528809e-01 -4.476575553417205811e-01 3.668495267629623413e-02
-4.442446529865264893e-01 -1.208521425724029541e-01 -4.754467681050300598e-02
4.374227225780487061e-01 -5.442984402179718018e-02 -6.096754223108291626e-02
-4.442446529865264893e-01 -3.640387654304504395e-01 -7.728695124387741089e-02
3.821871876716613770e-01 -2.042277306318283081e-01 8.088438212871551514e-02
-1.270231157541275024e-01 -2.452271990478038788e-02 4.486965760588645935e-02
-7.635016739368438721e-02 -4.829347133636474609e-01 4.293418303132057190e-02
