2.762339711189270020e-01 -1.688676923513412476e-01 -2.245898246765136719e-01
3.407849669456481934e-01 -5.952727794647216797e-01 1.039088293910026550e-01
-2.291703224182128906e-01 3.158421814441680908e-01 2.736236155033111572e-01
-4.962763935327529907e-02 9.555616229772567749e-02 3.521584570407867432e-01
3.052932024002075195e-01 6.147095561027526855e-01 -1.877548173069953918e-02
-1.491441130638122559e-01 5.785576254129409790e-02 3.236562609672546387e-01
1.311034560203552246e-01 -4.994119107723236084e-01 -3.319545686244964600e-01
-3.531982600688934326e-01 -4.245309829711914062e-01 5.917986854910850525e-02
7.430770248174667358e-02 -3.082172572612762451e-01 -3.506286740303039551e-01
3.507010936737060547e-01 3.286735713481903076e-01 -5.630225688219070435e-02
7.790742814540863037e-02 -6.631809473037719727e-01 -3.490755259990692139e-01
3.236012756824493408e-01 6.716896295547485352e-01 1.252932101488113403e-01
-3.031590878963470459e-01 3.816907703876495361e-01 -1.848889589309692383e-01
-4.845590889453887939e-02 -6.078195571899414062e-01 3.523129522800445557e-01
-2.433076947927474976e-01 -8.063876032829284668e-01 7.464090734720230103e-02
3.331822156906127930e-01 3.569033443927764893e-01 1.222636923193931580e-01
-2.239732816815376282e-02 -6.988094449043273926e-01 3.466546237468719482e-01
-3.547720015048980713e-01 3.238990008831024170e-01 -4.936145991086959839e-02
-3.368131220340728760e-01 7.080633640289306641e-01 8.221793919801712036e-02
7.262892276048660278e-02 7.927929759025573730e-01 3.223249912261962891e-01
-3.482633456587791443e-02 8.694900870323181152e-01 8.373287320137023926e-02
1.286162808537483215e-02 5.773229598999023438e-01 3.529776334762573242e-01
-2.577708661556243896e-01 8.413594961166381836e-01 -2.031419984996318817e-02
-2.633795440196990967e-01 -3.524689376354217529e-01 -2.454593032598495483e-01
3.272243142127990723e-01 -1.516062915325164795e-01 -1.387817412614822388e-01
2.083257734775543213e-01 -1.160892248153686523e-01 2.871945798397064209e-01
3.522710800170898438e-01 2.432530373334884644e-01 -4.437420517206192017e-02
5.713297054171562195e-03 1.138604879379272461e-01 3.575246930122375488e-01
3.239495456218719482e-01 -7.547316551208496094e-01 -9.056454896926879883e-02
2.619917392730712891e-01 -3.373794853687286377e-01 2.410153001546859741e-01
1.267998069524765015e-01 2.116558104753494263e-01 -3.337361216545104980e-01
-1.360487490892410278e-01 -8.108813166618347168e-01 2.883226871490478516e-01
-1.898532658815383911e-01 -4.890726506710052490e-01 3.037931621074676514e-01
-3.606980443000793457e-01 -6.239247918128967285e-01 2.223125658929347992e-03
3.129998743534088135e-01 -3.289799988269805908e-01 -1.731210798025131226e-01
-2.144796699285507202e-01 -5.067450404167175293e-01 -2.870306968688964844e-01
5.864350870251655579e-02 3.854495584964752197e-01 3.426299393177032471e-01
-1.503218412399291992e-01 -2.066643685102462769e-01 -3.253029286861419678e-01
-1.229727454483509064e-02 -1.319313943386077881e-01 -3.592078983783721924e-01
2.800077497959136963e-01 2.694222629070281982e-01 2.175366431474685669e-01
1.239023059606552124e-01 -7.067304849624633789e-01 3.211379051208496094e-01
-3.991628810763359070e-02 -6.612598896026611328e-01 -3.549257814884185791e-01
-3.971678763628005981e-02 1.203226149082183838e-01 -3.555979728698730469e-01
-3.481400310993194580e-01 -5.220049619674682617e-01 9.377366304397583008e-02
-3.489854335784912109e-01 2.230548262596130371e-01 9.117902815341949463e-02
3.520791530609130859e-01 -3.694532215595245361e-01 -4.582735523581504822e-02
-2.473286092281341553e-01 5.358554720878601074e-01 -2.138339877128601074e-01
-2.856214642524719238e-01 -1.536490321159362793e-01 -2.164730876684188843e-01
1.925641298294067383e-01 -7.078080773353576660e-01 -2.875371575355529785e-01
-3.148527070879936218e-02 4.670036137104034424e-01 2.779338359832763672e-01
-1.795252561569213867e-01 3.405303955078125000e-01 -3.132055401802062988e-01
-2.962855696678161621e-01 5.145618915557861328e-01 -9.702967107295989990e-02
7.110481709241867065e-02 -5.527745485305786133e-01 -3.510508835315704346e-01
2.168153971433639526e-02 6.649107336997985840e-01 3.487058281898498535e-01
-1.336698830127716064e-01 2.386882007122039795e-01 3.300653994083404541e-01
-3.312577605247497559e-01 5.478339791297912598e-01 4.758313670754432678e-02
-8.533399552106857300e-02 -3.846621140837669373e-02 3.474578559398651123e-01
2.252894788980484009e-01 -4.118166267871856689e-01 -2.763132154941558838e-01
-7.419721037149429321e-02 2.603066265583038330e-01 -3.510593175888061523e-01
-2.791917324066162109e-01 -5.957708358764648438e-01 -2.248529046773910522e-01
-2.514984011650085449e-01 -7.297766208648681641e-01 2.326635420322418213e-01
9.500032663345336914e-02 1.058649793267250061e-01 3.447738289833068848e-01
2.175322324037551880e-01 7.895410060882568359e-02 -2.822645604610443115e-01
-1.056713536381721497e-01 4.777444601058959961e-01 -2.652278244495391846e-01
-3.304667174816131592e-01 -7.802782654762268066e-01 -2.580633945763111115e-02
-1.837605684995651245e-01 4.420270621776580811e-01 -2.168110609054565430e-01
3.845164179801940918e-02 1.656075716018676758e-01 -3.553489148616790771e-01
2.957506477832794189e-01 3.040799498558044434e-01 -1.991545706987380981e-01
-7.687770575284957886e-02 -2.087118178606033325e-01 3.485710024833679199e-01
1.135050058364868164e-01 -6.177150011062622070e-01 3.371092677116394043e-01
-2.111131548881530762e-01 -6.774512529373168945e-01 2.821232676506042480e-01
2.950166761875152588e-01 -5.588887929916381836e-01 1.979768872261047363e-01
-3.509458005428314209e-01 -2.118667662143707275e-01 -7.842819392681121826e-02
-2.939048707485198975e-01 5.171804428100585938e-01 1.056239232420921326e-01
-2.998768091201782227e-01 -7.698510885238647461e-01 -1.474948227405548096e-01
-3.426109254360198975e-01 -6.188235282897949219e-01 -1.092600077390670776e-01
5.322504416108131409e-02 6.740254759788513184e-01 -3.452858626842498779e-01
-3.316509723663330078e-01 6.434355378150939941e-01 -1.268799901008605957e-01
1.788461804389953613e-01 2.345474511384963989e-01 3.098156750202178955e-01
3.421705365180969238e-01 -6.323130130767822266e-01 -1.026982739567756653e-01
-2.961582541465759277e-01 3.077731728553771973e-01 -2.027401626110076904e-01
9.984603524208068848e-02 -8.042681217193603516e-01 -1.479545086622238159e-01
1.397528946399688721e-01 -1.375915706157684326e-01 3.262373208999633789e-01
3.101033270359039307e-01 7.555340230464935303e-02 -1.801153421401977539e-01
-1.687113642692565918e-01 1.297692060470581055e-01 -3.176851868629455566e-01
2.764137089252471924e-01 6.147095561027526855e-01 -1.519782394170761108e-01
-1.517382860183715820e-01 5.012924075126647949e-01 2.607370018959045410e-01
-2.590983808040618896e-01 -4.849206507205963135e-01 2.489026784896850586e-01
1.606944501399993896e-01 -8.042681217193603516e-01 -6.152533739805221558e-02
1.660073101520538330e-01 4.639029800891876221e-01 2.233934253454208374e-01
-3.215645253658294678e-01 7.581194043159484863e-01 -1.055218204855918884e-01
8.837427012622356415e-03 2.674937248229980469e-01 3.571137189865112305e-01
-1.862676739692687988e-01 -3.254075050354003906e-01 3.065446317195892334e-01
-2.122047394514083862e-01 -6.455385088920593262e-01 -2.884031236171722412e-01
2.473301142454147339e-01 -7.467815876007080078e-01 2.277523130178451538e-01
-2.537283897399902344e-01 6.202133893966674805e-01 1.756853461265563965e-01
-1.888244152069091797e-01 6.903066635131835938e-01 -2.934416830539703369e-01
7.850378006696701050e-02 9.484087824821472168e-01 1.203742623329162598e-02
-2.632128894329071045e-01 -3.356203734874725342e-01 2.435411363840103149e-01
-1.732322126626968384e-01 -4.134427905082702637e-01 3.136783540248870850e-01
-1.679237559437751770e-02 3.089724481105804443e-01 -3.586162030696868896e-01
7.162102498114109039e-03 -8.042681217193603516e-01 -1.760120242834091187e-01
2.776241898536682129e-01 -8.219180107116699219e-01 9.303292259573936462e-03
-2.416909039020538330e-01 5.489414930343627930e-01 2.346894592046737671e-01
-1.302312761545181274e-01 5.739536285400390625e-01 3.259789347648620605e-01
3.133500218391418457e-01 1.065821945667266846e-01 1.701412498950958252e-01
-3.108348548412322998e-01 -7.831458449363708496e-01 1.111595928668975830e-01
-3.510178923606872559e-01 -1.929286271333694458e-01 7.574561238288879395e-02
-2.191840112209320068e-01 1.401533931493759155e-01 2.812872529029846191e-01
-1.097690463066101074e-01 -4.450930282473564148e-02 -3.421000242233276367e-01
2.294190078973770142e-01 1.899372041225433350e-01 -2.731442153453826904e-01
1.580703258514404297e-01 -8.215744495391845703e-01 2.540619969367980957e-01
-2.792160809040069580e-01 8.376644253730773926e-01 -9.444288909435272217e-02
-3.402536213397979736e-01 1.436196267604827881e-01 1.128157153725624084e-01
-1.404207348823547363e-01 -4.364580214023590088e-01 -3.294043838977813721e-01
3.240534663200378418e-01 7.854129672050476074e-01 6.474934518337249756e-02
1.404437869787216187e-01 8.529691696166992188e-01 -2.769584767520427704e-02
-1.495014876127243042e-02 5.676502361893653870e-03 3.567242622375488281e-01
3.145455420017242432e-01 -1.766764223575592041e-01 -1.693903654813766479e-01
3.051564991474151611e-01 5.295708179473876953e-01 -9.652599692344665527e-02
1.289951652288436890e-01 -1.923688054084777832e-01 3.306935727596282959e-01
2.034482508897781372e-01 -6.474043130874633789e-01 2.858006060123443604e-01
-3.561219573020935059e-01 1.015946641564369202e-01 3.698063269257545471e-02
-3.375339806079864502e-01 -7.244450449943542480e-01 6.535018980503082275e-02
-1.774740815162658691e-01 -8.219180107116699219e-01 2.294262200593948364e-01
2.506985068321228027e-01 -5.557469725608825684e-01 -2.568161785602569580e-01
1.360465288162231445e-01 -8.043298721313476562e-01 -2.937731146812438965e-01
2.862923741340637207e-01 5.098491311073303223e-01 1.024324595928192139e-01
-3.247606158256530762e-01 1.362406015396118164e-01 -1.523555219173431396e-01
3.349534869194030762e-01 -4.226221442222595215e-01 1.179862618446350098e-01
2.770887017250061035e-01 -3.168470263481140137e-01 -2.234767079353332520e-01
-1.680447906255722046e-01 8.466114997863769531e-01 1.199588030576705933e-01
-3.144167363643646240e-01 -1.519101019948720932e-02 -1.773273646831512451e-01
3.561234772205352783e-01 -3.779964521527290344e-02 -1.511002890765666962e-02
2.346204370260238647e-01 -2.594437897205352783e-01 -2.691532373428344727e-01
2.113103419542312622e-01 -2.930819392204284668e-01 2.849046587944030762e-01
-2.281349003314971924e-01 -8.042681217193603516e-01 -5.736501514911651611e-02
2.368307709693908691e-01 -8.163326978683471680e-01 2.021401077508926392e-01
3.400042057037353516e-01 5.664294958114624023e-01 -6.294833868741989136e-02
6.908704340457916260e-02 -8.042681217193603516e-01 1.348273307085037231e-01
-2.417583167552947998e-01 2.666848599910736084e-01 -2.660994231700897217e-01
-2.658988237380981445e-01 1.515981853008270264e-01 2.400407344102859497e-01
3.348233401775360107e-01 -2.731323242187500000e-02 1.183026954531669617e-01
1.428685188293457031e-01 -6.647640466690063477e-01 -3.255425989627838135e-01
2.412926554679870605e-01 -1.563864350318908691e-01 2.618978917598724365e-01
-7.289750967174768448e-03 -2.510845661163330078e-01 -3.598669767379760742e-01
-2.890516817569732666e-01 4.272250235080718994e-01 3.312859684228897095e-02
1.002158224582672119e-01 -2.566339075565338135e-02 -3.447494208812713623e-01
-1.115615665912628174e-02 9.730464220046997070e-01 8.571702986955642700e-02
3.505353927612304688e-01 -2.170457392930984497e-01 -5.755683779716491699e-02
1.220074594020843506e-01 2.822733223438262939e-01 -3.357217907905578613e-01
-1.823141723871231079e-01 -5.689659118652343750e-01 -3.117113709449768066e-01
-9.565040469169616699e-02 -8.042681217193603516e-01 -9.140346944332122803e-02
-3.499889969825744629e-01 -4.610357284545898438e-01 -8.569421619176864624e-02
2.891542613506317139e-01 8.235635161399841309e-01 -1.444166451692581177e-01
-2.160440385341644287e-01 8.455536365509033203e-01 2.454292029142379761e-02
-3.590737879276275635e-01 -2.719063162803649902e-01 1.455642376095056534e-02
3.515998125076293945e-01 7.388099282979965210e-02 4.733617231249809265e-02
2.358508668839931488e-02 -6.690096855163574219e-01 3.527829051017761230e-01
4.057893902063369751e-02 -8.042681217193603516e-01 -5.553187057375907898e-02
-2.255557030439376831e-01 3.212434425950050354e-02 -2.785319685935974121e-01
4.712634254246950150e-03 -7.817368507385253906e-01 3.299202919006347656e-01
-1.311590373516082764e-01 -7.923902571201324463e-02 3.311055004596710205e-01
1.192403584718704224e-02 -1.825247853994369507e-01 3.567073941230773926e-01
2.377229779958724976e-01 5.392248034477233887e-01 2.241292744874954224e-01
1.153858080506324768e-01 2.599873840808868408e-01 3.363303840160369873e-01
-1.519236713647842407e-01 -7.333341836929321289e-01 -3.065548539161682129e-01
-2.951228320598602295e-01 -3.800106346607208252e-01 -2.040901333093643188e-01
-1.726892143487930298e-01 7.826071977615356445e-01 2.859429121017456055e-01
-2.970523238182067871e-01 -1.150416359305381775e-01 1.994410902261734009e-01
-3.282364457845687866e-02 9.630834460258483887e-01 -2.136132493615150452e-02
1.739171594381332397e-01 4.871540963649749756e-01 -2.307976931333541870e-01
-3.548197448253631592e-01 -1.478502899408340454e-01 -4.899905994534492493e-02
2.687772214412689209e-01 -4.091700613498687744e-01 2.321729809045791626e-01
1.473303884267807007e-01 2.737216651439666748e-02 3.230983018875122070e-01
7.406475394964218140e-02 -2.987014316022396088e-02 3.485251367092132568e-01
-2.045214474201202393e-01 -6.055033802986145020e-01 2.925373911857604980e-01
3.510493338108062744e-01 -6.295924782752990723e-01 5.151849240064620972e-02
2.292074263095855713e-01 4.035994410514831543e-01 -2.302172631025314331e-01
2.796079814434051514e-01 4.486112892627716064e-01 -1.380273886024951935e-02
-2.365137934684753418e-01 8.128207921981811523e-01 -2.324734628200531006e-01
2.678934633731842041e-01 5.770186781883239746e-01 -2.293784320354461670e-01
-1.812946498394012451e-01 -8.042681217193603516e-01 4.269202798604965210e-02
-8.229757100343704224e-02 8.473071455955505371e-01 1.809130012989044189e-01
-2.755864858627319336e-01 -2.250460162758827209e-02 2.274152934551239014e-01
3.510231375694274902e-01 6.380767822265625000e-01 3.206517919898033142e-02
-3.003430068492889404e-01 6.155652403831481934e-01 6.856618076562881470e-02
3.479487001895904541e-01 -4.987331926822662354e-01 7.507155090570449829e-02
1.962470859289169312e-01 3.874427080154418945e-01 -2.866992652416229248e-01
1.250818967819213867e-01 3.775959014892578125e-01 3.287818729877471924e-01
-2.521771490573883057e-01 -8.219180107116699219e-01 1.340914964675903320e-01
3.543456494808197021e-01 -1.428576111793518066e-01 2.647661417722702026e-02
-1.101491302251815796e-01 -2.658005058765411377e-01 3.398073613643646240e-01
3.345022499561309814e-01 -2.599268555641174316e-01 1.190769225358963013e-01
3.064419031143188477e-01 -4.498043060302734375e-01 1.830868273973464966e-01
3.460051715373992920e-01 -1.490795165300369263e-01 8.983915299177169800e-02
-3.518941700458526611e-01 -4.833675324916839600e-01 6.909099966287612915e-02
-2.758801728487014771e-02 8.838324546813964844e-01 -8.601205796003341675e-02
3.460603952407836914e-01 6.549581289291381836e-01 -5.216712132096290588e-02
1.839933395385742188e-01 -1.394152641296386719e-01 -3.079994022846221924e-01
3.495973050594329834e-01 3.015016615390777588e-01 6.254471838474273682e-02
-3.019307851791381836e-01 -5.261550545692443848e-01 1.930825114250183105e-01
3.144865632057189941e-01 -4.516345560550689697e-01 -1.695336103439331055e-01
1.255109347403049469e-02 -5.296638607978820801e-01 3.566250205039978027e-01
-3.546699285507202148e-01 1.395173519849777222e-01 -5.013634264469146729e-02
-3.364723324775695801e-01 5.788620710372924805e-01 1.141638159751892090e-01
-1.780189275741577148e-01 -3.400663435459136963e-01 -3.138299882411956787e-01
-2.527716159820556641e-01 7.333928346633911133e-01 -2.311871349811553955e-01
-9.789912402629852295e-02 4.122928380966186523e-01 2.910975515842437744e-01
-3.438139259815216064e-01 3.413954079151153564e-01 1.042187064886093140e-01
2.678588330745697021e-01 8.389431834220886230e-01 -8.192260563373565674e-02
1.838023513555526733e-01 -3.612354099750518799e-01 -3.081454336643218994e-01
2.415716350078582764e-01 -1.148721799254417419e-01 -2.638188600540161133e-01
2.213743478059768677e-01 -1.876294240355491638e-02 -2.793164849281311035e-01
-1.900854408740997314e-01 -7.744336724281311035e-01 2.710060477256774902e-01
8.469197899103164673e-02 -4.041136801242828369e-01 3.471264541149139404e-01
-3.410484194755554199e-01 -1.276211738586425781e-01 1.108965277671813965e-01
-3.199692368507385254e-01 -5.430232286453247070e-01 -1.639221161603927612e-01
1.039268746972084045e-01 -8.042681217193603516e-01 -8.298368006944656372e-02
-5.206967890262603760e-02 -8.219180107116699219e-01 -2.875315248966217041e-01
-2.611420452594757080e-01 8.193787932395935059e-01 1.954632252454757690e-01
-3.201676905155181885e-01 -2.457539290189743042e-01 1.613092571496963501e-01
-4.088973626494407654e-02 -5.669212937355041504e-01 3.533090651035308838e-01
-2.306232750415802002e-01 4.022709727287292480e-01 -2.349805831909179688e-01
2.776195108890533447e-01 -3.529534861445426941e-02 -2.227839231491088867e-01
-2.789108753204345703e-01 4.670485556125640869e-01 -4.370427131652832031e-02
-2.058096528053283691e-01 -3.848647475242614746e-01 2.915487885475158691e-01
-3.326283693313598633e-01 -3.542645275592803955e-01 -1.333602815866470337e-01
-2.594213485717773438e-01 4.645114839076995850e-01 -1.107288897037506104e-01
1.928777396678924561e-01 1.593881519511342049e-03 2.990476489067077637e-01
-7.024379074573516846e-02 7.144125699996948242e-01 3.351123631000518799e-01
1.144411936402320862e-01 4.050870239734649658e-01 -2.992563545703887939e-01
-8.614154905080795288e-02 5.918741226196289062e-01 -3.493301868438720703e-01
3.011955320835113525e-01 -7.984384894371032715e-01 1.177634522318840027e-01
1.722847297787666321e-02 -8.075259923934936523e-01 -2.550692558288574219e-01
-2.221489250659942627e-01 -1.383273899555206299e-01 2.790122926235198975e-01
3.495308458805084229e-01 -5.628301501274108887e-01 -6.518901139497756958e-02
-5.673442035913467407e-02 -8.164384961128234863e-01 3.070698380470275879e-01
-1.079528331756591797e-01 -8.066478967666625977e-01 -2.306685000658035278e-01
3.560747802257537842e-01 -5.121524930000305176e-01 -1.548001170158386230e-02
1.046842485666275024e-01 -8.042681217193603516e-01 4.902046546339988708e-02
-1.800392270088195801e-01 6.357730180025100708e-02 -3.129920959472656250e-01
-1.282755732536315918e-01 -8.042681217193603516e-01 1.829417198896408081e-01
2.272938489913940430e-01 -8.042681217193603516e-01 -6.568641215562820435e-02
8.930672705173492432e-02 5.404016375541687012e-01 -3.182281553745269775e-01
-3.146685659885406494e-01 -6.230569481849670410e-01 1.745862662792205811e-01
-3.297392725944519043e-01 -3.960087150335311890e-02 -1.403348743915557861e-01
2.071090042591094971e-02 -8.042681217193603516e-01 1.330405706539750099e-03
1.682672798633575439e-01 7.705266475677490234e-01 -2.913689911365509033e-01
-2.733377814292907715e-01 6.512386798858642578e-01 -2.249689847230911255e-01
-1.384322643280029297e-01 -6.075176410377025604e-03 -3.302272856235504150e-01
-1.231078281998634338e-01 3.159826099872589111e-01 3.344402015209197998e-01
2.730546593666076660e-01 -2.064144015312194824e-01 2.265979945659637451e-01
-2.577259242534637451e-01 2.397002130746841431e-01 2.506917119026184082e-01
-7.777129113674163818e-02 -3.059488832950592041e-01 -3.505893647670745850e-01
-4.266352951526641846e-02 8.455012440681457520e-01 2.118652313947677612e-01
3.169056475162506104e-01 -5.009360313415527344e-01 -1.636918038129806519e-01
7.816366851329803467e-02 6.221681833267211914e-01 -3.442504107952117920e-01
-9.977711737155914307e-02 4.167369306087493896e-01 -2.848784029483795166e-01
1.553469449281692505e-01 8.469616770744323730e-01 -1.289723664522171021e-01
3.773264959454536438e-02 -7.692397236824035645e-01 -3.305175304412841797e-01
-3.843908896669745445e-03 -1.197974681854248047e-01 3.581865727901458740e-01
1.651872098445892334e-01 -1.862854510545730591e-01 -3.178368508815765381e-01
-2.410664707422256470e-01 7.247274518013000488e-01 2.446027547121047974e-01
3.327206671237945557e-01 3.983333706855773926e-01 4.516194108873605728e-03
-2.403399944305419922e-01 -8.183296322822570801e-01 -1.107036098837852478e-01
-1.352567225694656372e-01 8.502776622772216797e-01 -1.066059246659278870e-01
2.548046410083770752e-01 2.045950740575790405e-01 2.503827810287475586e-01
1.182468011975288391e-01 8.406489491462707520e-01 2.343796044588088989e-01
2.480865567922592163e-01 3.800524473190307617e-01 2.510849237442016602e-01
-3.496220111846923828e-01 5.947341918945312500e-01 -8.832350373268127441e-02
-2.530000209808349609e-01 -6.581106185913085938e-01 -2.552452683448791504e-01
2.098995000123977661e-01 2.880954742431640625e-01 -2.881213128566741943e-01
2.323464602231979370e-01 8.642674982547760010e-02 2.687629163265228271e-01
-2.772819101810455322e-01 3.181938827037811279e-01 2.252058833837509155e-01
5.187122896313667297e-02 9.793422222137451172e-01 -5.004843324422836304e-02
3.087617456912994385e-01 -1.125981882214546204e-01 1.800638884305953979e-01
-5.680828541517257690e-02 -7.732827216386795044e-02 3.512129187583923340e-01
-1.086315736174583435e-01 -2.110756635665893555e-01 -3.425718247890472412e-01
1.959924548864364624e-01 3.581222593784332275e-01 2.966585159301757812e-01
2.356259226799011230e-01 8.365915417671203613e-01 1.868811994791030884e-01
-2.390087246894836426e-01 -1.277325749397277832e-01 -2.682095766067504883e-01
-1.275659501552581787e-01 6.147095561027526855e-01 -3.000090420246124268e-01
1.770159304141998291e-01 8.372028470039367676e-01 -2.379997521638870239e-01
3.470761477947235107e-01 1.420796960592269897e-01 -8.383664488792419434e-02
-2.758579850196838379e-01 9.271193295717239380e-02 -2.291968017816543579e-01
-3.277733027935028076e-01 3.212636411190032959e-01 -1.450822800397872925e-01
-3.208614289760589600e-01 9.415525197982788086e-02 1.596334725618362427e-01
-3.604958355426788330e-01 -1.655475422739982605e-02 -5.894738715142011642e-03
-8.166301995515823364e-02 -5.281819105148315430e-01 -3.500763177871704102e-01
-2.929593026638031006e-01 4.064491689205169678e-01 -1.270531862974166870e-01
3.307649791240692139e-01 7.732818722724914551e-01 -3.007507324218750000e-02
2.904050052165985107e-01 3.669636249542236328e-01 -2.055580914020538330e-01
-1.605478227138519287e-01 5.008973479270935059e-01 -2.560344636440277100e-01
-2.073506116867065430e-01 2.306191921234130859e-01 -2.925008237361907959e-01
-1.147785782814025879e-01 8.531460762023925781e-01 8.560983091592788696e-02
-1.501233726739883423e-01 -6.012896299362182617e-01 3.232499659061431885e-01
3.319557905197143555e-01 -7.609676122665405273e-01 2.134640328586101532e-02
1.169604659080505371e-01 -2.519187331199645996e-01 -3.378131985664367676e-01
-2.580385804176330566e-01 5.982279777526855469e-01 -2.524207830429077148e-01
-2.608309686183929443e-02 -3.362466990947723389e-01 3.552591502666473389e-01
-3.212424516677856445e-01 -6.574580669403076172e-01 -1.524098217487335205e-01
-3.508793413639068604e-01 -5.713456869125366211e-01 7.679582387208938599e-02
7.506357133388519287e-02 4.655618667602539062e-01 2.706044018268585205e-01
-2.668949365615844727e-01 -2.443754486739635468e-02 -2.408776134252548218e-01
-1.952269822359085083e-01 -1.923940777778625488e-01 2.996702194213867188e-01
2.118692398071289062e-01 7.336053252220153809e-01 -2.650115489959716797e-01
2.530998289585113525e-01 -8.705618232488632202e-02 2.526034116744995117e-01
-2.851402759552001953e-01 7.037343978881835938e-01 1.942986100912094116e-01
2.422899752855300903e-02 -5.101845860481262207e-01 -3.572213053703308105e-01
-7.088948041200637817e-02 5.937108993530273438e-01 3.493106067180633545e-01
-3.342601358890533447e-01 4.373287782073020935e-02 -1.294189244508743286e-01
-1.663315743207931519e-01 -2.799004018306732178e-01 -3.186700642108917236e-01
1.469765007495880127e-01 6.971080899238586426e-01 3.107228279113769531e-01
-1.847108006477355957e-01 6.147095561027526855e-01 -2.577617466449737549e-01
1.140470579266548157e-01 3.524400293827056885e-02 -3.390199542045593262e-01
9.918723255395889282e-03 9.630834460258483887e-01 3.527555242180824280e-02
-3.469941616058349609e-01 6.621995568275451660e-01 -6.060665473341941833e-02
1.213979944586753845e-01 4.434070289134979248e-01 -2.549924850463867188e-01
2.863737940788269043e-01 -7.324138879776000977e-01 -1.842635720968246460e-01
3.167549371719360352e-01 -6.328410506248474121e-01 -1.640569120645523071e-01
2.518612742424011230e-01 -6.364827752113342285e-01 -2.559239864349365234e-01
3.075447380542755127e-01 5.942388772964477539e-01 1.815936267375946045e-01
-4.736197367310523987e-02 4.956700652837753296e-02 -3.545915484428405762e-01
2.419367432594299316e-01 5.215664505958557129e-01 -1.996638625860214233e-01
2.553204596042633057e-01 -5.435025691986083984e-01 2.497105896472930908e-01
5.680474638938903809e-02 1.450366377830505371e-01 3.507981896400451660e-01
-3.494273126125335693e-01 -6.729322671890258789e-01 -6.512291729450225830e-02
-3.330674171447753906e-01 2.014738321304321289e-01 -1.322986483573913574e-01
2.957628071308135986e-01 1.444715708494186401e-01 -1.991395950317382812e-01
-1.314854901283979416e-02 -8.042681217193603516e-01 -3.617554903030395508e-02
-7.258097827434539795e-02 -8.042681217193603516e-01 -1.560637503862380981e-01
-2.182759046554565430e-01 8.409653902053833008e-01 -1.462927758693695068e-01
-7.391148060560226440e-02 -7.505291104316711426e-01 -3.303780257701873779e-01
9.163314476609230042e-03 5.067840814590454102e-01 3.034720718860626221e-01
1.908268406987190247e-02 -2.884426899254322052e-02 -3.578981757164001465e-01
2.865703999996185303e-01 -2.900486588478088379e-01 2.089836448431015015e-01
2.191724330186843872e-01 7.296180725097656250e-01 2.580389082431793213e-01
3.448096513748168945e-01 -4.351843614131212234e-03 -9.632846713066101074e-02
2.980021536350250244e-01 -1.839674413204193115e-01 1.940860897302627563e-01
-3.026244938373565674e-01 -2.385920733213424683e-01 -1.943135559558868408e-01
-1.264481395483016968e-01 6.490077376365661621e-01 3.284757435321807861e-01
1.717124283313751221e-01 -4.580006301403045654e-01 -3.151331543922424316e-01
3.469769060611724854e-01 5.989910364151000977e-01 8.245357125997543335e-02
9.254686534404754639e-03 -2.853227853775024414e-01 3.570584654808044434e-01
3.272205591201782227e-01 -7.755505442619323730e-01 -3.454733267426490784e-02
-2.956592738628387451e-01 4.215545356273651123e-01 -2.197190560400485992e-02
9.057591110467910767e-02 -5.532801151275634766e-01 3.463512957096099854e-01
2.798560559749603271e-01 1.215565130114555359e-01 2.177341729402542114e-01
5.203459039330482483e-02 7.333347797393798828e-01 -3.363190591335296631e-01
-1.984727531671524048e-01 2.070113718509674072e-01 2.971790134906768799e-01
-2.244928479194641113e-02 -8.042681217193603516e-01 2.275332510471343994e-01
2.764436602592468262e-01 4.769337177276611328e-01 -6.146027147769927979e-02
-1.237142086029052734e-02 -5.497918725013732910e-01 -3.591976165771484375e-01
1.586114466190338135e-01 -7.294602394104003906e-01 3.012757599353790283e-01
-3.182566142641007900e-04 6.093274354934692383e-01 -3.594587743282318115e-01
-3.102319538593292236e-01 6.147095561027526855e-01 9.055922273546457291e-04
1.270170062780380249e-01 5.588248372077941895e-01 3.149834275245666504e-01
3.557377755641937256e-01 -1.016869246959686279e-01 -1.803870312869548798e-02
1.736138314008712769e-01 8.336172699928283691e-01 2.586923539638519287e-01
1.611503809690475464e-01 -8.219180107116699219e-01 2.070803642272949219e-01
-1.022963970899581909e-01 -8.042681217193603516e-01 5.341576784849166870e-02
-1.682966351509094238e-01 -6.999792903661727905e-02 -3.178564906120300293e-01
4.950941354036331177e-02 -7.058224678039550781e-01 -3.432262539863586426e-01
-1.849738657474517822e-01 6.236585974693298340e-01 3.027727305889129639e-01
-3.573633730411529541e-01 5.822519659996032715e-01 -1.533761713653802872e-02
-8.396632224321365356e-02 8.418697714805603027e-01 -2.392486333847045898e-01
-9.105446934700012207e-02 -4.630869030952453613e-01 -3.488405644893646240e-01
-2.788706123828887939e-01 -4.248380362987518311e-01 -2.252704352140426636e-01
-6.890007853507995605e-02 4.981495738029479980e-01 -2.918201982975006104e-01
2.779368758201599121e-01 7.787220478057861328e-01 1.807810068130493164e-01
-3.315938711166381836e-01 3.020465373992919922e-01 1.337235718965530396e-01
-8.836780488491058350e-02 9.638043045997619629e-01 -1.983758620917797089e-02
-3.150411546230316162e-01 -1.484326124191284180e-01 -1.758219748735427856e-01
-3.383989930152893066e-01 7.641053199768066406e-01 -6.808307953178882599e-03
-2.942259609699249268e-01 -8.218955993652343750e-01 -4.336003214120864868e-02
2.651064395904541016e-01 8.400357365608215332e-01 3.653678297996520996e-02
-3.595231473445892334e-01 -4.775304198265075684e-01 1.114758010953664780e-02
4.199622664600610733e-03 -3.939738571643829346e-01 3.577241003513336182e-01
2.619767487049102783e-01 2.052588164806365967e-01 -2.431703060865402222e-01
2.274174392223358154e-01 -8.182144761085510254e-01 -2.115178555250167847e-01
-5.599483381956815720e-03 1.569575816392898560e-01 -3.600897789001464844e-01
-2.679687440395355225e-01 2.070694267749786377e-01 -2.394780069589614868e-01
1.638259887695312500e-01 -8.042681217193603516e-01 -1.680928319692611694e-01
-3.539163172245025635e-01 -6.155833601951599121e-01 -5.586711689829826355e-02
-7.699603587388992310e-02 3.503275811672210693e-01 3.485550880432128906e-01
-6.808484345674514771e-02 6.212600469589233398e-01 3.090161681175231934e-01
-1.700716465711593628e-01 -8.042681217193603516e-01 -1.975061558187007904e-02
-3.519671857357025146e-01 -3.011059761047363281e-01 6.853575259447097778e-02
-2.795268893241882324e-01 -8.152477145195007324e-01 -1.515007764101028442e-01
-1.301535665988922119e-01 -2.105504721403121948e-01 3.315211534500122070e-01
-2.324170172214508057e-01 6.028967499732971191e-01 2.711324393749237061e-01
1.069601178169250488e-01 -8.219180107116699219e-01 -2.480197548866271973e-01
-5.544295161962509155e-02 -4.216737449169158936e-01 -3.535280525684356689e-01
2.692172229290008545e-01 7.140259146690368652e-01 -2.104908525943756104e-01
3.386298716068267822e-01 -3.022340834140777588e-01 1.091121509671211243e-01
-5.279681831598281860e-02 9.417983293533325195e-01 6.281190365552902222e-02
3.244504034519195557e-01 7.383040189743041992e-01 9.669176489114761353e-02
1.000856980681419373e-01 -4.216606318950653076e-01 -3.448037207126617432e-01
-3.144738078117370605e-01 7.228026390075683594e-01 1.345829814672470093e-01
-6.678438931703567505e-02 7.585247159004211426e-01 -3.309163153171539307e-01
3.164104223251342773e-01 5.327090024948120117e-01 5.204725265502929688e-02
2.086796462535858154e-01 6.147095561027526855e-01 2.740495800971984863e-01
3.418147861957550049e-01 -3.129993081092834473e-01 -1.035576984286308289e-01
-1.413578540086746216e-01 7.180637121200561523e-01 -3.130332827568054199e-01
2.754775285720825195e-01 7.927654311060905457e-03 2.234402447938919067e-01
6.046027317643165588e-02 -8.073050975799560547e-01 3.150030970573425293e-01
3.378313183784484863e-01 -6.993561387062072754e-01 -8.408285677433013916e-02
1.654783636331558228e-01 -7.633305191993713379e-01 -2.923941016197204590e-01
1.097237467765808105e-01 -8.871699124574661255e-02 -3.408108651638031006e-01
3.451766371726989746e-01 -3.468555808067321777e-01 9.330745041370391846e-02
-1.580722630023956299e-02 -3.623391389846801758e-01 -3.587454259395599365e-01
3.516513109207153320e-01 1.882614195346832275e-01 -4.908247664570808411e-02
3.440035879611968994e-01 3.756149411201477051e-01 -8.855540305376052856e-02
1.353537440299987793e-01 8.527697920799255371e-01 5.041379109025001526e-02
-2.525356709957122803e-01 -4.746553599834442139e-01 -2.578310072422027588e-01
3.006778061389923096e-01 6.147095561027526855e-01 -8.538031578063964844e-02
6.950580328702926636e-02 5.604771971702575684e-01 3.349354267120361328e-01
3.331335186958312988e-01 9.241927415132522583e-02 -1.245151832699775696e-01
2.401879429817199707e-01 4.546665549278259277e-01 -1.454605013132095337e-01
3.561281561851501465e-01 3.338881134986877441e-01 1.293326355516910553e-02
3.150370419025421143e-01 5.720700025558471680e-01 1.501517742872238159e-01
2.211431115865707397e-01 -8.052978515625000000e-01 -1.156251505017280579e-01
-1.327308863401412964e-01 7.768223527818918228e-03 3.304539024829864502e-01
2.744814157485961914e-01 -6.497120261192321777e-01 2.153674960136413574e-01
-2.118180841207504272e-01 5.044239163398742676e-01 2.177912890911102295e-01
-9.567286819219589233e-02 -6.401816606521606445e-01 -3.479399383068084717e-01
-1.928921490907669067e-01 3.468749225139617920e-01 3.014611303806304932e-01
-2.646883130073547363e-01 -1.910319179296493530e-01 -2.437535673379898071e-01
2.568604946136474609e-01 -7.866734266281127930e-01 -2.028581202030181885e-01
-2.677346765995025635e-01 -1.145482510328292847e-01 2.376487702131271362e-01
2.799393832683563232e-01 6.305367946624755859e-01 2.152785658836364746e-01
-1.269873827695846558e-01 3.426845371723175049e-01 -3.349681198596954346e-01
1.845615953207015991e-01 -5.068068504333496094e-01 3.054296374320983887e-01
-2.087614387273788452e-01 4.945434331893920898e-01 -2.132095396518707275e-01
-3.250986039638519287e-01 -2.797908782958984375e-01 -1.515391618013381958e-01
-2.924322485923767090e-01 -7.354705333709716797e-01 -1.793663799762725830e-01
3.095135390758514404e-01 6.031270623207092285e-01 -1.812181621789932251e-01
-3.309834897518157959e-01 -4.965546727180480957e-01 1.351952552795410156e-01
-2.641013562679290771e-01 4.756455719470977783e-01 1.045547947287559509e-01
-3.548403084278106689e-01 -7.976891100406646729e-02 -4.884281009435653687e-02
1.250023245811462402e-01 8.360775113105773926e-01 -2.798529565334320068e-01
2.710184454917907715e-01 7.900161743164062500e-01 -1.891036629676818848e-01
4.194886237382888794e-02 -1.648495942354202271e-01 -3.548883199691772461e-01
-1.074706986546516418e-01 -5.775254368782043457e-01 -3.430530428886413574e-01
3.236303031444549561e-01 -4.088920056819915771e-01 -1.474583148956298828e-01
-2.143766880035400391e-01 -7.234190106391906738e-01 2.667014598846435547e-01
1.157322004437446594e-01 -2.557598948478698730e-01 3.361871242523193359e-01
-3.357121646404266357e-01 -7.605752944946289062e-01 1.748425699770450592e-02
3.237463831901550293e-01 7.315242290496826172e-01 -1.032272204756736755e-01
-2.616719305515289307e-01 6.146758794784545898e-01 2.307565361261367798e-01
-1.856086105108261108e-01 6.360471248626708984e-01 -3.063414096832275391e-01
1.672880202531814575e-01 -8.042681217193603516e-01 6.325200200080871582e-02
2.608346045017242432e-01 -3.682979941368103027e-01 -2.446588575839996338e-01
1.566997319459915161e-01 -5.696999430656433105e-01 3.192178010940551758e-01
-2.696651220321655273e-01 3.838603198528289795e-02 -2.372676730155944824e-01
-7.638525567017495632e-04 5.463725924491882324e-01 -3.359689116477966309e-01
-3.422673344612121582e-01 2.693524584174156189e-02 1.079540923237800598e-01
3.312723934650421143e-01 -7.375385761260986328e-01 6.655871123075485229e-02
-6.782300304621458054e-03 -8.042681217193603516e-01 1.117802858352661133e-01
1.616315692663192749e-01 5.259843468666076660e-01 -2.757889628410339355e-01
-1.916713565587997437e-01 8.230065107345581055e-01 -2.633320391178131104e-01
-3.111166357994079590e-01 -7.365546226501464844e-01 1.376227736473083496e-01
5.156312882900238037e-02 8.389956355094909668e-01 2.737134695053100586e-01
2.463611513376235962e-01 6.518200635910034180e-01 -2.542688250541687012e-01
-2.163061648607254028e-01 3.976433873176574707e-01 2.544402182102203369e-01
1.022258251905441284e-01 -7.668979465961456299e-02 3.417808413505554199e-01
3.474422097206115723e-01 2.259092479944229126e-01 7.891853153705596924e-02
-2.391828447580337524e-01 4.385997056961059570e-01 1.545256376266479492e-01
7.026197016239166260e-02 -8.069764971733093262e-01 2.434250414371490479e-01
3.437555134296417236e-01 6.405445933341979980e-01 8.438090234994888306e-02
1.162470877170562744e-01 7.609007954597473145e-01 3.129191398620605469e-01
-2.775299847126007080e-01 5.771151185035705566e-01 2.188678979873657227e-01
-2.910476326942443848e-01 6.147095561027526855e-01 -1.290126293897628784e-01
-3.700933605432510376e-02 -1.819939762353897095e-01 3.538202047348022461e-01
-3.266114890575408936e-01 4.028457701206207275e-01 1.205558795481920242e-02
3.158281147480010986e-01 3.468150198459625244e-01 1.641589999198913574e-01
-1.748387068510055542e-01 -8.138115406036376953e-01 -1.964012384414672852e-01
-1.668183952569961548e-01 -6.824167966842651367e-01 -3.126718997955322266e-01
1.461170911788940430e-01 6.212600469589233398e-01 -2.839758992195129395e-01
-1.086353212594985962e-01 9.450538456439971924e-02 -3.425699770450592041e-01
1.340318322181701660e-01 -5.563797950744628906e-01 -3.307422101497650146e-01
2.050734609365463257e-01 4.984463751316070557e-01 2.150613665580749512e-01
-3.524521291255950928e-01 -6.958600878715515137e-02 6.484819948673248291e-02
-2.062821574509143829e-02 6.937434077262878418e-01 3.448243737220764160e-01
-2.202999591827392578e-01 3.042615354061126709e-01 -2.825650572776794434e-01
-1.893336921930313110e-01 8.330957889556884766e-01 2.502844631671905518e-01
1.194441765546798706e-01 4.479166269302368164e-01 2.524648606777191162e-01
-8.853116631507873535e-02 -2.633945047855377197e-01 -3.491719663143157959e-01
3.150819540023803711e-01 -2.357601225376129150e-01 -1.680956333875656128e-01
1.612702012062072754e-01 1.201321929693222046e-01 3.173248171806335449e-01
-2.955235242843627930e-01 6.147095561027526855e-01 1.206103935837745667e-01
-7.412680983543395996e-02 8.569320440292358398e-01 -8.012624830007553101e-02
-1.293678395450115204e-02 6.965941190719604492e-01 -3.475336432456970215e-01
1.613675653934478760e-01 9.181675314903259277e-02 -3.194190263748168945e-01
3.561356365680694580e-01 -5.803293585777282715e-01 -1.501566264778375626e-02
-1.824461668729782104e-01 1.055488362908363342e-01 3.094767630100250244e-01
-2.778249084949493408e-01 4.715450704097747803e-01 5.859943479299545288e-02
-1.570455282926559448e-01 1.926746219396591187e-01 3.203833401203155518e-01
3.545497357845306396e-01 6.265804171562194824e-01 -1.252699643373489380e-02
-3.270889222621917725e-01 -3.429269418120384216e-02 1.446001827716827393e-01
-4.607602581381797791e-02 8.076483607292175293e-01 -3.260865211486816406e-01
4.119607433676719666e-02 7.320138216018676758e-01 3.358135819435119629e-01
-3.586964905261993408e-01 2.195066511631011963e-01 1.742200180888175964e-02
3.508930206298828125e-01 -6.520309448242187500e-01 5.043398588895797729e-03
1.534202843904495239e-01 -8.042681217193603516e-01 -1.227581780403852463e-02
-9.451059997081756592e-02 -8.042681217193603516e-01 -4.174688830971717834e-02
1.752680838108062744e-01 2.006359547376632690e-01 -3.136605024337768555e-01
-1.169608235359191895e-01 -1.298268288373947144e-01 3.369857072830200195e-01
-2.876679599285125732e-01 3.646212816238403320e-01 2.114879339933395386e-01
-3.600932657718658447e-01 -1.163925454020500183e-01 -8.950360119342803955e-03
2.537972927093505859e-01 4.591237306594848633e-01 1.132379323244094849e-01
3.569173514842987061e-01 -2.611232995986938477e-01 -9.078533388674259186e-03
-1.401997804641723633e-01 -1.154507398605346680e-01 -3.294951915740966797e-01
-9.194469451904296875e-02 8.191250562667846680e-01 3.139966726303100586e-01
-2.083176821470260620e-01 5.768632888793945312e-01 -2.870129048824310303e-01
-2.181158214807510376e-01 -3.347384929656982422e-01 -2.842408418655395508e-01
-2.221526652574539185e-01 -7.779294252395629883e-01 -2.475516647100448608e-01
2.837899327278137207e-01 -4.430188238620758057e-01 -2.147420793771743774e-01
-3.144373297691345215e-01 8.107845783233642578e-01 9.960330277681350708e-02
2.715024650096893311e-01 8.393934965133666992e-01 -3.764114528894424438e-02
-1.020501777529716492e-01 7.853628695011138916e-02 3.431626558303833008e-01
1.973424404859542847e-01 3.052061796188354492e-01 2.956221401691436768e-01
3.010438680648803711e-01 -7.571750879287719727e-01 1.423018574714660645e-01
3.518713116645812988e-01 -4.469685852527618408e-01 -4.740548506379127502e-02
-3.550893664360046387e-01 -3.025476932525634766e-01 -4.695050045847892761e-02
3.180992901325225830e-01 -5.441185832023620605e-01 1.586757600307464600e-01
-7.872357964515686035e-02 -5.190802812576293945e-01 3.483276069164276123e-01
3.568611741065979004e-01 2.833686769008636475e-01 -9.501577354967594147e-03
9.059397876262664795e-02 -7.866387963294982910e-01 -3.177872300148010254e-01
2.594134807586669922e-01 -8.219180107116699219e-01 1.333004087209701538e-01
-2.016655169427394867e-03 6.278709322214126587e-02 3.584271967411041260e-01
3.242893517017364502e-01 -1.606769859790802002e-01 1.437314152717590332e-01
-2.742833197116851807e-01 4.050336480140686035e-01 1.691722869873046875e-01
3.285527527332305908e-01 -1.956421183422207832e-03 -1.355743557214736938e-01
-3.036093711853027344e-01 5.226650089025497437e-02 1.908964961767196655e-01
1.819224804639816284e-01 3.249868452548980713e-01 -3.095881044864654541e-01
1.067438647150993347e-01 8.466751575469970703e-01 1.743718683719635010e-01
-6.573969870805740356e-02 -4.272029101848602295e-01 3.500370681285858154e-01
1.745528280735015869e-01 1.875770688056945801e-01 3.118228614330291748e-01
-2.974726557731628418e-01 -5.773719549179077148e-01 1.988934129476547241e-01
-2.102265655994415283e-01 -8.042681217193603516e-01 1.066977307200431824e-01
-2.330358326435089111e-01 -2.568847872316837311e-02 2.706577777862548828e-01
-1.069604754447937012e-01 5.287151932716369629e-01 3.008853793144226074e-01
2.099275887012481689e-01 4.235018193721771240e-01 2.039591223001480103e-01
2.485848963260650635e-02 9.297860860824584961e-01 -8.019328117370605469e-02
4.886690899729728699e-02 9.844359755516052246e-01 3.180286288261413574e-02
2.732549905776977539e-01 -2.252083569765090942e-01 -2.284722030162811279e-01
2.338349968194961548e-01 -4.980572164058685303e-01 2.676207721233367920e-01
2.397385686635971069e-01 3.537768870592117310e-02 2.630905807018280029e-01
-3.490051031112670898e-01 3.453844785690307617e-01 -9.316387027502059937e-02
-2.345272004604339600e-01 6.147095561027526855e-01 -2.149115353822708130e-01
2.540088593959808350e-01 -1.941719055175781250e-01 -2.535544931888580322e-01
2.807538509368896484e-01 -5.391436815261840820e-01 -2.186993360519409180e-01
-3.286270797252655029e-01 -8.877409249544143677e-02 -1.430198550224304199e-01
-3.308842480182647705e-01 2.506667077541351318e-01 -1.375712454319000244e-01
3.073687255382537842e-01 3.980384469032287598e-01 -1.246031820774078369e-01
-3.146882057189941406e-01 2.111699134111404419e-01 1.745375692844390869e-01
4.463244229555130005e-02 6.138810515403747559e-01 3.466799259185791016e-01
-3.514644503593444824e-01 -5.131232738494873047e-01 -7.448712736368179321e-02
-3.249488174915313721e-01 7.563453316688537598e-01 9.592502564191818237e-02
-3.411186337471008301e-01 7.263704538345336914e-01 2.811737544834613800e-02
2.504064142704010010e-01 4.260707199573516846e-01 1.475632190704345703e-01
-1.144939735531806946e-01 4.803330302238464355e-01 2.606799006462097168e-01
-1.600457541644573212e-02 -2.255135625600814819e-01 3.565856814384460449e-01
1.256061643362045288e-01 -3.645260930061340332e-01 3.320969045162200928e-01
2.972092330455780029e-01 4.006083011627197266e-01 1.347870826721191406e-01
-2.120867818593978882e-01 -8.190907239913940430e-01 -2.278365343809127808e-01
-3.468752503395080566e-01 6.576328277587890625e-01 6.471853703260421753e-02
3.571467101573944092e-01 -3.118552863597869873e-01 -7.335998583585023880e-03
3.532877564430236816e-01 3.700221180915832520e-01 -3.014004230499267578e-02
-3.586637377738952637e-01 3.265250027179718018e-01 1.767523773014545441e-02
-2.242328673601150513e-01 -5.147278904914855957e-01 2.774123847484588623e-01
5.439341068267822266e-02 2.949932813644409180e-01 -3.532509505748748779e-01
6.855773180723190308e-02 -1.601040512323379517e-01 3.492506742477416992e-01
3.084509372711181641e-01 6.522871851921081543e-01 1.696010529994964600e-01
9.745033085346221924e-02 3.833309710025787354e-01 -3.389984071254730225e-01
-2.924060225486755371e-01 1.797954887151718140e-01 -2.076307982206344604e-01
5.780515447258949280e-02 -6.162068247795104980e-01 -3.528015613555908203e-01
-3.342020809650421143e-01 -2.981129884719848633e-01 1.274258345365524292e-01
3.290264904499053955e-01 6.120966672897338867e-01 1.244422122836112976e-01
-1.526295542716979980e-01 3.825165033340454102e-01 -3.180240988731384277e-01
1.829616576433181763e-01 8.488845825195312500e-01 5.148335359990596771e-03
-4.530563578009605408e-02 3.465125858783721924e-01 -3.548630475997924805e-01
1.669725179672241211e-01 6.345763802528381348e-01 3.127646446228027344e-01
3.522851169109344482e-01 -3.288466483354568481e-02 4.212872311472892761e-02
-3.124872446060180664e-01 -4.841857552528381348e-01 -1.814606338739395142e-01
-2.927027940750122070e-01 5.507577061653137207e-01 -1.725134998559951782e-01
3.332112431526184082e-01 3.910413980484008789e-01 8.704473078250885010e-02
-2.882493734359741211e-01 -7.331749796867370605e-01 1.835231035947799683e-01
2.954688370227813721e-01 -1.351537406444549561e-01 -1.995215564966201782e-01
1.115783303976058960e-01 5.778959393501281738e-01 -3.364295363426208496e-01
-3.368290364742279053e-01 -4.311648309230804443e-01 -1.232194975018501282e-01
-2.890507280826568604e-01 1.902124434709548950e-01 2.098683267831802368e-01
3.239326775074005127e-01 6.302484273910522461e-01 -1.430507600307464600e-01
3.199913501739501953e-01 -2.672740519046783447e-01 1.541099846363067627e-01
2.207695692777633667e-01 5.754038095474243164e-01 -2.742348909378051758e-01
-2.530917823314666748e-01 8.406807780265808105e-01 7.918450236320495605e-02
-1.998096257448196411e-01 7.231275439262390137e-01 2.765679359436035156e-01
2.167177647352218628e-01 -8.044778108596801758e-01 1.151000037789344788e-01
3.475273847579956055e-01 1.137571409344673157e-01 7.827040553092956543e-02
-3.088557422161102295e-01 8.117170333862304688e-01 -1.148434355854988098e-01
-3.518857359886169434e-01 9.470114111900329590e-02 -7.128686457872390747e-02
3.966316208243370056e-02 4.174353480339050293e-01 2.950679063796997070e-01
1.797608286142349243e-01 6.080411076545715332e-01 -3.106525540351867676e-01
-3.557912260293960571e-02 -7.474125027656555176e-01 3.339898884296417236e-01
-3.658992424607276917e-02 5.953642129898071289e-01 -3.560051918029785156e-01
6.790315359830856323e-02 2.593395411968231201e-01 3.493368029594421387e-01
2.919403612613677979e-01 -3.610322475433349609e-01 -2.041210383176803589e-01
-1.606301963329315186e-01 8.455367684364318848e-01 -1.488232910633087158e-01
-1.000869944691658020e-01 3.827524185180664062e-01 3.374874889850616455e-01
-5.278053134679794312e-02 -8.219180107116699219e-01 2.634060680866241455e-01
2.378053367137908936e-01 6.147095561027526855e-01 1.980920433998107910e-01
1.131614223122596741e-01 4.949581623077392578e-01 2.704190313816070557e-01
2.927595376968383789e-01 3.713393509387969971e-01 1.990338414907455444e-01
2.767890989780426025e-01 5.744553804397583008e-01 2.137591242790222168e-01
-3.304299339652061462e-02 1.441590487957000732e-01 3.543426096439361572e-01
-2.765601277351379395e-01 -3.061810433864593506e-01 -2.282821536064147949e-01
3.491395115852355957e-01 -7.742469012737274170e-02 -6.816468387842178345e-02
-3.153285682201385498e-01 3.989540636539459229e-01 1.065254732966423035e-01
-1.748433858156204224e-01 4.137270748615264893e-01 2.497049868106842041e-01
6.836674362421035767e-02 -6.523764133453369141e-01 3.430278301239013672e-01
3.315563127398490906e-02 -3.260553479194641113e-01 -3.560463786125183105e-01
-1.887560635805130005e-01 2.445444464683532715e-02 3.046357333660125732e-01
-4.944452270865440369e-02 -8.042681217193603516e-01 5.826868116855621338e-02
-7.863502204418182373e-02 1.592330783605575562e-01 3.483397662639617920e-01
-1.042417883872985840e-01 -8.042681217193603516e-01 1.331281512975692749e-01
