2.368580549955368042e-01 1.884565800428390503e-01 5.574781298637390137e-01
-2.736349701881408691e-01 -4.203822463750839233e-02 -3.930751681327819824e-01
-5.855831876397132874e-02 1.815983653068542480e-01 5.005908608436584473e-01
2.368580549955368042e-01 -2.457072883844375610e-01 -9.741643071174621582e-02
-1.553330570459365845e-01 1.091075688600540161e-01 3.639828264713287354e-01
3.879310190677642822e-02 -2.929072380065917969e-01 -5.300112962722778320e-01
1.461600214242935181e-01 1.091075688600540161e-01 -8.194851875305175781e-01
3.078535012900829315e-02 6.981264054775238037e-02 9.086948633193969727e-01
9.501494467258453369e-02 1.815983653068542480e-01 -6.544290781021118164e-01
-1.849387958645820618e-02 -2.929072380065917969e-01 2.612535096704959869e-02
1.380800157785415649e-01 -2.929072380065917969e-01 2.093366682529449463e-01
-2.079323492944240570e-02 1.091075688600540161e-01 1.882420331239700317e-01
2.368580549955368042e-01 -2.116089165210723877e-01 4.125904440879821777e-01
-1.521876305341720581e-01 2.265228033065795898e-01 8.524945974349975586e-01
-1.187950521707534790e-01 1.091075688600540161e-01 -8.142540454864501953e-01
-1.220709457993507385e-01 -1.274234354496002197e-01 -9.120653271675109863e-01
1.827237159013748169e-01 -3.503372371196746826e-01 8.927423954010009766e-01
2.368580549955368042e-01 -1.300520598888397217e-01 -8.800210952758789062e-01
2.288739234209060669e-01 1.815983653068542480e-01 -7.195031642913818359e-01
-2.736349701881408691e-01 -7.701735943555831909e-02 5.869958400726318359e-01
-1.326825171709060669e-01 1.091075688600540161e-01 -3.947111368179321289e-01
2.018274962902069092e-01 -2.929072380065917969e-01 -4.885634779930114746e-01
-2.736349701881408691e-01 -2.045144140720367432e-01 -6.428439021110534668e-01
7.497870177030563354e-02 2.265228033065795898e-01 -8.160847425460815430e-01
-2.238812483847141266e-02 -1.223827566718682647e-04 -9.120653271675109863e-01
2.368580549955368042e-01 3.131889551877975464e-02 7.788254618644714355e-01
1.684942245483398438e-01 -2.929072380065917969e-01 -7.839515209197998047e-01
2.368580549955368042e-01 -1.270973384380340576e-01 -2.353339940309524536e-01
-3.109390847384929657e-03 -2.520030438899993896e-01 -9.120653271675109863e-01
-2.736349701881408691e-01 4.567738249897956848e-02 1.393863111734390259e-01
2.368580549955368042e-01 2.178210169076919556e-01 4.061997830867767334e-01
-2.736349701881408691e-01 -2.248963415622711182e-01 8.700276017189025879e-01
-1.065219119191169739e-01 2.265228033065795898e-01 -7.717227339744567871e-01
-2.058148533105850220e-01 1.815983653068542480e-01 -6.496378183364868164e-01
-2.736349701881408691e-01 -2.188635319471359253e-01 -2.083459198474884033e-01
-2.279537543654441833e-02 -2.929072380065917969e-01 4.713034927845001221e-01
2.368580549955368042e-01 8.976576849818229675e-03 -5.871490016579627991e-02
-1.049282476305961609e-01 -2.088025659322738647e-01 9.086948633193969727e-01
2.350609451532363892e-01 -2.929072380065917969e-01 7.580145001411437988e-01
2.368580549955368042e-01 -8.880909532308578491e-02 3.361318111419677734e-01
-2.227637171745300293e-01 1.091075688600540161e-01 -1.044889688491821289e-01
-2.736349701881408691e-01 1.071246415376663208e-01 -4.958932101726531982e-01
2.360099107027053833e-01 1.815983653068542480e-01 6.725664734840393066e-01
1.055513769388198853e-01 1.091075688600540161e-01 -2.118086367845535278e-01
-2.654304206371307373e-01 2.265228033065795898e-01 1.223821118474006653e-01
2.006650269031524658e-01 1.815983653068542480e-01 -3.228601440787315369e-02
1.961597241461277008e-02 1.815983653068542480e-01 7.464233636856079102e-01
-1.672800928354263306e-01 2.265228033065795898e-01 -4.018145203590393066e-01
-8.669275790452957153e-02 1.815983653068542480e-01 -5.935838818550109863e-01
1.353023201227188110e-01 1.721047908067703247e-01 -9.120653271675109863e-01
-1.934852749109268188e-01 2.265228033065795898e-01 -1.860561966896057129e-01
-2.275569587945938110e-01 1.572090536355972290e-01 8.633404374122619629e-01
1.120300292968750000e-01 1.091075688600540161e-01 5.882462859153747559e-01
2.368580549955368042e-01 -3.865072876214981079e-02 9.082500338554382324e-01
9.674383699893951416e-02 2.118079811334609985e-01 9.086948633193969727e-01
2.368580549955368042e-01 -2.512102723121643066e-01 1.014456376433372498e-01
-1.742174029350280762e-01 1.815983653068542480e-01 7.986053824424743652e-01
-2.736349701881408691e-01 -1.157122552394866943e-01 -8.751794099807739258e-01
-2.736349701881408691e-01 2.586879394948482513e-02 -1.903452873229980469e-01
-2.661342322826385498e-01 1.815983653068542480e-01 -8.333242535591125488e-01
2.572775483131408691e-01 2.607658039778470993e-03 -3.558699488639831543e-01
-1.173587590456008911e-01 1.815983653068542480e-01 7.488066554069519043e-01
4.231622815132141113e-02 1.091075688600540161e-01 -3.980354964733123779e-01
-2.736349701881408691e-01 -2.264670729637145996e-01 6.866249442100524902e-01
1.377330571413040161e-01 -2.929072380065917969e-01 5.933004617691040039e-01
2.044697701930999756e-01 -2.929072380065917969e-01 -6.570466756820678711e-01
1.383360326290130615e-01 1.815983653068542480e-01 -1.953471153974533081e-01
-2.736349701881408691e-01 -1.323344111442565918e-01 -7.611036300659179688e-02
1.029615104198455811e-01 1.091075688600540161e-01 1.540240496397018433e-01
-1.172185838222503662e-01 -2.929072380065917969e-01 1.781931030564010143e-03
7.260837405920028687e-02 1.815983653068542480e-01 -3.822214305400848389e-01
-1.285327821969985962e-01 -3.503372371196746826e-01 -8.675471544265747070e-01
-1.242337971925735474e-01 1.815983653068542480e-01 -7.982353568077087402e-01
9.500308334827423096e-02 -2.317219674587249756e-01 9.086948633193969727e-01
-1.001634746789932251e-01 -2.929072380065917969e-01 8.122981190681457520e-01
-1.121260225772857666e-01 2.265228033065795898e-01 3.153485357761383057e-01
-2.736349701881408691e-01 -1.833189576864242554e-01 4.534877538681030273e-01
2.221352905035018921e-01 2.265228033065795898e-01 -3.194742798805236816e-01
-1.975628435611724854e-01 1.091075688600540161e-01 -5.357980132102966309e-01
1.438676863908767700e-01 1.091075688600540161e-01 -3.386976718902587891e-01
3.900335729122161865e-02 -2.929072380065917969e-01 -1.148128807544708252e-01
3.432547301054000854e-02 2.265228033065795898e-01 3.778366744518280029e-01
1.141058877110481262e-01 -1.873421818017959595e-01 -9.120653271675109863e-01
1.680612713098526001e-01 2.265228033065795898e-01 8.557546138763427734e-01
-9.746258705854415894e-02 2.265228033065795898e-01 -8.541700989007949829e-02
-2.736349701881408691e-01 -1.943467110395431519e-01 -3.652389645576477051e-01
-9.810343384742736816e-02 2.265228033065795898e-01 3.865117728710174561e-01
-1.882254481315612793e-01 2.334712073206901550e-02 9.086948633193969727e-01
2.578373067080974579e-02 2.265228033065795898e-01 6.080815792083740234e-01
-4.546778276562690735e-02 -2.929072380065917969e-01 -3.547875285148620605e-01
2.572775483131408691e-01 -2.384435571730136871e-02 5.501026660203933716e-02
-2.736349701881408691e-01 -2.705471403896808624e-02 8.859099149703979492e-01
2.368580549955368042e-01 2.229592502117156982e-01 -2.344058007001876831e-01
2.572775483131408691e-01 7.466421276330947876e-02 4.216896295547485352e-01
-1.320350468158721924e-01 1.815983653068542480e-01 4.275187849998474121e-01
2.368580549955368042e-01 -1.446238607168197632e-01 4.805568754673004150e-01
1.144696548581123352e-01 1.815983653068542480e-01 -5.225118249654769897e-02
2.368580549955368042e-01 2.184675037860870361e-01 2.271178364753723145e-01
-1.274035498499870300e-02 1.091075688600540161e-01 5.231267213821411133e-01
-2.736349701881408691e-01 7.482014916604384780e-05 6.614567041397094727e-01
-3.515998274087905884e-02 2.265228033065795898e-01 1.831947416067123413e-01
-2.003879845142364502e-01 1.091075688600540161e-01 4.786955118179321289e-01
-2.292066998779773712e-02 1.091075688600540161e-01 5.090067163109779358e-02
3.095191530883312225e-02 -2.929072380065917969e-01 -6.759863495826721191e-01
-6.466706097126007080e-02 -2.929072380065917969e-01 -2.825487852096557617e-01
1.235697939991950989e-01 1.815983653068542480e-01 3.840521723031997681e-02
2.368580549955368042e-01 -1.134535297751426697e-01 -1.116397902369499207e-01
-1.750259995460510254e-01 2.265228033065795898e-01 5.072662234306335449e-01
-1.803807020187377930e-01 2.265228033065795898e-01 -8.405198156833648682e-02
-1.872893422842025757e-01 1.815983653068542480e-01 6.339862346649169922e-01
-1.291832327842712402e-01 2.265228033065795898e-01 -6.925250291824340820e-01
9.472827613353729248e-02 -3.479776978492736816e-01 -8.667108416557312012e-01
1.478829830884933472e-01 2.265228033065795898e-01 1.399655789136886597e-01
2.368580549955368042e-01 -6.827538460493087769e-02 -7.026403546333312988e-01
-3.442572429776191711e-02 -5.015936121344566345e-02 9.086948633193969727e-01
9.370221197605133057e-02 2.265228033065795898e-01 8.529878258705139160e-01
-1.891022622585296631e-01 1.815983653068542480e-01 2.203920632600784302e-01
-3.997062891721725464e-02 1.091075688600540161e-01 -7.433518171310424805e-01
-1.511062085628509521e-01 -2.929072380065917969e-01 3.382462263107299805e-01
2.572775483131408691e-01 -3.437941521406173706e-02 6.118171215057373047e-01
-1.599632054567337036e-01 1.091075688600540161e-01 7.022442817687988281e-01
1.622963249683380127e-01 1.815983653068542480e-01 -7.196297049522399902e-01
-2.063802927732467651e-01 -2.929072380065917969e-01 -4.224544465541839600e-01
2.104848176240921021e-01 1.785705983638763428e-01 -9.120653271675109863e-01
2.553934454917907715e-01 9.157352149486541748e-02 1.741449981927871704e-01
-1.292459201067686081e-02 1.815983653068542480e-01 4.060366749763488770e-01
3.878624644130468369e-03 2.265228033065795898e-01 -5.485121607780456543e-01
-1.932411193847656250e-01 -2.929072380065917969e-01 5.609379410743713379e-01
1.792926341295242310e-01 1.091075688600540161e-01 -6.171497106552124023e-01
-1.293710321187973022e-01 2.265228033065795898e-01 -4.753046929836273193e-01
1.362680792808532715e-01 -2.929072380065917969e-01 -4.703246057033538818e-01
2.572775483131408691e-01 8.829466253519058228e-02 -7.384211421012878418e-01
-2.736349701881408691e-01 -2.995944619178771973e-01 -9.106833934783935547e-01
-2.395544052124023438e-01 1.815983653068542480e-01 3.961763679981231689e-01
2.477493435144424438e-01 -2.753741741180419922e-01 -2.740081548690795898e-01
2.343235164880752563e-01 -2.929072380065917969e-01 5.013539791107177734e-01
2.352092266082763672e-01 1.091075688600540161e-01 -4.867419227957725525e-02
-2.736349701881408691e-01 -8.575996756553649902e-02 3.603510856628417969e-01
6.457757949829101562e-02 1.815983653068542480e-01 2.177448570728302002e-01
1.231477037072181702e-01 1.815983653068542480e-01 -8.367909193038940430e-01
-2.736349701881408691e-01 7.195373624563217163e-02 7.176724821329116821e-02
-7.006092369556427002e-02 1.091075688600540161e-01 7.991332411766052246e-01
2.572775483131408691e-01 7.351753860712051392e-02 -5.466369390487670898e-01
-1.043841764330863953e-01 8.958860486745834351e-02 -9.120653271675109863e-01
-2.736349701881408691e-01 9.904263913631439209e-02 -6.887913942337036133e-01
-2.608457505702972412e-01 2.265228033065795898e-01 -1.516602784395217896e-01
-2.071275860071182251e-01 -2.929072380065917969e-01 -2.091159522533416748e-01
2.368580549955368042e-01 7.093062996864318848e-02 8.119887113571166992e-01
-2.736349701881408691e-01 -1.143094748258590698e-01 -5.484963059425354004e-01
1.748535409569740295e-02 2.265228033065795898e-01 -1.566176116466522217e-01
2.368580549955368042e-01 -1.472949981689453125e-01 1.786416918039321899e-01
-2.736349701881408691e-01 -2.898023724555969238e-01 4.571165144443511963e-01
2.368580549955368042e-01 -2.085059881210327148e-01 -5.194995999336242676e-01
2.012383639812469482e-01 -2.929072380065917969e-01 3.211866319179534912e-01
-7.187304645776748657e-02 2.265228033065795898e-01 -2.213397771120071411e-01
1.683874875307083130e-01 2.265228033065795898e-01 -6.240534186363220215e-01
2.756461314857006073e-02 -2.929072380065917969e-01 6.671761870384216309e-01
2.241036854684352875e-02 1.091075688600540161e-01 -8.640340566635131836e-01
-5.789879336953163147e-02 -2.929072380065917969e-01 -5.954056978225708008e-01
-7.404893636703491211e-02 -3.412993848323822021e-01 9.086948633193969727e-01
8.288799971342086792e-02 1.815983653068542480e-01 -7.098326683044433594e-01
-3.245494887232780457e-02 2.265228033065795898e-01 8.880213499069213867e-01
2.349512130022048950e-01 1.815983653068542480e-01 7.970584034919738770e-01
2.368580549955368042e-01 -2.348347604274749756e-01 -8.411492109298706055e-01
1.650473326444625854e-01 -2.929072380065917969e-01 -1.408450752496719360e-01
-1.292603164911270142e-01 1.091075688600540161e-01 2.680794000625610352e-01
-1.974274218082427979e-01 1.815983653068542480e-01 1.792948506772518158e-02
-1.047222465276718140e-01 1.091075688600540161e-01 -1.536293774843215942e-01
-4.045206122100353241e-03 1.815983653068542480e-01 5.429669618606567383e-01
1.481182426214218140e-01 2.265228033065795898e-01 6.055381298065185547e-01
-2.023946493864059448e-01 1.815983653068542480e-01 2.842305004596710205e-01
-2.736349701881408691e-01 1.918263733386993408e-01 -6.104051470756530762e-01
2.572775483131408691e-01 -1.014871224761009216e-01 8.114045262336730957e-01
3.208276256918907166e-02 1.091075688600540161e-01 -5.833647251129150391e-01
-2.736349701881408691e-01 -3.858074173331260681e-02 -2.959667146205902100e-01
-2.736349701881408691e-01 -2.194843143224716187e-01 2.945423126220703125e-02
2.572775483131408691e-01 7.541645318269729614e-02 5.486053824424743652e-01
1.654825359582901001e-02 -2.205597907304763794e-01 9.086948633193969727e-01
-1.733099520206451416e-01 1.815983653068542480e-01 -7.360160946846008301e-01
2.368580549955368042e-01 -5.220678821206092834e-02 -5.895754694938659668e-01
-2.411073446273803711e-01 -2.929072380065917969e-01 -5.437594056129455566e-01
3.336820378899574280e-02 -3.097866848111152649e-02 9.086948633193969727e-01
-1.866675764322280884e-01 -2.929072380065917969e-01 -7.882406711578369141e-01
-2.736349701881408691e-01 1.816270351409912109e-01 -4.257293641567230225e-01
-2.736349701881408691e-01 1.198288649320602417e-01 -8.904913067817687988e-01
-6.000666692852973938e-02 1.815983653068542480e-01 7.160328626632690430e-01
6.730318069458007812e-02 -2.929072380065917969e-01 1.192979812622070312e-01
-2.736349701881408691e-01 3.783855959773063660e-02 5.402811765670776367e-01
2.572775483131408691e-01 -1.909551322460174561e-01 7.766695618629455566e-01
1.011990085244178772e-01 1.091075688600540161e-01 3.767701089382171631e-01
-2.736349701881408691e-01 8.367637544870376587e-02 7.736170887947082520e-01
-1.607085317373275757e-01 2.265228033065795898e-01 -5.610038042068481445e-01
-2.736349701881408691e-01 -2.220472693443298340e-02 -6.940136551856994629e-01
-6.007606163620948792e-02 1.091075688600540161e-01 -6.040174961090087891e-01
-1.076852828264236450e-01 -2.929072380065917969e-01 9.386362880468368530e-02
-1.967305243015289307e-01 -5.176172405481338501e-02 -9.120653271675109863e-01
7.281161099672317505e-02 -2.929072380065917969e-01 -3.560953140258789062e-01
-1.724117249250411987e-02 1.815983653068542480e-01 -8.002262115478515625e-01
2.568981982767581940e-02 1.091075688600540161e-01 -1.153147965669631958e-02
-2.539509721100330353e-02 2.265228033065795898e-01 4.079047217965126038e-02
9.504064917564392090e-02 1.091075688600540161e-01 7.021830081939697266e-01
-1.104767099022865295e-01 1.815983653068542480e-01 -2.065241038799285889e-01
6.235740706324577332e-02 -2.929072380065917969e-01 -7.859482765197753906e-01
-2.736349701881408691e-01 -3.839767351746559143e-02 -7.936230301856994629e-01
-2.359780073165893555e-01 -3.137260973453521729e-01 8.633404374122619629e-01
-4.051963984966278076e-02 -2.929072380065917969e-01 3.698258697986602783e-01
-2.494720220565795898e-01 1.091075688600540161e-01 3.798047900199890137e-01
4.066384211182594299e-02 -2.929072380065917969e-01 7.885286211967468262e-01
2.402396947145462036e-01 -2.753741741180419922e-01 1.822158880531787872e-02
-1.017698869109153748e-01 -2.929072380065917969e-01 6.811960935592651367e-01
-8.027026802301406860e-02 1.091075688600540161e-01 6.343658566474914551e-01
2.368580549955368042e-01 -8.531760424375534058e-02 -3.361265957355499268e-01
-1.181800384074449539e-02 -1.857309043407440186e-01 -9.120653271675109863e-01
1.619582623243331909e-01 -2.929072380065917969e-01 8.429387807846069336e-01
1.113252192735671997e-01 8.363386988639831543e-02 -9.120653271675109863e-01
1.675551533699035645e-01 -1.755266189575195312e-01 -9.120653271675109863e-01
2.514068186283111572e-01 9.157352149486541748e-02 -3.146632611751556396e-01
2.097150310873985291e-02 1.091075688600540161e-01 -1.814280152320861816e-01
4.528034850955009460e-02 2.265228033065795898e-01 -4.435144662857055664e-01
1.842420697212219238e-01 1.091075688600540161e-01 -2.001393735408782959e-01
2.368580549955368042e-01 -4.904542118310928345e-02 -1.835355013608932495e-01
1.143816709518432617e-01 1.091075688600540161e-01 -7.514219284057617188e-01
-2.736349701881408691e-01 -2.872461080551147461e-01 -7.260035276412963867e-01
-1.345211416482925415e-01 1.091075688600540161e-01 -1.917472481727600098e-02
-1.102998014539480209e-02 1.091075688600540161e-01 4.035120308399200439e-01
-2.736349701881408691e-01 -2.070835381746292114e-01 1.541278511285781860e-01
8.077656477689743042e-02 -2.929072380065917969e-01 3.000406026840209961e-01
2.572775483131408691e-01 -3.677316382527351379e-02 2.932732999324798584e-01
-2.736349701881408691e-01 -3.643964603543281555e-02 -3.975607920438051224e-03
1.436324268579483032e-01 2.265228033065795898e-01 -4.519651830196380615e-01
-1.792231649160385132e-01 1.815983653068542480e-01 1.152767539024353027e-01
-1.446552574634552002e-01 1.271516829729080200e-01 9.086948633193969727e-01
2.572775483131408691e-01 -2.067800611257553101e-01 6.777808070182800293e-01
-8.069196343421936035e-02 2.265228033065795898e-01 -3.411363065242767334e-01
-2.736349701881408691e-01 -2.320234477519989014e-01 -5.640622377395629883e-01
-2.736349701881408691e-01 -7.795464992523193359e-02 4.767284095287322998e-01
1.656918376684188843e-01 4.455345124006271362e-02 9.086948633193969727e-01
-9.576137363910675049e-02 1.218100637197494507e-02 9.086948633193969727e-01
-2.736349701881408691e-01 -2.291983067989349365e-01 -2.734694182872772217e-01
8.200230449438095093e-02 1.666581481695175171e-01 8.633404374122619629e-01
-1.758306324481964111e-01 -2.929072380065917969e-01 2.525262832641601562e-01
3.058497980237007141e-02 1.815983653068542480e-01 -7.660023570060729980e-01
5.195016786456108093e-02 1.815983653068542480e-01 -2.421299368143081665e-01
-4.512151330709457397e-02 -3.183305561542510986e-01 -9.120653271675109863e-01
5.828271061182022095e-02 -9.525244683027267456e-02 -9.120653271675109863e-01
-5.325539782643318176e-02 2.265228033065795898e-01 -8.665022850036621094e-01
2.238325476646423340e-01 1.091075688600540161e-01 7.416677474975585938e-01
2.225553989410400391e-01 1.918967813253402710e-02 -9.120653271675109863e-01
-1.755192577838897705e-01 1.091075688600540161e-01 -7.647251486778259277e-01
1.910419762134552002e-01 1.091075688600540161e-01 9.103908389806747437e-02
2.572775483131408691e-01 -1.244532912969589233e-01 5.801780819892883301e-01
2.368580549955368042e-01 -1.526732090860605240e-02 6.951626539230346680e-01
7.641024887561798096e-02 2.265228033065795898e-01 7.644190788269042969e-01
-2.584268748760223389e-01 1.091075688600540161e-01 -1.459427773952484131e-01
-1.829923242330551147e-01 1.091075688600540161e-01 1.837512701749801636e-01
-2.736349701881408691e-01 -1.130821555852890015e-01 -4.496649503707885742e-01
2.572775483131408691e-01 -1.183257251977920532e-02 -7.784356474876403809e-01
-7.284443825483322144e-02 2.265228033065795898e-01 5.478659868240356445e-01
-2.736349701881408691e-01 -1.220448985695838928e-01 6.915249824523925781e-01
-2.011708766222000122e-01 -2.929072380065917969e-01 -1.251545846462249756e-01
-2.736349701881408691e-01 -7.406321913003921509e-02 -6.262034177780151367e-01
1.511242687702178955e-01 1.091075688600540161e-01 -4.123390913009643555e-01
-9.056314080953598022e-02 -2.929072380065917969e-01 -2.198639363050460815e-01
2.368580549955368042e-01 -2.572915256023406982e-01 -7.363650202751159668e-01
1.791937798261642456e-01 2.265228033065795898e-01 7.877447605133056641e-01
7.017675787210464478e-02 2.265228033065795898e-01 -1.803159564733505249e-01
1.740169972181320190e-01 1.815983653068542480e-01 4.000552296638488770e-01
-2.725486159324645996e-01 -1.247623935341835022e-01 9.086948633193969727e-01
-2.113297134637832642e-01 -2.929072380065917969e-01 -8.505508303642272949e-01
-1.965446770191192627e-01 2.265228033065795898e-01 -3.407883644104003906e-01
-2.641285657882690430e-01 -2.062897682189941406e-01 -9.120653271675109863e-01
-1.444081366062164307e-01 -2.929072380065917969e-01 -3.842705786228179932e-01
-2.736349701881408691e-01 1.133712008595466614e-02 2.911727428436279297e-01
-2.736349701881408691e-01 -1.965866386890411377e-01 7.756583094596862793e-01
-1.306353360414505005e-01 1.091075688600540161e-01 4.676994383335113525e-01
1.864325851202011108e-01 -1.108506098389625549e-01 9.086948633193969727e-01
4.912868514657020569e-02 2.265228033065795898e-01 6.713337898254394531e-01
1.766197234392166138e-01 -2.929072380065917969e-01 6.554209589958190918e-01
1.092068627476692200e-01 -3.311029970645904541e-01 9.086948633193969727e-01
2.572775483131408691e-01 4.838587343692779541e-02 -1.273836493492126465e-01
8.851554989814758301e-02 1.815983653068542480e-01 5.941614508628845215e-01
2.368580549955368042e-01 -2.820979952812194824e-01 -3.724105358123779297e-01
2.572775483131408691e-01 -1.970532238483428955e-01 -2.681179158389568329e-02
2.572775483131408691e-01 3.330143541097640991e-02 2.570318579673767090e-01
-2.736349701881408691e-01 7.012501358985900879e-02 8.482884764671325684e-01
1.073860526084899902e-01 1.091075688600540161e-01 -6.303396075963973999e-02
1.300968676805496216e-01 1.091075688600540161e-01 2.795914709568023682e-01
2.368580549955368042e-01 -1.835888475179672241e-01 3.295691311359405518e-01
1.207179725170135498e-01 2.265228033065795898e-01 3.725571036338806152e-01
-2.221982926130294800e-01 1.091075688600540161e-01 -4.542614817619323730e-01
-2.062982469797134399e-01 1.815983653068542480e-01 5.681569576263427734e-01
1.606267541646957397e-01 1.815983653068542480e-01 -6.341262459754943848e-01
6.549458950757980347e-03 -2.929072380065917969e-01 -1.996767520904541016e-01
2.572775483131408691e-01 -1.701639890670776367e-01 7.560283690690994263e-02
-2.255413979291915894e-01 1.091075688600540161e-01 -1.650238060392439365e-03
-2.736349701881408691e-01 2.229404896497726440e-01 8.054458498954772949e-01
-2.736349701881408691e-01 -2.121011912822723389e-01 2.340235114097595215e-01
6.121756881475448608e-02 2.265228033065795898e-01 -3.564899787306785583e-02
2.572775483131408691e-01 -2.064627557992935181e-01 -2.922084331512451172e-01
2.572775483131408691e-01 -1.101595535874366760e-01 -7.866906523704528809e-01
2.368580549955368042e-01 -8.479171991348266602e-02 4.223568439483642578e-01
-8.084072917699813843e-02 -2.929072380065917969e-01 -6.516020298004150391e-01
2.368580549955368042e-01 3.000003844499588013e-02 -5.069664120674133301e-01
-1.776544153690338135e-01 2.265228033065795898e-01 -8.271263241767883301e-01
2.366326600313186646e-01 1.815983653068542480e-01 3.155818283557891846e-01
2.572775483131408691e-01 2.943975292146205902e-02 4.813872277736663818e-01
2.153047472238540649e-01 -2.929072380065917969e-01 -4.087488651275634766e-01
-2.736349701881408691e-01 -2.032155394554138184e-01 -7.478010654449462891e-01
2.368580549955368042e-01 -1.283813863992691040e-01 -4.659425914287567139e-01
1.799569129943847656e-01 1.815983653068542480e-01 2.059441208839416504e-01
1.908195465803146362e-01 2.265228033065795898e-01 4.955317378044128418e-01
-1.678672581911087036e-01 2.265228033065795898e-01 7.255491614341735840e-01
-1.867427080869674683e-01 2.265228033065795898e-01 3.543904125690460205e-01
1.628716289997100830e-01 -2.929072380065917969e-01 5.343165397644042969e-01
1.619039028882980347e-01 -2.929072380065917969e-01 -2.708765864372253418e-01
-2.736349701881408691e-01 -8.639131486415863037e-02 -1.541167050600051880e-01
-1.936800032854080200e-01 1.091075688600540161e-01 -3.402753472328186035e-01
1.742641180753707886e-01 -2.929072380065917969e-01 1.249057427048683167e-01
-5.432703718543052673e-02 -2.929072380065917969e-01 -8.532257676124572754e-01
1.128979399800300598e-01 -2.929072380065917969e-01 -7.033569812774658203e-01
-2.909196540713310242e-02 -2.929072380065917969e-01 -4.770545661449432373e-02
1.264759898185729980e-01 2.265228033065795898e-01 -3.368135988712310791e-01
2.368580549955368042e-01 -9.541713446378707886e-02 1.138819754123687744e-01
2.368580549955368042e-01 -2.793894708156585693e-01 -5.696057677268981934e-01
-2.736349701881408691e-01 2.133450955152511597e-01 9.021974205970764160e-01
2.368580549955368042e-01 -1.192692890763282776e-01 2.664374709129333496e-01
-2.736349701881408691e-01 -2.261477857828140259e-01 -1.135258451104164124e-01
-2.084818333387374878e-01 -2.929072380065917969e-01 3.656472265720367432e-02
-1.475999951362609863e-01 2.265228033065795898e-01 7.034938782453536987e-03
-8.676413446664810181e-02 1.649213433265686035e-01 8.633404374122619629e-01
2.368580549955368042e-01 -2.921046018600463867e-01 2.527625560760498047e-01
-1.003797575831413269e-01 1.815983653068542480e-01 2.791416943073272705e-01
2.163624316453933716e-01 1.091075688600540161e-01 -8.458762168884277344e-01
6.802469491958618164e-02 -2.929072380065917969e-01 2.251732163131237030e-02
2.368580549955368042e-01 1.840953081846237183e-01 -1.579728424549102783e-01
-2.572891116142272949e-01 -2.929072380065917969e-01 6.204417943954467773e-01
-1.193495988845825195e-01 2.265228033065795898e-01 1.045475527644157410e-01
-2.736349701881408691e-01 1.820204704999923706e-01 5.009220242500305176e-01
-3.856715187430381775e-02 -1.384726166725158691e-01 9.086948633193969727e-01
1.250999867916107178e-01 1.815983653068542480e-01 7.867661714553833008e-01
-2.517456114292144775e-01 -2.929072380065917969e-01 3.596571683883666992e-01
1.836304552853107452e-02 1.521004736423492432e-01 9.086948633193969727e-01
2.572775483131408691e-01 3.933515399694442749e-02 1.373074948787689209e-01
-2.736349701881408691e-01 -3.838106617331504822e-02 1.312044858932495117e-01
-7.902623713016510010e-02 2.265228033065795898e-01 8.069374561309814453e-01
-1.040428429841995239e-01 1.091075688600540161e-01 -2.788537740707397461e-01
2.368580549955368042e-01 -4.521695151925086975e-02 -1.287191212177276611e-01
-2.839783951640129089e-02 1.091075688600540161e-01 -4.474447369575500488e-01
2.368580549955368042e-01 -2.943069636821746826e-01 8.906992077827453613e-01
5.409827828407287598e-02 1.091075688600540161e-01 7.749376893043518066e-01
2.340338975191116333e-01 2.148169577121734619e-01 9.086948633193969727e-01
-1.478589922189712524e-01 -2.929072380065917969e-01 -5.639188885688781738e-01
3.581751510500907898e-02 2.265228033065795898e-01 4.966922104358673096e-01
2.368580549955368042e-01 -1.998496800661087036e-01 -8.002044558525085449e-01
-2.528092265129089355e-01 1.091075688600540161e-01 -6.030033230781555176e-01
2.147403061389923096e-01 -2.929072380065917969e-01 4.124124944210052490e-01
-1.427711695432662964e-01 1.815983653068542480e-01 -8.871988952159881592e-02
6.187007948756217957e-02 2.265228033065795898e-01 -5.965552926063537598e-01
-1.374016255140304565e-01 -2.917487323284149170e-01 9.086948633193969727e-01
2.368580549955368042e-01 -5.585746467113494873e-02 7.699359059333801270e-01
-5.107950791716575623e-02 2.265228033065795898e-01 6.483086347579956055e-01
2.210244908928871155e-02 -2.929072380065917969e-01 5.987659096717834473e-01
1.113865077495574951e-01 -2.929072380065917969e-01 8.133024573326110840e-01
-2.252534776926040649e-02 1.815983653068542480e-01 2.148258090019226074e-01
-1.007842496037483215e-01 1.815983653068542480e-01 3.556764423847198486e-01
-2.446372807025909424e-01 -2.929072380065917969e-01 6.568983942270278931e-02
-9.517470002174377441e-02 -2.442314475774765015e-01 -9.120653271675109863e-01
2.572775483131408691e-01 -4.134538397192955017e-02 -8.496187329292297363e-01
-1.309674680233001709e-01 2.002098858356475830e-01 9.086948633193969727e-01
-2.736349701881408691e-01 -1.288798898458480835e-01 8.549045324325561523e-01
2.572775483131408691e-01 -1.143081933259963989e-01 -5.330341458320617676e-01
-2.736349701881408691e-01 3.170134872198104858e-02 -4.497084319591522217e-01
-6.405310332775115967e-02 2.265228033065795898e-01 2.430683076381683350e-01
3.183375298976898193e-02 -2.929072380065917969e-01 -4.322653114795684814e-01
-2.083394825458526611e-01 -1.980960965156555176e-01 9.086948633193969727e-01
6.901714205741882324e-02 2.265228033065795898e-01 2.785999774932861328e-01
-1.915062963962554932e-01 1.196973845362663269e-01 -9.120653271675109863e-01
-1.926990598440170288e-02 1.091075688600540161e-01 -1.468650549650192261e-01
-2.293471395969390869e-01 2.265228033065795898e-01 -4.600352942943572998e-01
2.368580549955368042e-01 -2.372427284717559814e-01 1.791586875915527344e-01
2.258332818746566772e-01 2.265228033065795898e-01 7.557278871536254883e-02
2.368580549955368042e-01 -5.220045894384384155e-02 -4.138566926121711731e-02
-1.764879822731018066e-01 1.091075688600540161e-01 -1.884572505950927734e-01
7.178880274295806885e-02 1.815983653068542480e-01 3.875635564327239990e-01
-5.820799246430397034e-02 1.389771103858947754e-01 -8.667108416557312012e-01
-2.465421259403228760e-01 1.091075688600540161e-01 6.812237501144409180e-01
2.572775483131408691e-01 -7.120583951473236084e-02 -4.083524644374847412e-01
-5.281195789575576782e-02 1.815983653068542480e-01 -3.358312696218490601e-02
-1.613945364952087402e-01 1.959041878581047058e-02 -9.120653271675109863e-01
-2.736349701881408691e-01 7.352446764707565308e-02 -2.606188654899597168e-01
-6.475701183080673218e-02 1.091075688600540161e-01 2.951989173889160156e-01
-2.691086232662200928e-01 2.263389527797698975e-01 -9.120653271675109863e-01
2.499289959669113159e-01 1.794061064720153809e-02 8.633404374122619629e-01
-7.919853180646896362e-02 1.091075688600540161e-01 1.294459402561187744e-01
-5.322258174419403076e-02 1.091075688600540161e-01 -3.603468835353851318e-01
-2.238856703042984009e-01 -1.337770372629165649e-01 -9.120653271675109863e-01
2.005506493151187897e-02 1.091075688600540161e-01 1.186544671654701233e-01
7.158969994634389877e-03 6.691930443048477173e-02 -9.120653271675109863e-01
-2.480387501418590546e-02 -2.929072380065917969e-01 -5.389423966407775879e-01
-1.322574615478515625e-01 1.502608656883239746e-01 -8.667108416557312012e-01
7.705109566450119019e-02 -2.929072380065917969e-01 -5.896713733673095703e-01
2.016089623793959618e-03 1.091075688600540161e-01 5.997247695922851562e-01
-3.799886256456375122e-02 -2.929072380065917969e-01 1.289467364549636841e-01
-2.736349701881408691e-01 -2.915381789207458496e-01 7.239152193069458008e-01
1.100421473383903503e-01 1.815983653068542480e-01 6.452659964561462402e-01
1.196485391119495034e-04 1.815983653068542480e-01 6.528913378715515137e-01
2.572775483131408691e-01 4.676473140716552734e-02 2.627204544842243195e-02
-7.496023178100585938e-02 2.265228033065795898e-01 -5.417082905769348145e-01
-2.736349701881408691e-01 -2.103199064731597900e-01 3.945542275905609131e-01
-1.335642635822296143e-01 -2.929072380065917969e-01 1.813571155071258545e-01
4.710591584444046021e-02 1.091075688600540161e-01 8.316984772682189941e-01
1.293337494134902954e-01 -4.029826447367668152e-02 9.086948633193969727e-01
-2.364930212497711182e-01 2.265228033065795898e-01 1.968924105167388916e-01
8.526337146759033203e-02 -2.929072380065917969e-01 -5.251738801598548889e-02
8.021182566881179810e-02 -2.823480963706970215e-01 -9.120653271675109863e-01
-1.735145747661590576e-01 -2.929072380065917969e-01 9.943502396345138550e-02
2.249327450990676880e-01 -2.929072380065917969e-01 -2.038205564022064209e-01
-2.736349701881408691e-01 -1.547605693340301514e-01 5.943156480789184570e-01
-5.651449039578437805e-02 2.265228033065795898e-01 -6.485208272933959961e-01
1.770479977130889893e-02 1.091075688600540161e-01 2.280687838792800903e-01
1.319335103034973145e-01 1.815983653068542480e-01 -3.903874456882476807e-01
2.149182409048080444e-01 1.091075688600540161e-01 -4.903902411460876465e-01
1.892695724964141846e-01 1.091075688600540161e-01 3.961348533630371094e-01
-1.795424520969390869e-01 -2.929072380065917969e-01 7.893283367156982422e-01
1.908324062824249268e-01 1.091075688600540161e-01 5.240558981895446777e-01
4.598552361130714417e-03 -2.929072380065917969e-01 2.954954802989959717e-01
2.572775483131408691e-01 -2.491630762815475464e-01 3.328262567520141602e-01
2.366741895675659180e-01 2.265228033065795898e-01 -8.599683046340942383e-01
-1.744121313095092773e-01 -2.929072380065917969e-01 6.458759307861328125e-01
9.997227787971496582e-02 1.200423762202262878e-01 9.086948633193969727e-01
-2.736349701881408691e-01 -2.486678361892700195e-01 -4.225542843341827393e-01
2.368580549955368042e-01 2.877637185156345367e-02 6.370792388916015625e-01
2.368580549955368042e-01 -1.977876871824264526e-01 -1.096469685435295105e-01
2.368580549955368042e-01 -2.169023454189300537e-01 5.289568901062011719e-01
2.366365939378738403e-01 2.265228033065795898e-01 -2.832024544477462769e-02
-2.697669863700866699e-01 -2.929072380065917969e-01 -6.571543812751770020e-01
7.502160221338272095e-02 2.265228033065795898e-01 -8.995815515518188477e-01
2.536536753177642822e-01 9.157352149486541748e-02 -6.231994032859802246e-01
2.368580549955368042e-01 2.258387506008148193e-01 -6.235334873199462891e-01
5.275233834981918335e-02 1.815983653068542480e-01 -1.411386579275131226e-01
1.035499386489391327e-02 -2.897796332836151123e-01 9.086948633193969727e-01
-1.269037425518035889e-01 -3.426168113946914673e-02 9.086948633193969727e-01
-2.736349701881408691e-01 -7.685543596744537354e-02 -7.957970350980758667e-02
-2.302684038877487183e-01 2.265228033065795898e-01 -7.559937238693237305e-01
-2.600134313106536865e-01 -3.265983760356903076e-01 9.086948633193969727e-01
-2.251183241605758667e-01 1.815983653068542480e-01 -2.314155697822570801e-01
2.322456985712051392e-01 2.265228033065795898e-01 5.984881520271301270e-01
-1.208689287304878235e-01 -2.929072380065917969e-01 4.593960046768188477e-01
-2.736349701881408691e-01 -3.072946704924106598e-02 -5.132542252540588379e-01
1.519259661436080933e-01 1.785152405500411987e-01 9.086948633193969727e-01
5.204108543694019318e-03 1.091075688600540161e-01 7.976890802383422852e-01
-2.728234231472015381e-01 -2.929072380065917969e-01 2.769314348697662354e-01
-1.843687519431114197e-02 -2.929072380065917969e-01 -4.596685469150543213e-01
2.368580549955368042e-01 2.216811180114746094e-01 7.188056111335754395e-01
2.572775483131408691e-01 -1.013017892837524414e-01 5.200079679489135742e-01
-2.613775432109832764e-01 2.265228033065795898e-01 6.338646411895751953e-01
-2.013310194015502930e-01 1.815983653068542480e-01 -1.534138768911361694e-01
5.908536911010742188e-02 1.091075688600540161e-01 -2.998436391353607178e-01
2.572775483131408691e-01 -2.587386965751647949e-01 6.905987262725830078e-01
2.368580549955368042e-01 -1.749760210514068604e-01 -1.748663485050201416e-01
2.572775483131408691e-01 6.618385761976242065e-02 3.213339149951934814e-01
-2.273029088973999023e-01 1.091075688600540161e-01 1.226470246911048889e-01
2.368580549955368042e-01 -2.263217717409133911e-01 -6.623193025588989258e-01
2.048454135656356812e-01 1.815983653068542480e-01 -2.808189094066619873e-01
-1.839659959077835083e-01 2.265228033065795898e-01 5.899208188056945801e-01
2.572775483131408691e-01 -1.180390827357769012e-02 3.914137780666351318e-01
-2.736349701881408691e-01 -1.187260076403617859e-01 5.170840024948120117e-01
-2.067193388938903809e-01 1.091075688600540161e-01 -8.423116803169250488e-01
-2.736349701881408691e-01 -1.799560785293579102e-01 -8.248577117919921875e-01
-2.500285804271697998e-01 -2.929072380065917969e-01 -3.611841201782226562e-01
2.572775483131408691e-01 -2.603163719177246094e-01 8.231449723243713379e-01
1.635003238916397095e-01 1.438533961772918701e-01 8.633404374122619629e-01
2.572775483131408691e-01 4.751599580049514771e-02 6.868114322423934937e-02
2.418390810489654541e-01 -2.753741741180419922e-01 1.929720193147659302e-01
-2.736349701881408691e-01 -1.010162979364395142e-01 2.007987163960933685e-02
1.839237660169601440e-01 1.091075688600540161e-01 1.713920235633850098e-01
4.299097880721092224e-02 -7.711410056799650192e-03 -9.120653271675109863e-01
-2.139423191547393799e-01 1.815983653068542480e-01 -8.160363435745239258e-01
2.368580549955368042e-01 -1.120554953813552856e-01 8.789706230163574219e-01
-2.099092304706573486e-01 1.815983653068542480e-01 -6.048767641186714172e-02
1.882711946964263916e-01 -2.929072380065917969e-01 -6.179635599255561829e-02
-9.878075122833251953e-02 2.265228033065795898e-01 4.714933037757873535e-01
-2.736349701881408691e-01 -4.581815749406814575e-02 -2.251010239124298096e-01
-2.091075628995895386e-01 1.091075688600540161e-01 2.834891378879547119e-01
-1.811025664210319519e-02 2.265228033065795898e-01 -6.462080776691436768e-02
-2.736349701881408691e-01 -1.790286600589752197e-02 2.093376517295837402e-01
1.517035365104675293e-01 -2.929072380065917969e-01 -5.433323979377746582e-01
-1.402405947446823120e-01 -3.273091018199920654e-01 8.633404374122619629e-01
-1.291753202676773071e-01 -4.771963879466056824e-02 -9.120653271675109863e-01
-4.681800492107868195e-03 1.815983653068542480e-01 -6.005725264549255371e-01
-1.768478006124496460e-01 -2.929072380065917969e-01 -4.752594605088233948e-02
-1.087643280625343323e-01 2.044663727283477783e-01 -9.120653271675109863e-01
-2.644755244255065918e-01 2.265228033065795898e-01 4.586575925350189209e-01
-2.736349701881408691e-01 -1.354697346687316895e-01 1.912312656641006470e-01
4.906344413757324219e-02 2.265228033065795898e-01 -3.129827976226806641e-01
1.918673515319824219e-01 8.751571923494338989e-02 -9.120653271675109863e-01
-2.180752456188201904e-01 -5.656653642654418945e-02 9.086948633193969727e-01
-3.306376934051513672e-02 2.265228033065795898e-01 7.850233912467956543e-01
2.190936654806137085e-01 2.265228033065795898e-01 -4.002240300178527832e-01
1.965993344783782959e-01 -2.542074024677276611e-01 9.086948633193969727e-01
2.271430343389511108e-01 -2.929072380065917969e-01 5.832049250602722168e-01
-1.350835859775543213e-01 2.265228033065795898e-01 -1.558475643396377563e-01
1.180193647742271423e-01 -1.677787303924560547e-01 9.086948633193969727e-01
-1.911998540163040161e-01 -2.929072380065917969e-01 -7.304310798645019531e-01
-2.736349701881408691e-01 -2.901414334774017334e-01 -1.615591347217559814e-01
-1.805497407913208008e-01 2.265228033065795898e-01 1.619953215122222900e-01
2.572775483131408691e-01 -1.066009476780891418e-01 -1.645246446132659912e-01
-2.550293803215026855e-01 2.265228033065795898e-01 3.410021662712097168e-01
-2.736349701881408691e-01 1.894915550947189331e-01 4.061471670866012573e-02
7.163549214601516724e-02 -2.929072380065917969e-01 5.594808459281921387e-01
1.791334748268127441e-01 1.091075688600540161e-01 -2.776409089565277100e-01
1.568170636892318726e-01 2.265228033065795898e-01 -2.351530939340591431e-01
-2.716520428657531738e-01 1.091075688600540161e-01 -8.106085062026977539e-01
-1.504854410886764526e-01 1.091075688600540161e-01 5.843940377235412598e-01
-1.973846368491649628e-02 -2.929072380065917969e-01 -7.861677408218383789e-01
6.330686807632446289e-02 1.091075688600540161e-01 4.493844509124755859e-01
1.449886560440063477e-01 2.265228033065795898e-01 -1.355686970055103302e-02
2.368580549955368042e-01 -1.488765925168991089e-01 -6.525301933288574219e-01
2.572775483131408691e-01 -1.405919641256332397e-01 -3.801920413970947266e-01
2.368580549955368042e-01 -3.600223734974861145e-02 -2.675423324108123779e-01
2.572775483131408691e-01 -1.493729203939437866e-01 -3.008311688899993896e-01
-2.736349701881408691e-01 5.655485764145851135e-02 -7.207714319229125977e-01
-1.880178600549697876e-01 1.815983653068542480e-01 -4.572872817516326904e-01
1.636159718036651611e-01 2.265228033065795898e-01 -7.749443054199218750e-01
-5.953565239906311035e-02 1.815983653068542480e-01 -7.215266227722167969e-01
-1.167634800076484680e-01 1.815983653068542480e-01 -4.969528615474700928e-01
1.834107339382171631e-01 -2.929072380065917969e-01 4.544040858745574951e-01
-2.736349701881408691e-01 -8.886118978261947632e-02 -3.497125506401062012e-01
5.453321710228919983e-02 1.091075688600540161e-01 5.699863657355308533e-02
-1.285367310047149658e-01 1.091075688600540161e-01 -5.744810700416564941e-01
-2.046938985586166382e-01 -2.929072380065917969e-01 4.242745637893676758e-01
-2.736349701881408691e-01 2.242838442325592041e-01 -5.512651205062866211e-01
1.596283614635467529e-01 1.091075688600540161e-01 6.675854325294494629e-01
-2.736349701881408691e-01 -1.375879049301147461e-01 3.065123260021209717e-01
-2.081585824489593506e-01 2.265228033065795898e-01 7.791987806558609009e-02
2.368580549955368042e-01 -2.168944180011749268e-01 8.397418856620788574e-01
2.390349656343460083e-02 2.265228033065795898e-01 -7.162687778472900391e-01
-2.736349701881408691e-01 6.277056038379669189e-02 -5.404339171946048737e-03
-1.918690800666809082e-01 1.091075688600540161e-01 5.523319840431213379e-01
2.368580549955368042e-01 4.855907987803220749e-03 -7.117167115211486816e-01
2.572775483131408691e-01 -2.605298459529876709e-01 -4.543356001377105713e-01
1.004358828067779541e-01 1.091075688600540161e-01 -5.458945631980895996e-01
-1.490797847509384155e-01 1.815983653068542480e-01 4.951798021793365479e-01
4.210962727665901184e-02 -2.929072380065917969e-01 3.833980262279510498e-01
-2.736349701881408691e-01 -1.800675503909587860e-02 7.019266486167907715e-02
1.940213143825531006e-01 -1.031604632735252380e-01 -9.120653271675109863e-01
1.414290517568588257e-01 2.265228033065795898e-01 8.586970716714859009e-02
2.664757892489433289e-02 1.815983653068542480e-01 -8.372159600257873535e-01
-1.821876764297485352e-01 -2.929072380065917969e-01 4.961426258087158203e-01
1.171633154153823853e-01 2.265228033065795898e-01 2.599944174289703369e-01
-2.622148394584655762e-01 -2.929072380065917969e-01 5.335702896118164062e-01
4.051784053444862366e-02 1.091075688600540161e-01 -4.824614524841308594e-01
1.847649663686752319e-01 1.091075688600540161e-01 -7.207407355308532715e-01
-8.428041636943817139e-02 1.091075688600540161e-01 1.942133344709873199e-02
8.402774482965469360e-02 1.091075688600540161e-01 -1.393682509660720825e-01
2.088132500648498535e-01 1.091075688600540161e-01 -3.873319625854492188e-01
2.368580549955368042e-01 -1.475629806518554688e-01 3.882821798324584961e-01
-3.781173750758171082e-02 1.815983653068542480e-01 -5.238856077194213867e-01
4.207097738981246948e-02 2.265228033065795898e-01 7.866580784320831299e-02
-1.933982819318771362e-01 1.815983653068542480e-01 -5.812127590179443359e-01
2.199951857328414917e-01 2.265228033065795898e-01 1.554811000823974609e-01
2.192053645849227905e-01 -2.929072380065917969e-01 -8.580041527748107910e-01
-1.329543590545654297e-01 2.265228033065795898e-01 -2.557594180107116699e-01
1.080140005797147751e-02 -2.929072380065917969e-01 -3.035366833209991455e-01
1.876276880502700806e-01 2.265228033065795898e-01 3.439943492412567139e-01
2.368580549955368042e-01 -2.101982980966567993e-01 -2.296253889799118042e-01
-2.734137885272502899e-02 -2.929072380065917969e-01 -1.232378780841827393e-01
-8.597560226917266846e-02 -2.929072380065917969e-01 -5.238848552107810974e-02
7.128447294235229492e-02 1.091075688600540161e-01 -8.107043504714965820e-01
2.368580549955368042e-01 9.079854190349578857e-02 -1.504631936550140381e-01
-2.736349701881408691e-01 1.823199838399887085e-01 1.752827614545822144e-01
-3.346055373549461365e-02 1.091075688600540161e-01 -6.769827604293823242e-01
-1.568187624216079712e-01 1.815983653068542480e-01 6.874344944953918457e-01
-1.240372098982334137e-02 -2.929072380065917969e-01 7.304471731185913086e-01
-3.426410257816314697e-02 1.091075688600540161e-01 -8.141828775405883789e-01
-1.483957469463348389e-01 -2.929072380065917969e-01 -3.138625621795654297e-01
6.000418588519096375e-02 1.308595389127731323e-01 -9.120653271675109863e-01
2.572775483131408691e-01 8.211949467658996582e-02 6.830861568450927734e-01
-2.192572131752967834e-02 2.265228033065795898e-01 -3.693748414516448975e-01
2.368580549955368042e-01 -2.382984459400177002e-01 -3.336009979248046875e-01
2.292692959308624268e-01 -2.158228904008865356e-01 -9.120653271675109863e-01
1.154364049434661865e-01 -2.929072380065917969e-01 -1.741358488798141479e-01
2.572775483131408691e-01 -1.121872588992118835e-01 -5.138110369443893433e-02
2.572775483131408691e-01 8.450103923678398132e-03 5.484985709190368652e-01
2.368580549955368042e-01 -1.929084360599517822e-01 4.558067619800567627e-01
-2.984243631362915039e-02 -3.074906170368194580e-01 8.633404374122619629e-01
2.572775483131408691e-01 -1.440307404845952988e-02 -5.555818676948547363e-01
1.579212248325347900e-01 2.265228033065795898e-01 -5.197931528091430664e-01
9.785715490579605103e-03 -2.929072380065917969e-01 2.053559571504592896e-01
2.572775483131408691e-01 -1.889830827713012695e-01 -4.617720842361450195e-01
1.072437018156051636e-01 1.091075688600540161e-01 -6.306141614913940430e-01
-1.543811261653900146e-01 1.091075688600540161e-01 7.646810412406921387e-01
-2.545559108257293701e-01 1.091075688600540161e-01 2.056831568479537964e-01
-1.563423126935958862e-01 1.091075688600540161e-01 -8.982463926076889038e-02
9.663015604019165039e-02 1.815983653068542480e-01 -4.538047909736633301e-01
2.548388838768005371e-01 9.157352149486541748e-02 4.819723963737487793e-01
-2.736349701881408691e-01 -1.547973304986953735e-01 -1.610036045312881470e-01
2.297734469175338745e-01 1.815983653068542480e-01 1.811979711055755615e-01
3.024720959365367889e-02 1.091075688600540161e-01 -6.569933295249938965e-01
1.918693482875823975e-01 1.091075688600540161e-01 -9.207803010940551758e-02
-2.736349701881408691e-01 -5.815066397190093994e-03 4.907690882682800293e-01
-1.440117359161376953e-01 1.091075688600540161e-01 -4.660839438438415527e-01
-2.165114283561706543e-01 1.815983653068542480e-01 7.310264706611633301e-01
3.325117006897926331e-02 2.265228033065795898e-01 8.787719607353210449e-01
-2.732425332069396973e-01 1.091075688600540161e-01 5.486547946929931641e-01
-7.931537926197052002e-02 2.265228033065795898e-01 3.689680481329560280e-03
1.100648939609527588e-01 2.265228033065795898e-01 -1.018229722976684570e-01
9.072188287973403931e-02 -2.929072380065917969e-01 -8.392789959907531738e-01
2.572775483131408691e-01 7.977871596813201904e-02 -2.403803020715713501e-01
-5.459432676434516907e-02 2.265228033065795898e-01 -1.446112692356109619e-01
-2.736349701881408691e-01 -1.029594615101814270e-02 3.606595098972320557e-01
2.337837815284729004e-01 1.815983653068542480e-01 -3.493547141551971436e-01
2.040407657623291016e-01 1.815983653068542480e-01 -4.213265478610992432e-01
-2.357674539089202881e-01 5.076421052217483521e-02 9.086948633193969727e-01
2.572775483131408691e-01 -7.322435732930898666e-03 1.278307288885116577e-01
-2.736349701881408691e-01 9.536343812942504883e-02 4.660110771656036377e-01
2.368580549955368042e-01 -2.921174466609954834e-01 -1.334402114152908325e-01
-1.332469433546066284e-01 1.815983653068542480e-01 -4.323889017105102539e-01
-2.463295906782150269e-01 -2.929072380065917969e-01 2.180285602807998657e-01
2.368580549955368042e-01 -3.231571242213249207e-02 8.419857621192932129e-01
1.618801653385162354e-01 1.815983653068542480e-01 5.776574611663818359e-01
1.762470602989196777e-01 1.482710242271423340e-01 -8.667108416557312012e-01
-4.020618647336959839e-02 2.265228033065795898e-01 3.108647167682647705e-01
2.572775483131408691e-01 -1.304803788661956787e-01 6.389781236648559570e-01
-1.167346164584159851e-01 2.265228033065795898e-01 6.419980525970458984e-01
-1.079403446055948734e-03 1.115501597523689270e-01 8.633404374122619629e-01
2.572775483131408691e-01 5.416169017553329468e-02 -3.999353647232055664e-01
-1.732249408960342407e-01 2.265228033065795898e-01 2.648222744464874268e-01
